# .PCD v0.7 - Point Cloud Data file format
VERSION 0.7
FIELDS x y z intensity
SIZE 4 4 4 4
TYPE F F F F
COUNT 1 1 1 1
WIDTH 1243
HEIGHT 1
VIEWPOINT 0 0 0 1 0 0 0
POINTS 1243
DATA ascii
-167.44963 30.515249 1.6399519 8.0695
-167.49228 31.651995 1.9680372 8.0684996
-167.2104 32.659775 1.8194517 8.059
-167.27751 33.966827 1.7799842 8.0585003
-167.34534 35.206383 1.7429212 8.0579996
-167.38234 36.420662 1.7060651 8.0574999
-167.43063 37.575966 1.6715946 8.0570002
-167.45761 44.126335 1.8939077 7
-167.49432 44.644424 1.9303474 7
-167.49216 44.857239 1.7971026 7
-167.55479 45.625542 1.7853098 7
-167.59286 46.171539 1.9052397 7
-167.48376 30.067652 2.0743818 8.0690002
-167.46735 30.978376 2.2264504 8.0695
-167.40842 31.591661 2.2835474 7
-167.48532 31.941683 2.0116196 8.0684996
-167.23599 33.468643 2.1244597 7
-167.35555 39.181705 2.1675384 7
-167.40248 40.066177 2.1557205 7
-167.3351 40.733032 2.088109 7
-167.4649 40.946007 2.1446218 7
-167.38518 41.579811 2.0765407 7
-167.30267 41.752769 2.0133474 7
-167.43105 31.057699 3.856334 9.0690002
-167.43149 32.650352 3.7534802 9.0684996
-167.23874 48.851551 5.8870168 11.0625
-167.40811 47.16415 6.2960281 10.0475
-167.48381 48.544506 6.7846661 12.0515
-167.24147 47.347473 7.0490241 12.061
-167.33884 47.461098 7.4871244 12.06425
-167.23232 47.791191 7.5381026 12.063
-167.55666 48.476303 7.4732509 11.0405
-167.3712 48.824036 7.4076214 11.0095
-167.384 48.94083 7.6249185 12.049
-166.86897 57.927582 -0.069269717 7
-166.94466 58.530682 -0.076322906 7
-167.03928 30.816896 0.5498656 6
-167.15764 31.319471 1.8606133 8.0594997
-167.11455 31.201757 2.1324866 7
-167.19063 32.338642 2.1295393 7
-167.11467 34.305294 2.2300394 7
-167.19794 36.342796 2.2036543 7
-167.18166 38.075356 2.1232512 7
-167.12779 39.732018 2.0032129 7
-166.91888 36.198895 3.650069 9.0675001
-166.8967 35.24139 5.1336303 10.0625
-167.13786 47.944561 5.424243 11.052
-167.15459 48.384567 5.564178 11.062
-166.84666 46.667255 5.9360933 11.0655
-167.03284 47.878918 5.9100456 11.063333
-166.93497 50.426983 6.4850235 11.046
-167.09517 47.14257 6.9665446 12.057
-166.9933 47.365589 7.1800327 12.0645
-166.82184 50.043758 7.192564 11.044
-167.17795 47.414665 7.7489767 12.05
-167.13579 47.885693 8.1478386 12.0475
-167.0813 48.029617 8.1813784 13.052
-167.12943 48.236977 8.5368795 13.064
-166.56027 38.793968 3.52349 9.0679998
-166.67421 35.586811 3.7877903 9.0684996
-166.43927 41.964687 4.5894146 10.064
-166.71957 47.126057 5.9923925 11.0635
-166.69804 50.146931 6.2944903 10.046
-166.71852 48.191868 6.6554842 11.0475
-166.71597 48.671474 6.892477 12.06225
-166.76982 49.042744 7.1100512 12.0635
-166.6649 49.303833 7.1208649 12.063
-166.6622 50.030048 7.1737671 11.0105
-166.62328 48.339634 7.3468833 12.06325
-166.4754 48.785427 7.479146 12.0495
-166.54807 49.37056 7.3299775 11.0465
-166.64919 49.653996 7.2117767 11.04
-166.48093 50.384701 7.3153958 12.0485
-166.72331 49.208447 8.0342855 13.056
-166.153 58.774204 4.7792215 11.0575
-166.16158 34.924618 5.3407979 10.07
-166.27986 48.645222 5.6717839 11.065
-166.19841 48.82856 5.9809704 10.047
-166.26695 48.922882 6.0866041 10.047
-166.10915 48.775646 6.5631309 12.052
-166.15038 48.807869 6.6343894 12.0565
-166.11748 49.419613 6.4467611 11.047
-166.04968 47.78104 7.197021 12.0645
-166.06404 49.052254 7.1190753 11.017
-166.31473 49.552216 7.127943 11.029
-166.14557 49.768379 7.0814958 11.0165
-166.34927 49.113495 8.1259661 13.061251
-165.70787 56.140263 3.3616536 8.0419998
-165.78537 57.448757 3.4740977 10.059
-165.71918 55.939896 4.0170608 9.0039997
-165.6982 56.084629 4.0864525 9.0035
-165.88309 35.005463 4.6316504 9.0544996
-165.91965 58.203163 4.8027492 11.058
-165.9465 59.162209 5.1863699 10.0395
-165.96544 58.969196 5.5283136 12.0495
-165.69405 48.850231 7.1461377 12.0645
-165.6859 43.432831 9.5745516 13.0665
-165.94839 41.221573 11.887636 14.0685
-165.36949 59.326393 -0.50708443 5
-165.33388 56.894398 0.64975023 8.0030003
-165.21593 56.551403 1.040971 8.0030003
-165.5136 56.237354 3.4292946 9.0424995
-165.29514 48.165478 3.9908252 10.0615
-165.35281 55.541519 3.8752329 9
-165.4362 55.662144 3.8794641 9
-165.51308 56.330891 3.8748679 9.0039997
-165.27124 58.404301 3.9962592 9.0024996
-165.36624 47.947399 4.1146069 10.065
-165.41656 55.918575 4.1310296 9.2637501
-165.45851 55.766197 4.549098 11.0475
-165.2648 55.499519 5.2428007 10.004167
-165.29956 55.726185 5.2335625 10
-165.47382 31.230804 5.8032355 10.0695
-165.58829 49.595276 5.629447 11.063
-165.48312 49.378185 6.1511393 10.047
-165.58948 32.78434 7.0042701 11.064
-165.43251 48.562893 7.0955868 11.5555
-165.52026 48.95565 7.1213675 12.066
-165.39371 49.336845 6.9823012 11.045
-165.34204 48.671478 7.8836455 13.057
-165.40651 49.016216 7.9493337 13.061
-165.39088 42.560989 8.1855078 11.0115
-165.33617 49.091602 8.0669851 13.063499
-165.3358 43.58794 9.9137964 12.011
-165.37263 42.508541 10.637765 13.0505
-165.20741 42.48399 11.078189 14.052
-165.05943 56.32085 0.48069569 8.0024996
-164.97331 56.946445 0.5879631 8.0024996
-165.05681 56.225624 1.0991896 8.0019999
-164.87448 58.786484 2.128552 8.0019999
-164.82301 58.973984 2.0267098 8.0019999
-164.9839 49.199825 2.7565327 9.0635004
-165.19455 55.752468 3.418509 9.0430002
-164.82858 57.174397 3.3172684 9.0419998
-164.92154 59.224308 3.3889468 10.0725
-165.09785 59.955563 3.2246418 10.0575
-164.96863 47.063755 3.8357406 9.0489998
-165.07306 47.984814 3.933975 10.0575
-164.85397 50.308624 3.6507711 9.0469999
-165.06732 55.466465 3.8478456 9
-164.95695 55.918133 3.8031728 9.0045004
-165.03824 56.206669 3.8693619 9.0064001
-164.84398 59.768391 3.8619046 9.0019999
-165.05815 43.388699 4.2357678 10.0555
-165.12013 56.171566 4.2032948 10.045
-164.88927 56.684784 4.1066518 9.0410004
-165.03561 56.896667 4.2581549 9.0415001
-165.06691 37.148289 4.4258118 9.0539999
-165.13409 55.55418 4.5553613 11.0525
-164.89326 57.936234 4.6721473 11.0585
-164.9613 58.191677 4.6879172 11.0585
-164.98135 59.739437 5.1408095 10.01925
-165.06223 55.484138 5.2842288 10.021
-165.14163 57.922802 5.3298025 11.042
-165.09296 58.349041 5.3347745 10.0025
-165.01944 59.858829 5.2571158 10.010876
-164.85532 33.962761 5.6815104 10.0575
-164.92929 58.703777 6.2881775 12.043
-164.89413 59.462624 6.2270856 11.025499
-164.94772 59.654667 6.2169623 11.0255
-165.06319 43.018688 6.7656374 10.0085
-165.18892 48.947971 7.0043254 11.041
-165.03249 49.293285 6.9148831 11.014
-165.14639 36.966953 7.6086612 11.054
-164.93872 44.288486 8.1224871 11.0105
-165.07825 36.700207 8.4041214 11.015
-164.9659 44.143589 9.4648094 13.068251
-165.04352 44.485119 9.3209753 13.0655
-165.10045 41.766251 9.7488737 13.0665
-164.83676 42.121212 10.537017 13.0185
-164.47545 48.63512 1.3561559 8.0640001
-164.78323 58.929512 2.0380132 8.0019999
-164.77896 48.630802 2.606355 9.0614996
-164.57745 48.989536 2.6262434 9.0639992
-164.5043 57.271797 3.5798728 9.0024996
-164.48537 58.962879 3.3605802 10.058
-164.72281 49.025898 3.7755973 10.0525
-164.50383 50.333126 3.9628429 10.064
-164.55652 55.760128 3.7238038 9.0035
-164.75981 56.175945 3.81476 9.0065002
-164.75087 56.92931 3.7586317 9.0045004
-164.73537 58.332588 3.8270819 9.0024996
-164.54276 50.489456 4.1769147 9.5544996
-164.54947 56.09116 4.0738063 9.0035
-164.71727 57.748386 4.3335981 9.0410004
-164.72905 58.938805 4.2664838 11.0545
-164.43936 59.452839 4.2154408 11.056
-164.68785 59.615089 4.2921004 10.04
-164.45546 50.302433 4.5410738 10.048
-164.77824 59.470661 4.5155287 11.0575
-164.59714 50.517208 4.9351845 10.55375
-164.78656 55.452076 5.1726532 10
-164.63611 56.252621 5.1214509 10.0045
-164.7195 57.483589 5.1297708 10.0345
-164.5433 58.399616 5.018476 11.073
-164.72002 59.47139 4.9967704 10.004
-164.67734 59.808414 5.0157204 10.0325
-164.41373 45.000324 5.4194946 11.055
-164.52017 57.221207 5.4692359 10.0415
-164.74171 59.498619 5.4526243 12.058
-164.63118 59.643806 5.3844156 11.04
-164.68661 34.177868 5.7639046 10.056
-164.45021 48.978878 6.3405037 11.076
-164.45103 56.989819 6.2806339 11.035
-164.57516 59.966034 6.170876 12.04125
-164.4465 56.094131 6.5575557 11.0045
-164.5345 59.679127 6.4814134 13.058
-164.40054 56.097321 6.8068385 11.004
-164.61035 32.174004 9.0104523 12.07
-164.63396 41.68977 8.9928398 12.022
-164.58832 44.056446 9.0227041 11.009
-164.53505 44.61079 9.0221605 11.0085
-164.72932 44.137398 9.3415098 13.0675
-164.4272 41.563549 9.7502127 13.0685
-164.68991 42.09753 9.6700401 13.0675
-164.5894 42.821812 9.7867155 13.0515
-164.51538 44.569538 9.8393364 12.0105
-164.48351 44.247852 10.258588 13.05025
-164.63258 44.587536 10.252501 13.03125
-164.52562 44.206326 10.539337 13.6393
-164.71999 43.173592 11.194399 14.0665
-164.7321 43.356617 11.051015 14.066
-164.51816 42.947414 11.249232 14.068
-164.17839 58.854393 0.63578856 8.0015001
-164.01773 55.469234 1.5628643 8.0024996
-164.01186 55.749931 1.305181 8.0030003
-164.14954 47.444313 2.6400666 9.0625
-164.03995 48.932568 2.7384245 9.0644999
-164.1243 50.070812 3.5915821 9.0474997
-164.12372 55.685654 3.5397828 9.0035
-164.33214 36.151878 3.614352 9.0699997
-164.31395 49.951313 3.8857312 10.0655
-164.15274 50.219196 3.7940323 10.058001
-164.15215 55.386993 3.8561041 9.1553574
-164.25746 55.785965 3.8452396 9.003583
-164.25887 56.817211 3.9525425 9.0419998
-164.22923 58.693462 3.6554959 9.0024996
-164.16273 59.89423 3.7106183 9.0205002
-164.18082 50.18782 4.2325311 9.3858337
-164.38251 55.916828 4.0126896 9.0037498
-164.20416 57.785278 4.1132436 9.0410004
-164.39532 50.380322 4.4431291 10.0495
-164.32433 55.727089 4.5814624 11.061
-164.16194 34.583057 5.1905589 10.072
-164.01369 42.386806 4.8121657 9.052
-164.25543 50.362217 4.9294105 11.0565
-164.08681 55.049541 5.123929 10.0315
-164.06877 55.294125 5.1210184 10.03075
-164.03854 55.935905 5.1604352 10.0045
-164.20612 57.371346 5.0341353 10.0315
-164.35094 59.717213 4.9328752 10.0255
-164.27599 34.666027 5.469213 10.0705
-164.26646 36.832466 5.4539781 9.0544996
-164.31544 48.908909 5.5700831 11.064
-164.01871 49.213207 5.4567471 11.0645
-164.14 50.180672 5.4651647 10.0405
-164.24979 56.127239 5.4520545 10.016833
-164.08418 56.956684 5.295506 10.0035
-164.22911 59.987293 5.2661653 10.0015
-164.07585 55.939301 5.828567 10.003833
-164.23462 59.41655 5.6270905 12.064
-164.32483 48.35815 6.1325488 11.076
-164.0921 55.733673 6.3450541 11.008166
-164.16438 59.930241 6.0636144 11.0325
-164.25255 49.126057 6.5978074 12.065
-164.29349 55.842186 6.5395284 11.002251
-164.35968 47.611946 7.1725082 12.065
-164.06723 55.83186 7.4783974 12.026751
-164.04427 59.207561 7.5333424 13.0405
-164.29552 42.626732 9.5422277 13.06675
-164.00244 42.380569 10.070918 12.0115
-164.29546 43.743176 10.361761 13.0135
-164.27727 44.362133 10.317302 13.0505
-164.14153 43.60556 11.242501 14.0695
-163.82178 59.265888 -0.093574189 7
-163.64252 58.873661 0.96096194 8
-163.92476 46.992966 1.4342636 8.0652504
-163.70401 49.263237 1.3654298 8.0644999
-163.68042 59.148781 1.8397959 8.0415001
-163.69096 58.609985 2.1429899 8.0024996
-163.64719 58.869713 2.0418253 9.059
-163.91803 46.960419 2.697773 9.0644999
-163.93449 48.77906 2.5397258 9.0655003
-163.89737 48.952484 2.710743 9.0649996
-163.70251 49.634953 2.6572356 9.0640001
-163.70364 40.3237 3.0675225 9.0679998
-163.98981 44.954155 3.5788593 8.0504999
-163.83121 49.305321 3.2064991 9.0504999
-163.76595 55.790306 3.5793867 9.0030003
-163.80782 56.187862 3.5329039 9.0031672
-163.65532 56.420853 3.5303869 9.0030003
-163.87781 57.00618 3.5415964 9.0024996
-163.97089 59.701775 3.2795391 10.058
-163.88925 56.283817 3.6856132 9.0031004
-163.90991 56.496395 3.6213918 9.0026665
-163.89194 57.022987 3.6284382 9.0030003
-163.74644 57.373791 3.6699364 9.0030003
-163.60155 59.892868 3.784657 9
-163.73041 49.312763 4.0782094 9.007
-163.67535 49.871468 4.0907178 9.3590002
-163.74446 50.370159 4.2807136 10.076
-163.77649 57.096741 4.0104423 9.0030003
-163.94743 36.199642 5.0070715 10.069
-163.9626 36.494499 4.9258385 10.067166
-163.75633 36.866966 5.1960783 9.0544996
-163.60962 50.639511 5.0279546 11.0645
-163.89867 56.245823 5.1050115 10.004333
-163.8409 56.612316 5.1014843 10.0165
-163.77956 56.966427 5.0558591 10.003833
-163.91068 57.376736 5.0775537 10.0035
-163.93208 58.012566 4.9612427 10.031
-163.77693 36.584404 5.4718757 10.0555
-163.77107 49.009525 5.4895644 10.0415
-163.73654 49.528671 5.4217105 10.55475
-163.72711 49.66502 5.3817563 10.5535
-163.74261 50.172779 5.3371172 10.021
-163.75919 55.470398 5.5225525 10.0045
-163.80641 56.265381 5.3910456 10.11175
-163.89986 59.756191 5.2217259 10.0395
-163.82249 49.656052 5.6471872 10.0475
-163.86894 55.778481 5.9433842 10.004
-163.93343 56.071838 5.9705133 10.0035
-163.76485 49.694122 6.3268209 12.06225
-163.84787 55.34169 6.2627096 11.033
-163.69281 55.830978 6.2288108 11.0224
-163.69713 56.257732 6.1716051 11.032333
-163.8569 56.512909 6.2227421 11.0165
-163.96893 56.888763 6.1791868 11.03
-163.74335 55.109207 6.4163675 11.0055
-163.81137 55.508266 6.4195991 12.0445
-163.84296 58.36124 6.9283533 13.059
-163.76462 58.833214 7.0721993 12.0405
-163.89157 55.767647 7.4598408 12.028501
-163.84233 41.838478 7.6971836 11.013
-163.72984 59.023319 7.6774068 12.0025
-163.77972 58.749367 8.3976727 13.0265
-163.80801 58.920006 8.3552876 13.0335
-163.67094 44.984268 8.5764217 11.009
-163.67258 43.896835 9.2915316 12.0115
-163.82104 37.847496 9.6932421 13.0685
-163.88467 42.380905 9.686574 13.07
-163.75481 42.073395 10.743657 14.0545
-163.93797 43.885899 10.462598 14.0535
-163.90082 43.237244 11.000847 14.066999
-163.8069 43.084103 11.20256 14.069
-163.9241 43.668533 11.971187 15.0535
-163.45349 58.548698 -0.12038947 7
-163.25845 59.061882 -0.099896401 7
-163.3665 59.267979 -0.083656937 7
-163.54356 58.700592 0.74442935 6
-163.39519 58.27042 1.1205416 7
-163.53171 58.73624 0.96498406 8.0190001
-163.37212 58.708794 1.8141253 7.5209999
-163.23079 58.86908 1.8836629 8
-163.30557 58.645981 2.1210883 8.2667494
-163.3369 49.871529 2.631814 9.0640001
-163.4088 42.823463 3.0379899 9.0670004
-163.39607 50.041183 3.0423386 8.0474997
-163.27072 58.879452 3.0173907 10
-163.35033 39.02037 3.4017332 9.0690002
-163.5461 40.229038 3.2916048 9.0690002
-163.25623 49.71743 3.2202418 9.0489998
-163.41716 55.60762 3.59393 9.0030003
-163.31665 58.321438 3.5784807 10.074
-163.23846 49.678986 3.8703599 10.0655
-163.44409 50.225365 3.7909839 10.064666
-163.46928 50.558739 3.903626 10.064
-163.56573 55.40691 3.6605406 9.0030003
-163.27966 57.728371 3.8907821 10.0445
-163.35959 43.06741 4.2038102 10.061
-163.45706 43.202145 4.2672868 10.065
-163.20132 49.378311 4.3438463 10.0765
-163.295 50.477146 4.3058262 10.05
-163.26215 59.429317 4.331821 11.0595
-163.4967 59.823692 4.2044182 10.385166
-163.4944 44.475826 4.7361846 10.0535
-163.26144 49.178688 4.7842422 10.0485
-163.50848 49.753151 4.7719998 10.048
-163.58788 50.441513 4.7310753 10.0475
-163.35667 59.592873 4.7772264 10.0065
-163.3132 59.794109 4.6802797 10.5365
-163.59874 37.131725 5.0198202 10.069
-163.52365 50.365616 5.1992884 11.0645
-163.51016 50.741188 4.9068131 11.06175
-163.24771 57.984356 4.8429055 10.023
-163.20964 59.348167 4.9239883 11.0415
-163.41457 59.747704 5.0493846 11.801375
-163.59555 34.144394 5.482779 10.071
-163.46928 48.476608 5.4821296 10.042
-163.27028 49.034534 5.4026289 11.065
-163.43848 49.662735 5.32268 11.0645
-163.53618 50.263657 5.5682583 11.05
-163.50317 55.473755 5.3678107 10.0045
-163.51382 55.859917 5.4259582 10.54325
-163.30688 59.425568 5.3378258 12.0585
-163.46239 59.805614 5.3455071 11.069
-163.51218 58.768059 5.8601136 10.0025
-163.37482 59.106358 5.7811012 10.002
-163.45422 49.324478 6.1284599 12.053
-163.52686 55.251686 6.2603049 11.01
-163.44061 55.86998 6.1380668 11.029
-163.50204 56.293537 6.1770558 11.016
-163.22136 59.606972 6.1847005 13.0565
-163.52792 55.29921 6.660243 13.0535
-163.21291 57.785316 6.5195847 11.003
-163.29602 59.384468 6.6993818 11.002
-163.47768 58.891048 7.1494079 12.0395
-163.55486 59.134132 7.2818446 12.04
-163.28004 58.24976 7.7561955 12.003
-163.56551 44.112503 8.6146936 11.0095
-163.29762 44.587784 9.0764217 11.509501
-163.56529 45.197021 8.9888296 13.066
-163.35219 42.366386 9.4676762 13.0675
-163.4856 45.04163 9.2356567 13.0705
-163.44463 45.202217 9.950675 12.01
-163.21753 43.483776 10.376341 13.013
-163.27567 43.652714 10.051831 13.0155
-163.38016 44.035019 10.184746 14.068
-163.27505 44.564571 10.252525 13.042834
-163.37277 45.248234 10.204116 13.024834
-163.56203 39.322575 10.692366 14.0625
-163.32463 44.453949 10.724253 13.0115
-163.20285 44.40527 10.920984 15.056
-163.33316 45.330833 11.078376 15.064
-163.30707 43.249451 11.478099 14.051
-163.32393 44.284924 11.791417 15.052
-162.85199 55.019493 -0.091167904 6
-162.8277 54.835876 0.3393575 7
-162.84265 54.754429 0.67841768 7
-162.84923 54.894829 0.75271428 7
-162.96779 57.894814 0.42470503 8.0019999
-162.86464 55.020496 1.0410694 7.7576876
-163.05254 58.665031 0.97675616 7.7059999
-163.07683 59.072708 0.90205145 6.5
-163.11377 49.026382 1.3365413 8.0647497
-162.90826 58.663143 1.472301 7.6683331
-163.1804 59.159241 1.5601968 7
-162.90335 59.80777 1.5283183 7
-162.90569 55.089962 1.7745252 8
-162.95221 58.618671 1.810663 8.3673334
-163.00909 59.033058 1.8895111 8.7154999
-162.94695 59.302681 1.9543191 9.0550003
-163.02017 59.982407 1.7508254 8
-162.8512 55.109802 2.1480184 8.8826876
-162.91199 55.225567 2.1587791 9
-163.03632 58.597984 2.0321679 8.3678331
-162.81442 59.439976 2.1060266 8.0019999
-162.9543 48.891861 2.5347822 9.0640001
-162.98631 49.454422 2.465538 9.0620003
-162.95177 49.723148 2.5027504 9.0618334
-162.80194 55.086006 2.7272878 8
-163.00494 58.45285 2.7801919 9.0439997
-162.86006 55.112206 3.0720766 9.666667
-163.01079 58.691109 3.0283346 10.0555
-162.83034 58.810318 2.8106623 8
-162.87032 59.738239 2.9938884 9.7747498
-162.80698 36.944244 3.3197229 9.0710001
-162.84009 55.238548 3.276799 10
-162.8893 57.199596 3.5742776 9.0059996
-162.91808 57.862602 3.5659316 9.0042496
-163.03804 58.164204 3.5531213 9.0030003
-162.98262 59.893417 3.4576185 9.0007496
-163.02295 57.817669 3.718473 9.1825838
-162.86249 48.504852 4.0645666 10.065
-163.00882 57.477188 4.139585 11.052
-162.99025 57.73608 4.0914788 11.047
-163.05869 48.798244 4.5668578 9.0485001
-163.11026 59.846027 4.9808474 11.714168
-163.19673 49.340969 5.5688343 10.048
-163.16576 49.690262 5.2804332 11.067
-162.823 50.255066 5.8539352 11.048
-163.04227 57.72382 5.8493028 10.003
-162.87274 59.020908 5.7906857 10.002334
-163.09644 59.237587 5.7354317 10.002
-162.8795 59.874256 5.9863949 11.0395
-162.90034 49.665039 6.3062892 12.064501
-162.90308 58.769699 6.053062 11.0405
-162.95389 58.947548 6.0931172 13.046
-162.8548 50.658257 6.5850587 11.806376
-162.81808 58.138374 6.7973571 13.0605
-162.87784 58.689827 6.6942906 13.0605
-162.91792 59.066074 6.4499545 13.059
-162.94319 59.770245 6.6559262 12.032
-163.04265 48.155544 6.9407196 12.0655
-162.93275 48.409534 6.9059911 12.065
-162.9037 50.999798 6.8144045 11.047
-163.07697 59.402447 7.0284004 13.0415
-163.01013 59.910515 7.1006742 12.016251
-163.16339 33.414684 7.3028193 11.07
-163.09904 58.726799 7.3173909 14.0555
-162.99217 59.100746 7.2128778 12.007
-162.85434 59.29174 7.3500724 12.002666
-162.87465 59.953388 7.3081331 12.6875
-162.91968 57.949608 8.1617641 13.039
-162.93573 58.209435 8.3890762 15.0515
-162.92822 59.473103 8.1286831 13.026
-162.84514 59.97274 8.0452833 13.0295
-163.10588 42.926552 8.6072321 12.016
-162.90108 40.473511 8.8422079 12.0175
-163.11403 45.070107 9.0936394 12.357666
-163.06256 44.200035 9.24722 11.695333
-163.08865 44.914436 9.2876301 12.011
-163.02252 43.519806 9.9105463 13.0215
-163.1797 44.100212 9.9061174 13.018
-163.04628 44.971931 9.7674923 13.0175
-162.91338 41.778515 10.146443 13.0195
-163.02007 44.392815 10.169039 12.01
-163.10684 44.63015 10.239981 13.2386
-162.96713 42.218086 10.494746 14.069
-162.81978 43.958237 10.411016 14.068
-163.03535 44.16909 10.630097 13.53175
-163.00728 44.510292 10.635377 14.06675
-163.07849 45.05838 10.623575 13.271126
-163.02682 34.706985 11.160656 13.043
-162.87613 42.792778 10.956776 12.01
-163.16803 44.160706 10.862522 13.0115
-162.88 44.544182 11.047038 14.386666
-162.87531 44.954651 11.139306 15.06525
-163.11716 45.260193 10.872843 15.06
-162.92601 44.091286 11.322574 14.018
-162.95302 44.585289 11.31803 14.051
-162.83643 42.163509 11.655363 13.012
-163.11543 42.4468 11.940133 14.014
-162.99551 43.487957 11.624197 14.0515
-163.16232 44.325882 11.602407 15.068
-162.85188 35.552498 13.347845 11.0855
-162.59032 59.302048 -0.59846371 8.1774998
-162.78792 54.931602 -0.092111543 6
-162.70863 58.078564 0.38070425 8.0019999
-162.56435 46.588852 0.58582574 6
-162.62451 46.880348 0.66478896 6
-162.58717 54.932083 0.51444149 8.0030003
-162.71935 58.597523 0.537817 8.0024996
-162.41882 46.836704 1.1797706 8.0664997
-162.75829 54.906925 1.0454633 7.7509999
-162.72758 58.57888 1.0503856 8.0019999
-162.5163 40.724365 1.3495992 8.0684996
-162.5239 46.885582 1.3588156 8
-162.74689 49.730968 1.2495264 8.0644999
-162.6317 54.945889 1.5679674 8.0024996
-162.51633 59.761353 1.5783544 8
-162.62793 54.942467 1.7788023 8.0240002
-162.49184 58.125313 1.9809635 8.0030003
-162.65677 59.446346 1.9572006 8.6955004
-162.52339 59.798866 1.9665856 9.0587502
-162.5047 49.84948 2.3347518 9.0301256
-162.73853 54.952293 2.2215555 8.8000002
-162.59148 59.185684 2.0087998 9.059
-162.5858 59.799049 2.0403287 9.0292501
-162.60974 46.771954 2.559999 9.0594997
-162.62592 48.515091 2.4629123 9.0585003
-162.64622 49.332283 2.4188919 9.0579996
-162.48003 49.875343 2.583806 9.0644999
-162.73247 55.000244 2.7246764 8
-162.79662 59.652168 2.7217216 9.0430002
-162.75545 37.143787 3.061821 9.0714998
-162.5074 40.654984 2.9451904 9.0690002
-162.63361 41.175518 3.1093132 9.0679998
-162.45868 45.455128 2.8654878 9.0668755
-162.73534 55.019047 3.0724432 8.6091003
-162.56145 57.376244 2.9308538 9.5454998
-162.6322 59.849277 3.0863771 10.028916
-162.74358 37.104149 3.4809313 9.0705004
-162.54741 37.276363 3.4960921 9.0699997
-162.47987 40.432526 3.231905 9.0695
-162.61203 44.403038 3.4601624 8.0515003
-162.44498 45.395515 3.4059565 8.0509996
-162.68591 49.929348 3.5390067 10.053
-162.70213 54.9804 3.3945785 9.7509375
-162.78284 55.208424 3.2568951 10
-162.68083 57.352299 3.5203195 9.0054998
-162.746 57.870747 3.5048838 9.0036669
-162.7606 58.033264 3.4860222 9.0035
-162.59273 59.271469 3.3570206 9.0022497
-162.45723 59.994011 3.4188488 9.0015001
-162.58466 45.912979 3.9069936 10.06
-162.63818 49.808128 3.7020657 10.06375
-162.71617 54.767628 3.6270971 9.0035
-162.69337 54.927319 3.7986457 9.1142778
-162.6286 59.827885 3.8122594 10.307071
-162.40067 36.797733 4.2105994 9.0555
-162.45201 45.44091 4.031899 10.06525
-162.77077 46.204811 4.2546988 10.066
-162.43982 47.11834 4.1475959 10
-162.60298 49.022079 4.2642021 9.2992496
-162.46115 49.568237 4.1181197 9.0474997
-162.60194 49.871674 4.0757008 9.007
-162.72197 55.07877 4.1669354 10.007584
-162.75519 55.245506 4.3635206 11
-162.79076 57.629089 4.1425009 11.0565
-162.40579 59.514999 4.2257829 11
-162.65573 59.858044 4.1091108 11.0585
-162.56361 40.851448 4.4490585 10.067249
-162.60143 41.373646 4.5082955 10.0695
-162.7067 48.697491 4.4451599 10.077
-162.68625 54.999237 4.6478229 11
-162.7326 55.21627 4.4078717 11
-162.4769 59.807457 4.6463566 10.779125
-162.52383 37.417492 4.8780847 10.071
-162.58792 50.182259 5.143672 11.06575
-162.42223 54.390942 4.8981028 10
-162.49834 54.56744 4.9157662 10
-162.62239 54.973484 5.0047469 10.128782
-162.42442 58.931374 4.8130574 11.074
-162.56943 59.976646 4.9056301 12
-162.45003 48.864048 5.2903194 11.067
-162.52461 49.45607 5.3226547 10.8592
-162.47807 49.832081 5.3967161 10.53675
-162.52431 50.204964 5.4023929 10.7155
-162.69275 54.989067 5.3305469 10.378125
-162.69594 55.269451 5.4689116 12
-162.55377 57.195572 5.4237289 10.08
-162.68047 58.759762 5.4716339 10.688167
-162.56018 59.037235 5.2984338 11.373668
-162.59947 59.320518 5.4798555 10.002
-162.54128 50.29628 5.9621987 12.0575
-162.62163 54.980415 5.8492551 11.549308
-162.78928 57.771526 5.7599554 10.0025
-162.61111 58.529247 5.8397231 10.521
-162.52817 59.08102 5.7959528 11.030375
-162.49312 59.378101 5.8223376 11.164571
-162.6628 59.858398 5.7833056 10.76925
-162.73434 48.923901 6.2582479 12.0625
-162.52669 49.502991 6.0604076 12.058
-162.55902 50.62532 6.1986732 11.570749
-162.4789 54.638069 6.0636826 11
-162.58376 54.989895 6.2059197 10.883383
-162.67708 58.603542 6.0596447 11.684166
-162.52399 59.073242 6.1197762 11.010099
-162.64999 59.768776 6.1775723 12.04925
-162.64697 43.983047 6.4900503 10.009
-162.60565 50.55151 6.5337029 11.774858
-162.69955 50.918816 6.5656791 11.282
-162.64093 55.085392 6.6051679 12.001667
-162.67039 55.266006 6.5612059 13
-162.60052 58.273182 6.7123489 13.060499
-162.55106 58.720013 6.5399041 11.689332
-162.58224 58.967361 6.7116356 11.8257
-162.5717 59.84956 6.5562377 12.70975
-162.54393 47.96806 6.9827619 12.069
-162.58342 48.054249 7.019021 12.07
-162.51341 49.12854 6.9183888 11.0485
-162.5927 50.577312 6.9501786 12.049333
-162.43524 54.732498 7.1729503 12
-162.63341 55.023388 7.0205817 12.002
-162.43895 57.978901 7.1507626 12.008
-162.43814 58.667385 7.0082145 11.687833
-162.56377 58.979248 6.9820313 12.208726
-162.42567 59.224255 7.0479074 12.01
-162.60631 59.726891 7.0134745 12.21715
-162.43289 50.30439 7.5623722 12.0455
-162.74284 50.704971 7.432591 12.553249
-162.57895 50.872971 7.3611083 13.063999
-162.54837 55.020451 7.4145517 12.291143
-162.69635 55.231415 7.5417237 13
-162.51073 57.197342 7.5206861 12.004
-162.73016 57.365967 7.3547759 12.042
-162.43073 57.76833 7.4792056 14.0605
-162.68866 58.628201 7.2682462 13.0415
-162.68172 58.8778 7.3563695 14.0595
-162.66695 40.235817 7.868289 12.056
-162.45891 55.083019 7.7397084 12.666667
-162.57707 55.285282 7.7492294 14
-162.65021 35.745922 8.3980045 12.0715
-162.431 54.791969 8.3030024 13
-162.55209 55.065022 8.2536974 12.884624
-162.61548 55.202053 8.3737669 14
-162.48669 56.986572 8.1973019 13.02975
-162.53018 58.329079 8.2763653 13.0145
-162.76057 58.544197 8.0347309 14.044
-162.53282 58.945068 8.0295191 13.0305
-162.63083 59.47451 8.0201645 13.03
-162.52513 44.9711 8.6449471 12.012
-162.5658 55.068352 8.520463 13.5
-162.61917 55.278919 8.7547712 15
-162.73824 44.84798 9.0319796 13.069
-162.43579 55.196209 9.1181059 15
-162.53922 55.357777 8.8852262 15
-162.51105 42.485695 9.2741671 13.0675
-162.64322 35.204525 9.7264853 12.056
-162.71767 44.762535 9.787714 13.015
-162.65749 44.928795 9.6883945 12.53075
-162.65158 44.224922 10.127669 14.054
-162.41504 43.976269 10.557065 14.067
-162.61436 44.200466 10.595625 13.553375
-162.6819 44.512077 10.469425 12.0095
-162.63429 43.472115 10.889408 14.068501
-162.67227 44.175831 10.962039 13.878334
-162.7798 44.439133 11.153355 14.023
-162.72212 45.002197 11.138723 14.0175
-162.5015 41.296959 11.207767 14.068
-162.60558 42.938484 11.31139 14.026
-162.59126 43.964233 11.487644 13.5125
-162.65273 44.248241 11.462582 14.028084
-162.69141 44.520782 11.230212 13.011
-162.5746 41.986145 11.819672 14.0525
-162.65457 43.860558 11.677648 14.0515
-162.70999 44.06403 11.867088 14.359166
-162.65695 42.076408 12.038697 14.014
-162.46974 43.261696 12.138597 15.06825
-162.48335 43.820351 12.599524 15.0255
-162.01076 59.65041 -1.0795606 6
-162.31972 58.119621 0.50721169 8.0024996
-162.16054 57.634087 0.85994393 8.0030003
-162.15044 58.336487 0.99747014 8.0019999
-162.37798 58.565643 0.88338488 8.0015001
-162.12569 46.993217 1.3943886 8.0664997
-162.269 47.991718 1.3171222 8.0655003
-162.14278 48.31839 1.271071 8.0655003
-162.20508 49.357254 1.2389861 8
-162.23116 58.271854 1.2367594 8.0024996
-162.14833 34.652786 1.8372631 8.0705004
-162.37355 40.5089 1.6970079 8.0692501
-162.30629 58.229946 1.9249024 8.0024996
-162.20441 59.786983 1.9471927 8.6801672
-162.16336 49.460224 2.335211 9
-162.38609 58.043922 2.0614777 8.0030003
-162.23598 59.532784 2.0313904 9
-162.0459 59.886707 2.0012822 9
-162.23897 45.168983 2.5862734 9.0684996
-162.2235 45.55069 2.6953974 9.0670004
-162.24239 46.88723 2.7341928 9.0664005
-162.06232 47.497673 2.7010512 9
-162.1375 48.174614 2.6190991 9.0640001
-162.26138 48.449722 2.4851346 9.0629997
-162.3046 49.83477 2.4947889 9.0655003
-162.03925 50.032452 2.5496247 9.0655003
-162.06116 57.953888 2.7804708 8.0415001
-162.23016 58.12352 2.7811611 9.0430002
-162.30804 58.41935 2.793067 8.0410004
-162.16263 59.986725 2.5943789 8
-162.10793 37.352421 2.9942207 9.0714998
-162.28969 37.729179 3.148958 9.0695
-162.27954 40.279316 3.0493841 9.0690002
-162.35992 40.406391 3.0729501 9.0699997
-162.0596 46.800823 3.1608865 9.0530005
-162.07265 49.979469 3.0193524 9.0509996
-162.08588 50.1922 2.9829848 9
-162.157 58.160702 2.9370029 10.047
-162.10611 59.462448 3.0137391 10.0285
-162.15953 59.777351 3.0112844 10.005
-162.30797 48.150101 3.2054746 9.0504999
-162.07092 49.51553 3.510627 10
-162.09999 50.032009 3.4739547 10
-162.26866 50.689247 3.3774588 9.0480003
-162.15607 57.444756 3.5066209 9.0054998
-162.16756 57.940163 3.4768507 9.0080004
-162.03059 58.714287 3.554729 9
-162.18582 58.847107 3.4676313 9.0009995
-162.28554 59.492744 3.412806 9.0024996
-162.28972 59.806259 3.4373903 9.0007849
-162.3094 44.294109 3.9515831 10.0565
-162.39714 45.158897 3.9560857 10.0605
-162.31865 45.238052 3.8752325 10.056
-162.17186 47.011951 3.8452191 10.0625
-162.17213 47.934002 3.7802007 10
-162.12027 48.092953 3.6964848 10.028375
-162.16695 48.46917 3.8349991 10.0665
-162.18144 48.996689 3.9233007 10.06575
-162.20514 50.193527 3.7917466 9.5032501
-162.07825 51.029835 3.7445245 10.06475
-162.24007 51.452499 3.6985753 10.0645
-162.09808 58.296032 3.7230589 9.0415001
-162.22731 58.444172 3.7105076 9.0024996
-162.09782 58.888008 3.8273308 9.5219994
-162.23528 59.455116 3.9643064 10.041
-162.23833 59.782928 3.7325258 9.6462498
-162.06551 40.236286 4.359314 10.063
-162.22847 44.263443 4.216516 10.0685
-162.36752 44.489777 4.140985 10.0665
-162.27901 45.301003 4.1254201 10.068
-162.28018 48.971584 4.2467217 9.5489998
-162.1004 50.085262 4.1619554 10
-162.09619 51.357994 4.1473713 9.5477505
-162.13104 58.195286 4.11167 10.55125
-162.19186 59.013992 4.28017 11.0595
-162.1312 59.374016 4.1862311 11
-162.25923 59.771866 4.1681628 11
-162.01826 40.418575 4.4159098 10.067
-162.36903 44.678368 4.5964317 10.054
-162.04144 49.405567 4.7110677 11
-162.13077 51.276836 4.5769753 11.05475
-162.17517 58.095718 4.6926494 10.025
-162.29706 58.537376 4.6385188 11.074
-162.19702 59.193081 4.6357775 10.01
-162.39507 59.589722 4.6735721 11
-162.17303 59.841614 4.6391454 10.1008
-162.09225 40.854797 4.949348 10.0545
-162.17975 47.906334 5.0105872 11
-162.20621 48.954731 4.8530445 11.0585
-162.02699 50.335457 5.1447501 11
-162.14478 57.391369 5.1416039 10.0035
-162.09038 58.921459 5.1817627 10
-162.08987 59.437199 4.9320011 11.695666
-162.25417 59.754856 5.0012426 11.865107
-162.38446 50.175041 5.2303429 11.0645
-162.32846 57.347961 5.251133 10.0035
-162.17015 58.749176 5.294929 11.02975
-162.12428 59.081444 5.3019953 12
-162.23883 59.454391 5.3805146 11.000999
-162.10388 59.870792 5.4433594 11.333333
-162.09148 43.987572 5.7889385 10.052
-162.04514 50.500782 5.7845149 12
-162.20496 58.27515 5.6705413 10.0025
-162.23689 58.615505 5.6928129 10.0025
-162.26881 59.132423 5.7729368 10.844501
-162.0742 59.435329 5.8748403 11.782375
-162.20639 59.832615 5.7821708 11.37429
-162.29254 50.310703 6.0983529 10.691667
-162.38693 54.443756 6.0409193 11
-162.08937 57.629784 6.0972047 11.042
-162.33208 58.349712 6.1778445 11.003
-162.22778 58.654335 6.1828442 11.021749
-162.24568 58.898586 6.2189908 12.362916
-162.12222 59.418861 6.1097035 12.000999
-162.17107 59.829765 6.101975 12.000999
-162.12447 48.660938 6.7889519 12.068
-162.17194 49.119263 6.6048784 12.0655
-162.31363 50.269032 6.5448203 12.0665
-162.29512 50.47216 6.5632243 12.0505
-162.17184 58.126877 6.6575637 11.4144
-162.34863 58.890907 6.5934739 13.0595
-162.37886 59.846329 6.4816494 13.0615
-162.20901 50.607738 7.0897298 13.0575
-162.30989 54.515038 7.1707239 12
-162.02899 57.057678 6.9596586 12.024
-162.21039 57.629208 6.9146786 12.035
-162.3156 58.066551 6.9780078 13.043
-162.26926 58.555515 7.0287848 12.423901
-162.20757 59.197163 7.1265306 14
-162.28944 59.235626 6.8265491 12.0335
-162.34761 59.962578 7.1647644 12.0025
-162.13382 49.069096 7.3115768 13.0585
-162.29657 50.242748 7.5613928 12.03175
-162.26366 50.513405 7.5018106 12.381333
-162.31938 54.511253 7.2410398 12
-162.3692 57.88168 7.4524074 12.0035
-162.19569 58.743443 7.237978 12.003166
-162.30542 41.635109 7.8255754 12.068
-162.00705 42.916115 7.7166572 11.012
-162.09685 49.251324 7.6351409 12.042
-162.29768 50.379822 7.6103959 12.021
-162.3306 50.592937 7.6253424 12.017
-162.26509 55.089149 7.8640895 11.0045
-162.12354 58.633934 7.9521127 13.0305
-162.18379 43.087753 8.3657188 12.019
-162.30437 54.596916 8.3501444 13
-162.21295 55.04792 8.253336 13.553249
-162.26633 56.812641 8.1430044 13.0285
-162.33969 57.331146 8.0969601 13.032
-162.21368 58.715927 8.0459957 13.0225
-162.09972 44.361282 8.6256018 12.0125
-162.09483 44.582558 8.6570683 11.520374
-162.21629 44.908573 8.6881037 11.008334
-162.26141 54.598476 8.4822407 13
-162.2861 54.982544 8.5947704 13.526
-162.07654 38.803497 9.0169039 13.0635
-162.1479 44.066376 9.1553345 13.061251
-162.07582 44.540989 8.9862747 12.715751
-162.25729 55.074249 8.9249735 14.03075
-162.15024 38.906803 9.2907553 13.069
-162.36159 42.29163 9.4423485 13.07
-162.20297 44.720345 9.3383484 12.011
-162.23332 54.617916 9.5240259 14
-162.27983 41.425163 9.7673969 12.0125
-162.13812 41.624039 9.9398375 13.027
-162.18121 44.623486 9.9272337 13.3595
-162.10127 44.9207 9.9507904 13.0125
-162.02022 40.796238 10.441514 13.0535
-162.31253 44.062439 10.538654 14.052
-162.05817 33.945404 11.090467 13.055
-162.34949 43.93354 11.139541 14.0215
-162.00493 40.687218 11.464722 14.036
-162.07141 41.101074 11.387971 14.0705
-162.36111 44.179085 11.254454 14.0155
-162.36708 43.322079 11.67021 15.0545
-162.29314 41.437492 12.134875 15.054
-162.20453 42.221798 12.058194 13.0115
-162.13327 41.990303 12.618551 14.013
-162.18452 42.215431 12.430113 14.013
-161.71866 53.806511 -1.1776087 6
-161.90178 58.075981 0.75740415 8.0030003
-161.8183 32.928963 1.403868 8.0714998
-161.81346 46.296265 1.3576901 8.0664997
-161.61557 46.543903 1.4296156 8.0670004
-161.88501 34.442253 1.6233093 8.0609999
-161.9752 59.730835 1.6267073 8.0019999
-161.79878 48.32766 2.3846288 9.0544996
-161.73285 49.228722 2.324482 9
-161.8428 49.62878 2.3083992 9
-161.95958 59.415733 2.0201623 9
-161.89584 59.605442 2.0063651 9
-161.76845 46.760422 2.5174887 9.0600004
-161.91876 46.873337 2.5997078 9.0657501
-161.75375 48.243534 2.4917552 9.0263996
-161.82454 48.443188 2.4291296 9
-161.66458 49.150543 2.5950644 9
-161.79442 49.363838 2.5827007 9.066
-161.66135 49.812832 2.5437174 9.0162497
-161.82292 50.05188 2.5322702 9
-161.77591 58.042408 2.5667448 8.0419998
-161.93796 36.721409 3.022809 9.0734997
-161.85561 45.119843 2.9018672 9.0675001
-161.78464 47.88813 3.0869489 9.0524998
-161.60184 49.163651 2.9853086 9
-161.71458 49.380985 3.0469923 9.0171671
-161.83344 50.176575 3.0149941 9.0247498
-161.87054 59.176205 3.0712552 10.0605
-161.92763 59.794971 2.9833288 10.008416
-161.78618 32.902481 3.3510177 9.07125
-161.80028 49.460522 3.5146151 10.0195
-161.84785 49.934509 3.5518041 10.060249
-161.7211 50.382286 3.3408298 9.0485001
-161.83632 50.608868 3.296515 9
-161.9314 56.845154 3.4871926 9.0035
-161.64938 57.414474 3.3364508 9.0030003
-161.61702 57.83514 3.3399398 9.0024996
-161.66455 58.776501 3.4269688 9.0024996
-161.70262 59.016346 3.4214001 9.0024996
-161.93669 59.93259 3.4915481 9.0013332
-161.95056 47.367439 3.6761651 10.055
-161.88937 47.933167 3.8333256 10.066
-161.68208 49.121616 3.7211874 10.021
-161.77365 49.355598 3.8329697 10
-161.68599 49.843822 3.6827571 10.022334
-161.71548 50.15625 3.8285148 9.5032501
-161.71184 50.645115 3.7785366 9.8739166
-161.8226 50.849167 3.6917195 10.049625
-161.92453 51.362206 3.8494828 9.5552502
-161.80939 58.607849 3.7791567 9.0019999
-161.67046 59.410114 3.8408582 9.0404997
-161.93999 59.76952 3.9259048 11
-161.8605 49.412136 4.2563143 10
-161.79503 51.002567 4.0721025 9.4484005
-161.9735 59.094501 4.1640449 11.030251
-161.94157 59.678825 4.3697462 11.0735
-161.9352 40.434769 4.4823179 10.0685
-161.73495 50.640018 4.5634003 10.823
-161.68233 50.906929 4.5785556 10.707
-161.8999 51.444347 4.6992202 11.063167
-161.748 57.981224 4.6088004 10.0275
-161.66125 58.178078 4.4235754 9.0015001
-161.82159 58.486275 4.6102877 10.0145
-161.94179 59.433525 4.5658913 10.039666
-161.67329 59.884789 4.5367579 10.030667
-161.67943 35.754162 4.9092836 10.0715
-161.87184 49.497673 4.8501019 11
-161.77629 50.249332 5.150949 11
-161.69455 50.964378 4.9171658 10.51875
-161.85147 56.684128 5.133152 10.004
-161.83553 58.700512 4.9917731 10.349
-161.81688 58.983498 5.1190143 10.0025
-161.9389 59.374645 4.9245849 12.055333
-161.90297 59.778851 5.0735149 10.292856
-161.80287 49.347374 5.3653307 10.708835
-161.83139 50.27401 5.3692999 10.5
-161.86716 57.890381 5.4792538 12.063
-161.88879 58.174309 5.2527723 12.0605
-161.8815 58.646942 5.3966618 12.061251
-161.92262 58.954327 5.488327 11.551001
-161.86449 59.816254 5.3429227 11.266125
-161.81049 43.986992 5.6233487 10.0515
-161.92899 50.442932 5.6532125 11
-161.85974 56.628815 5.8519621 11.042
-161.77515 56.965164 5.9377522 11.0425
-161.68372 57.42939 5.7196574 10.521999
-161.68324 57.918247 5.7034788 10.003
-161.80055 58.697552 5.8287606 11.0045
-161.83554 58.893265 5.6715937 11.022499
-161.84236 59.878422 5.7833495 11.562389
-161.62895 43.877003 6.1499758 10.0105
-161.80748 44.012131 6.1944513 10
-161.96037 45.0653 6.3882432 10.0075
-161.73094 50.078453 6.2606463 11.363
-161.79643 50.402637 6.1312599 12
-161.63808 50.881432 6.3775172 11.6825
-161.70137 56.738083 6.1050916 13.0485
-161.78308 56.984932 6.0629473 11.00425
-161.65355 57.410759 6.2204452 11.517501
-161.75299 57.831776 6.1182232 11.531
-161.72049 58.642181 6.3125668 13.06
-161.75958 58.962044 6.2158365 13.06
-161.86856 59.534393 6.2397008 11.516375
-161.77206 59.775734 6.1534038 13
-161.67906 43.082016 6.7094421 12.0575
-161.6965 50.594933 6.4939885 12.068
-161.74182 57.48925 6.72363 11.0035
-161.79558 57.87088 6.6364937 12.653601
-161.89749 58.25885 6.7160912 11.6221
-161.82938 58.608002 6.6518154 12.4481
-161.74187 58.930706 6.6146231 12.146055
-161.60939 59.385426 6.6422749 12.038
-161.84152 59.789391 6.6734309 12.301499
-161.94873 33.81028 7.0123024 11.059
-161.83315 43.287388 6.9621563 11.54675
-161.72221 43.877625 7.0296631 11.013101
-161.61282 51.107853 6.8221707 13
-161.72928 51.230709 6.823884 13
-161.64247 56.95837 6.8330092 12.0325
-161.63666 57.549911 6.9705114 12.025249
-161.66599 57.817619 6.8291044 12.54225
-161.78317 58.183128 7.0043459 11.873143
-161.74573 58.5896 6.9542723 12.785125
-161.73764 59.025406 7.0130396 14.055
-161.99074 59.405449 6.853126 12.01775
-161.85275 59.91383 6.8486781 14.016833
-161.76198 39.446693 7.5986319 12.069
-161.62892 43.786129 7.4618025 11.012
-161.72821 49.036926 7.5987153 13.0665
-161.69193 58.642933 7.2697296 12.003
-161.87828 43.785706 7.6725626 11.219701
-161.77034 44.897385 7.8307076 11.0105
-161.66782 45.375557 7.8594546 11.01
-161.71088 58.18351 7.8766441 13.031
-161.99203 58.521542 7.9171977 13.031
-161.78542 44.849918 8.1827822 11.678666
-161.77548 45.355293 8.0308323 11.0095
-161.84271 45.615677 8.2130928 12.0125
-161.72203 47.922577 8.3706989 13.0685
-161.82657 55.060482 8.3525038 13.034
-161.6949 43.598953 8.733448 11.009
-161.7 44.205956 8.7173147 13.0605
-161.74745 45.562714 8.5721149 12.0115
-161.74396 55.006588 8.6747112 13.352333
-161.88171 37.809372 9.1026497 12.017
-161.67714 41.77198 9.1535769 13.0695
-161.62349 44.197327 9.0381021 12.54
-161.83702 44.46273 9.0070801 12.03975
-161.80077 43.960396 9.3355141 14.057
-161.70456 54.715919 9.3522682 14.0305
-161.69908 43.117802 9.9656296 13.0525
-161.86327 44.679497 9.8040762 13.0467
-161.98279 44.845566 9.7055178 12.0105
-161.97728 41.404457 10.237538 13.015
-161.66629 43.228779 10.124789 13.0525
-161.61101 44.443733 10.181269 12.511
-161.95421 43.87006 10.555484 14.068501
-161.75215 44.798565 10.7068 15.061
-161.91844 44.191193 10.827645 14.0705
-161.63994 44.44001 11.095774 15.067
-161.84862 44.959366 11.04754 15.06675
-161.75652 40.622417 11.38695 14.0405
-161.79745 42.151291 12.202964 14.0135
-161.96361 43.999207 12.311694 15.034
-161.71652 42.714539 12.570952 15.0265
-161.48907 47.803722 2.3963015 9.0550003
-161.32559 48.515594 2.3627901 9
-161.46986 49.761074 2.3551283 9.0664997
-161.33121 48.662743 2.5067043 9
-161.49127 48.922974 2.5984669 9
-161.57091 49.747444 2.5644267 9
-161.45065 49.07214 2.9761374 9
-161.55347 49.575428 3.0703158 9.0500002
-161.27266 49.26635 3.3590388 9.0495005
-161.40045 57.119556 3.5054927 9.0030003
-161.39522 57.450035 3.3826752 9.0024996
-161.20679 57.829437 3.3450038 9.0030003
-161.2357 58.251522 3.3936687 9.0030003
-161.41829 58.9874 3.5117915 9.0024996
-161.44261 59.805035 3.4765916 9.0019999
-161.2244 42.507221 3.7501924 9.0535002
-161.41856 43.870495 3.9270451 9.0080004
-161.32425 44.573303 3.9621317 10.063499
-161.22565 44.845932 3.9034874 9.0074997
-161.47394 47.784065 3.9900117 10.067
-161.39435 49.174274 3.741219 10.0675
-161.23289 49.382519 3.743891 10
-161.42999 49.827969 3.7085507 9.5027504
-161.47865 50.303253 3.8481908 9.6131001
-161.50824 50.650452 3.8608117 9.6191998
-161.47345 50.966831 3.8306875 9.0065002
-161.20546 59.851913 3.6110418 9
-161.20676 37.125992 4.0852299 9.0559998
-161.22096 44.846146 4.0300527 10.067
-161.5667 47.777992 4.036252 10.0665
-161.2829 48.291729 4.1276855 9.5507498
-161.47182 48.409096 4.1734147 9.0495005
-161.20479 49.653866 4.1626759 10
-161.51736 50.364616 4.0577812 9
-161.46538 50.490742 4.1587543 9.7001657
-161.38242 59.284485 4.0992985 11.0635
-161.22847 37.084515 4.7736073 10.072
-161.39122 37.484352 4.7433128 10.07025
-161.20587 42.10043 4.7341375 9.0535002
-161.21452 49.988846 4.5639544 11
-161.33829 50.295784 4.6987042 11.0625
-161.49091 50.493912 4.6923633 11.028999
-161.47469 57.990662 4.5799165 10.015
-161.31512 58.616478 4.5127745 10.027
-161.30437 58.892738 4.5278592 10.034
-161.25349 59.454102 4.676744 11.0745
-161.49538 59.708488 4.5033827 10.021832
-161.457 37.166374 4.8099494 10.0745
-161.44102 47.823654 4.9721584 11.0625
-161.29147 49.889088 5.0938978 11
-161.49127 50.254669 5.0376964 10.261499
-161.40442 50.561619 4.9974875 10.5
-161.30824 57.577625 5.1395512 10.0035
-161.29498 57.859024 4.8592925 11.075
-161.22729 58.33625 5.187067 12.0605
-161.31903 59.0285 4.9656463 10.0025
-161.30725 49.312233 5.525681 10.0085
-161.44351 57.264645 5.35568 10.0035
-161.52271 57.709793 5.4184813 10.003
-161.261 58.204201 5.3158903 10.688834
-161.35616 58.661022 5.3775101 11.646001
-161.27673 41.392361 5.7937193 11.0685
-161.35896 41.900791 5.8382673 11.07
-161.34673 49.17289 5.7349501 11.0495
-161.42886 50.440689 5.7815437 10.5275
-161.35687 50.955223 5.9057574 10.0065
-161.48915 57.129856 5.6714706 10.339666
-161.36804 57.425823 5.8380985 11.016332
-161.36201 57.709476 5.6541524 10.773125
-161.34705 58.212021 5.6939197 10.521999
-161.25595 58.608261 5.6430116 11.024
-161.55069 39.9865 6.3195415 10.013
-161.34309 43.910164 6.1462245 10
-161.51558 46.05246 6.3612404 10.007
-161.42526 47.928047 6.3906302 10.006
-161.50072 49.953064 6.3862214 11.0485
-161.43581 50.247612 6.3277507 11.266375
-161.42854 50.596748 6.3431568 11.352166
-161.34927 50.864086 6.2359295 11.556624
-161.30954 57.271626 6.2421088 13.0615
-161.22433 58.719475 6.1617689 13.0605
-161.40215 47.799065 6.4210882 10.006
-161.3828 50.190014 6.5026965 12.0165
-161.37845 50.577831 6.4432817 11.636801
-161.37451 50.980896 6.4252868 12.049
-161.40393 57.473797 6.6348271 12.141399
-161.29396 57.619698 6.3999691 13.061
-161.52959 58.068588 6.6601019 13.064
-161.52612 58.595932 6.6638889 13.0445
-161.39868 32.861191 6.9903965 11.073
-161.32019 50.553722 7.1216569 13.03125
-161.51074 50.926895 6.9575438 13.031375
-161.39531 56.973377 6.8800888 12.018833
-161.43282 57.459023 7.0236998 12.661773
-161.48224 57.810703 7.043632 13.543751
-161.40385 58.232372 7.1213322 12.0035
-161.52734 58.77784 7.0360799 14.058
-161.44722 44.0798 7.2369947 11.012
-161.2829 44.975235 7.3729706 11.01125
-161.32904 49.544876 7.4951501 12.048
-161.24994 50.361485 7.3212256 12.04375
-161.25595 50.471687 7.2908406 13.066
-161.39764 50.888042 7.2556152 13
-161.40198 57.882072 7.2559066 14.061
-161.40794 37.254517 7.8991513 11.0555
-161.20247 43.096439 7.6378369 11.012
-161.21695 43.624298 7.9296288 13.0575
-161.47966 47.443756 7.8319173 11.0085
-161.30734 47.928032 7.6950793 11.0085
-161.23409 49.597176 7.7598329 13.05
-161.4677 57.769131 7.9174366 13.0235
-161.44365 58.215866 7.838038 13.02725
-161.25342 37.279831 8.1502943 12.0565
-161.51288 43.689217 8.2813902 12.0145
-161.32866 47.365768 8.1226368 11.008
-161.31392 47.929428 8.1639051 11.509001
-161.4462 48.117622 8.3134289 13.062
-161.40779 55.066772 8.2578068 14.0625
-161.26082 44.626015 8.4253302 12
-161.48471 47.454391 8.4451637 13.0505
-161.35872 48.254662 8.5479622 12.355499
-161.3829 37.254715 8.9412165 12.0465
-161.33585 37.601246 8.9348354 12.0495
-161.40367 42.877205 9.1195049 13.069
-161.39998 44.137726 8.9585438 12.553875
-161.28163 44.694748 9.1554623 12
-161.53923 47.219162 8.9532852 13.048
-161.33447 35.594334 9.4229317 12.0565
-161.52269 42.232506 9.3112173 13.0695
-161.27199 44.798355 9.2511673 12.011
-161.42171 43.556728 9.8366652 12.011
-161.33185 44.113754 9.8717384 12.005375
-161.37407 44.448818 9.7143497 13.007
-161.27461 43.51239 10.320218 13.5345
-161.54446 43.914726 10.396474 14.0525
-161.34668 44.102291 10.276132 13.03
-161.27617 43.183464 10.519649 12.01
-161.45309 44.148483 10.534093 13.540625
-161.46114 44.469479 10.776478 14.0255
-161.26805 43.825592 11.173176 15.0675
-161.32947 44.257843 10.880866 14.0185
-161.23709 44.643578 10.879288 13
-161.23627 44.82658 10.859072 13
-161.21672 40.589081 11.338775 14.028
-161.36398 44.394527 11.265108 15.069
-161.27864 44.728367 11.302743 14
-161.55606 41.186916 11.896461 14.0535
-161.55038 42.11813 11.773645 13.012
-161.37962 41.882484 12.647785 15.02775
-160.84886 59.286449 0.38015255 8.0019999
-160.80946 59.33884 0.63229918 8.0024996
-161.10851 59.85202 0.5124709 6
-160.92308 59.127338 0.91279817 8.0015001
-160.87094 59.249828 0.86443907 8.0515003
-161.0573 59.744102 0.86607414 8.0564995
-161.09346 44.927486 2.7880867 9.0675001
-160.84003 59.291256 2.7523372 8.0410004
-160.98645 57.878536 3.1436417 10.061
-160.83603 56.816914 3.5122895 9.0039997
-161.03143 57.971134 3.3775017 9.0022497
-160.98341 58.099934 3.3632002 9.0030003
-160.99338 58.64016 3.3501084 9.0041666
-160.87122 58.956665 3.3222251 9.0123749
-160.90025 59.563557 3.3290401 9.0019999
-160.95966 59.742016 3.4539685 9.0113745
-160.82387 44.070911 3.9752836 9.0074997
-160.91508 44.878422 3.7987151 10.057
-160.84706 47.983883 3.8066552 10.069
-160.87393 49.117683 3.7848709 9.8235998
-161.03297 49.339394 3.7692955 9.875
-161.03392 49.70686 3.7936096 10.010917
-160.9565 50.077374 3.8880906 9.5
-160.9612 57.004387 3.635541 9.0035
-160.84438 57.782284 3.8230441 11.048
-160.84561 59.595936 3.9051623 11.06
-160.98659 41.769329 4.3561544 10.07025
-160.91089 44.870953 4.0731854 10.069
-160.81198 48.297016 4.1881557 9.0249996
-161.03491 49.427967 4.0920868 9.75
-161.0192 49.746544 4.113163 9
-160.94431 50.139973 4.2388692 9.333333
-160.98537 58.503948 4.0660849 11.0605
-160.98576 59.490654 4.2245893 10.078
-161.07803 59.618404 4.0619974 11.0595
-161.08516 42.016003 4.5350189 9.0535002
-160.96153 49.765755 4.657208 11
-161.03568 50.091305 4.6670532 11
-160.80684 57.036037 4.5303912 10.0065
-160.80507 57.201984 4.5337806 10
-160.92535 57.625118 4.5441942 10.004
-161.17451 58.251812 4.7316647 10.003
-161.05544 58.707504 4.4952793 10.50375
-160.88049 59.134357 4.6081572 10.012499
-160.90244 59.547222 4.5962868 11.02075
-160.86598 59.704285 4.512887 10.79625
-160.84589 49.391972 5.163434 11
-160.91899 49.801483 5.0377879 10.710667
-160.91193 50.25845 5.0053859 10.75
