# .PCD v0.7 - Point Cloud Data file format
VERSION 0.7
FIELDS x y z intensity
SIZE 4 4 4 4
TYPE F F F F
COUNT 1 1 1 1
WIDTH 417
HEIGHT 1
VIEWPOINT 0 0 0 1 0 0 0
POINTS 417
DATA ascii
-179.76889 164.61539 -2.899713 7
-179.76985 156.55956 -2.6848364 7
-179.89247 158.42772 -1.2196952 8.0695
-179.87013 165.18141 -1.2762903 8.0629997
-179.82231 165.2139 -1.3012109 8.0690002
-179.84598 157.84216 -1.1282949 8.078167
-179.60287 158.58646 -1.138819 8.0629997
-179.65402 164.65553 -1.1766127 8.0424995
-179.83661 161.02977 2.7438865 10.078
-179.733 162.7287 3.8780265 11.054
-179.39929 163.89386 -2.8213482 7
-179.5813 164.18298 -2.8719563 7
-179.28664 165.5916 -3.0212889 7
-179.42265 156.66284 -1.0681188 8.0535002
-179.57408 157.66508 -1.0938746 8.0790005
-179.52872 164.45319 -1.1733085 8.0516005
-179.27922 158.93053 -0.78244239 8.0270004
-179.05431 163.67346 -2.9655733 7
-178.87318 156.0374 -1.2238393 8.0734997
-179.166 158.84714 -1.2245622 8.0384998
-178.82692 159.71112 -1.2418272 8.0655003
-179.0419 163.81645 -1.2875097 8.0360003
-178.81444 156.5316 -1.106711 8.0570002
-178.94991 159.42673 -1.1686271 8.0761251
-179.08234 161.05786 3.684571 11.045333
-178.99158 161.34898 3.7327275 11.039
-178.52925 156.06723 -1.2071965 8.0675001
-178.74071 159.5135 -1.2411816 8.0380001
-178.65936 163.44875 -1.2938037 8.0664997
-178.50261 155.23984 -1.1280773 8.0369997
-178.63069 155.76717 -1.142028 8.0760002
-178.53308 156.32182 -1.1265453 8.0736666
-178.47612 156.48239 -1.1459676 8.0714998
-178.65425 155.96042 -0.77011955 8.0305004
-178.69142 159.48721 -0.78636706 8.0264997
-178.62624 161.56636 3.6149158 11.037
-178.5351 161.94118 3.6921334 11.0435
-178.64577 162.62209 3.6720834 11.0365
-178.5675 155.89474 4.3109331 11.08
-178.0094 161.86835 -2.8002663 7
-178.28571 162.35214 -2.7979205 7
-178.3678 156.51128 -1.2120444 8.0795002
-178.20915 160.19298 -1.2813505 8.0710001
-178.13942 161.17586 -1.2699418 8.0644999
-178.00557 162.31386 -1.2045244 8.0605001
-178.20355 162.44553 -1.2059411 8.0465002
-178.23859 162.84149 -1.209514 8.0524998
-178.19646 155.44029 -1.1558592 8.0792503
-178.32713 156.35434 -1.1393594 8.0795002
-178.32993 160.11133 -1.1901298 8.0734997
-178.2659 162.5777 -1.1779381 8.0514002
-178.09865 160.06619 -0.7899245 8.026
-178.1002 156.13216 2.2742245 10.028
-178.35843 161.85649 3.6803622 11.04025
-178.11879 162.55876 3.6513186 11.0465
-177.93779 162.41801 -4.0248003 6
-177.79596 164.54317 -4.0913191 6
-177.91429 161.74399 -2.8143048 7
-177.77431 153.99699 -2.5602868 7
-177.90041 159.97781 -2.7240148 7
-177.94359 160.31773 -2.3419623 7
-177.71693 160.96928 -2.3788722 7
-177.6185 160.62639 -1.2761309 8.0369997
-177.61913 160.98898 -1.2999567 8.0705004
-177.60844 161.92522 -1.3092945 8.0699997
-177.96623 154.5462 -1.190765 8.0404997
-177.79697 160.33562 -1.1799462 8.0498323
-177.60866 154.14607 0.32399863 9.0509996
-177.95142 162.66176 3.7240934 11.033
-177.83205 163.01666 3.61147 11.036
-177.42822 165.3448 -4.1054845 6
-177.36353 160.55864 -2.6758294 7
-177.46707 161.56154 -2.7387261 7
-177.2616 160.88959 -1.2068139 8.0471659
-177.52979 161.56514 -1.2890174 8.0365
-177.35963 154.43005 -1.1542168 8.0764999
-177.24409 160.87268 -1.1753451 8.0469999
-177.48177 154.06773 0.36337277 9.0544996
-177.26028 155.16637 3.307519 11.061
-176.85724 161.34624 -2.8907547 7
-177.19923 162.39333 -2.920917 7
-177.06203 161.31993 -1.2258273 8.0725002
-177.17606 160.93742 -1.1906787 8.0551672
-176.58075 166.92577 -4.1311798 6
-176.6725 164.32985 -3.9830954 6
-176.65987 161.2525 -2.9314387 7
-176.73265 154.41228 -2.5843186 7
-176.43381 155.72966 -2.5944762 7
-176.40015 159.24298 -2.470542 7
-176.00908 163.67522 -4.0995593 6
-176.18835 165.0424 -4.0017715 6
-176.09836 167.66142 -4.141088 6
-176.28256 158.77933 -2.8080506 7
-176.14934 154.3801 -2.5802522 7
-175.70877 164.54523 -4.1225395 6
-175.70425 166.08115 -2.9341683 7
-175.62943 153.94955 -2.2520223 7
-175.7085 166.08923 -1.2814437 8
-175.67459 166.12177 0.35125145 9
-175.65834 166.14346 1.9574122 10
-175.68681 166.14201 2.0308235 10
-175.61623 166.19023 3.5949457 11
-175.70006 166.12894 3.6419134 11
-175.4938 154.79236 -2.5853939 7
-175.29233 166.52982 -2.3131697 7
-175.3479 153.47205 -1.2215161 8.0810003
-175.57202 166.24858 -1.3270524 8
-175.44867 166.4568 -1.2851896 8.0574999
-175.2923 166.53647 -0.67337561 8.0109997
-175.5446 166.28114 0.3262794 9
-175.27516 166.55542 1.0496743 9.0109997
-175.27161 166.55061 2.6668651 10.022
-175.23044 166.59602 2.8908486 10
-175.59323 166.20862 3.5818977 11
-175.58659 166.23264 3.7241068 11
-175.2534 166.61375 4.5228 11.011
-175.57961 166.22372 5.2446208 12
-175.30479 166.52507 5.2798195 12.0435
-175.06987 179.95567 -3.3823025 7
-175.09056 155.84453 -2.6225991 7
-174.86362 157.19443 -2.7488472 7
-174.94626 154.47362 -2.27619 7
-175.16873 152.69002 3.6941712 11.081
-175.04755 150.08965 4.3250494 12.0705
-175.05818 166.7285 5.3941808 12.03
-174.7874 163.93378 -3.9581077 6
-174.6055 165.84178 -3.9980431 6
-174.49648 179.98007 -3.5127563 7
-174.4861 157.45731 -2.8259983 7
-174.5593 154.58786 -2.5338449 7
-174.30898 154.73021 -2.5988538 7
-174.03276 151.96542 0.15202004 9.0585003
-174.12445 152.14676 0.15978128 9.0620003
-174.29881 152.47556 3.5995388 11.081
-174.12743 153.20969 3.5664744 11.0805
-174.17921 152.36024 3.8291955 11.0815
-174.35031 152.73238 3.7357252 11.081
-174.20483 153.39529 3.7937679 11.08075
-173.61769 151.50363 -2.5089114 7
-173.70132 151.86259 -2.4467759 7
-173.60573 152.0132 -2.4857481 7
-173.82703 155.10992 -2.6813905 7
-173.72768 151.32318 -1.2303931 8.0410004
-173.64223 150.59084 -1.1534436 8.02775
-173.66747 151.05486 -1.0723498 8.0498333
-173.7937 151.47783 -1.1605306 8.0480003
-173.77847 152.22592 -0.92035115 8.0284996
-173.78098 150.26131 0.13966049 9
-173.73938 150.57207 0.13698097 9.0314999
-173.91338 151.49171 0.10471941 9.046834
-173.90186 151.79138 0.15327841 9.0738335
-173.83034 153.30438 4.1677732 12.0575
-173.5563 158.09433 -4.0364637 6
-173.27043 155.8266 -2.9593489 7
-173.25237 150.18216 -2.4403665 7
-173.35619 150.66451 -2.5096364 7
-173.41513 151.01883 -2.4534211 7
-173.53502 151.29523 -2.4987624 7
-173.51476 151.72263 -2.5226719 7
-173.36823 154.35829 -2.713928 7
-173.25467 150.97247 -2.2404466 7
-173.52892 151.84802 -2.2297761 7
-173.42049 150.2437 -1.2372869 8.0699997
-173.37291 150.54243 -1.2124413 8.0680008
-173.4482 153.07483 -1.2906469 8.0740004
-173.40698 150.24165 -1.0872315 8.043416
-173.43974 150.53233 -1.1698681 8.0609169
-173.47224 151.42505 -1.0279163 8.0562496
-173.53102 152.8349 -1.1584183 8.0539999
-173.44171 151.50198 3.3226335 11.026
-173.55089 150.69595 3.8761122 12.0415
-173.44983 152.43584 3.979389 11.082
-173.47319 153.26218 4.1719527 12.06275
-173.2663 153.6124 4.7221198 12.079
-173.29512 153.77766 5.0966697 12.08
-172.99344 159.29355 -4.0438018 6
-172.91493 151.75719 -2.6090405 7
-173.02266 150.0674 -2.2269025 7
-173.13664 153.52318 -2.3111742 7
-173.18616 150.28168 -1.2329412 8.0825005
-173.13763 152.98282 -1.0906503 8.0483332
-172.90564 153.45074 -1.1970736 8.0799999
-173.08141 153.74692 4.8173776 12.0795
-172.45891 157.76141 -4.0031233 6
-172.48108 158.85178 -4.0304027 6
-172.41245 160.59418 -4.0896688 6
-172.49014 158.0049 -3.9863915 6
-172.55925 150.19855 -2.5704634 7
-172.7278 150.5224 -2.6401377 7
-172.74327 150.96518 -2.5894442 7
-172.58498 152.55255 -2.6588376 7
-172.75746 153.35464 -2.68083 7
-172.65187 152.78581 5.0084033 12.0805
-172.09825 159.41547 -4.0471759 6
-172.03244 151.28311 -3.2252381 7
-172.26141 153.22495 -3.5058634 6
-171.69009 159.9695 -4.0631948 6
-171.72446 151.05914 -3.6138904 6
-171.9214 153.68681 -3.7665839 6
-171.40604 158.79074 -4.0035496 6
-171.54539 176.41408 -4.3476353 6
-171.58528 151.41006 -3.6481633 6
-171.56819 150.97836 -3.2700477 7
-171.06488 150.90695 -3.6219733 6
-170.91953 157.38562 -3.9516141 6
-171.09969 150.50354 -3.5466924 6
-171.14546 176.28998 -3.2395024 7
-170.96637 176.50235 -3.2980459 7
-170.50627 151.43619 -3.6714251 6
-170.45622 177.07837 -3.2598829 7
-169.88469 153.86603 -3.6821501 6
-169.78429 154.04803 -3.7353339 6
-169.82248 155.0087 -3.7514625 6
-169.88956 153.93709 -2.5125108 7
-169.77382 154.08334 -2.5077808 7
-169.65221 154.26366 -2.2348027 7
-169.87627 153.58594 -1.2672052 8
-169.71805 153.74142 -1.288192 8
-169.65128 154.25827 -0.96353883 8
-169.63828 154.41438 -0.96226084 8
-169.88783 153.9424 -0.060879979 9
-169.80751 154.0663 -0.074676365 9.0082502
-169.65201 154.27933 0.30984735 9
-169.86395 153.96576 1.1522748 10
-169.79982 154.05994 1.1443062 10
-169.65781 154.29642 1.5889721 10
-169.83894 154.10443 2.3680692 11
-169.58791 154.35088 -2.0747468 7
-169.5484 153.86884 -1.2889744 8
-169.41293 154.18712 -1.3276731 8.0733337
-169.25974 154.4158 -1.2994516 8.0782499
-169.56564 154.51955 -0.96229953 8
-169.5544 154.33322 -0.78606606 8
-169.5164 154.47177 -0.78626257 8
-169.56477 154.37144 0.30926239 9
-169.56842 154.38374 0.50626135 9
-169.21727 154.36658 1.0612048 10.037
-169.57053 154.38857 1.588178 10
-169.55074 154.54178 1.8229824 10.011
-168.99579 154.37372 1.0792096 10.04575
-168.95055 154.51694 1.1271647 10.04775
-168.46526 150.47292 -3.8085413 6
-168.67326 154.45903 -3.6682551 6
-168.46869 150.15053 -3.4906263 6
-168.64514 154.55769 -0.80639344 8.0229998
-168.77365 154.43437 1.0924147 10.0585
-168.13237 151.01308 0.95464593 10.058917
-167.7793 150.32939 -3.4917746 6
-167.6138 150.88083 -3.4444418 6
-167.86272 151.24863 -3.5069523 6
-167.64841 150.06317 -0.20559795 9.0465002
-167.93767 151.41949 0.64737672 9.0205002
-167.44211 150.3455 -3.4195452 6
-167.37119 150.61446 -3.4805398 6
-167.32616 150.89696 -3.441525 6
-167.46933 150.22263 -0.2159398 9.0550003
-167.58777 150.32404 2.2067475 10.0835
-167.14362 151.58282 -3.2455971 6
-166.91946 151.6785 -3.3082864 6
-167.19397 152.63518 -3.5663614 6
-166.96637 150.15158 -1.3541855 8.0700617
-166.90576 150.40886 -1.3749917 8.0810003
-166.93105 150.21873 -0.76297057 8.0205002
-167.05061 150.01443 -0.18486187 9.0757504
-166.99034 150.26718 2.2012517 10.0835
-166.7897 150.05696 -3.0001562 7
-166.71843 150.11374 -1.4343561 8.0834999
-166.63983 150.30984 3.3639953 11.083
-166.65904 150.54979 4.8594794 13.0795
-166.3049 151.35448 -3.6922386 6
-166.06038 150.12099 3.3895953 12.0785
-165.76569 150.04773 1.729859 10.083
-165.9005 150.20444 3.3849535 12.05275
-165.99037 150.0444 4.363389 13.0285
-165.29312 168.47327 -4.3823419 6
-165.37799 150.18674 1.0735048 10.028
-165.3555 150.21826 1.3920617 10.0466
-165.20908 150.4128 1.4045476 10.021
-165.342 150.1593 1.7379869 10.56425
-165.32515 150.16605 3.1326795 11.55525
-165.30029 150.29071 3.4135008 11.847
-165.5081 150.53879 3.3209124 12.078
-165.41313 150.1886 3.8228242 12.08075
-164.79047 151.01773 -4.1914806 5
-163.28549 165.17752 -4.2504625 6
-161.70041 150.70741 -4.1262975 5
-161.19257 155.67972 -4.2666755 5
-160.41452 151.8037 -4.1480441 5
-160.15419 151.40492 -4.1041384 5
-160.2926 154.09731 -4.2160892 5
-159.82365 154.15512 -4.1755762 5
-159.99474 154.56464 -4.2340474 5
-159.47038 152.73486 -4.1690722 5
-159.42546 157.88193 -4.3315382 5
-159.19405 150.81143 -4.0697045 5
-159.09755 151.82712 -4.1181068 5
-159.08524 150.09218 -3.9356267 5
-159.01537 150.49054 -3.9030156 5
-158.95695 150.88516 -3.9186058 5
-159.13379 151.88095 -3.2429028 6
-159.06454 150.12794 -3.143496 6
-159.15895 150.58556 -3.1425984 6
-159.17537 151.05316 -3.1569479 6
-158.7802 150.4299 -4.0343981 5
-158.71251 152.3819 -3.5760388 6
-157.8643 154.02478 -4.186491 5
-157.18661 152.41278 -4.1224394 5
-157.06161 156.69301 -4.2789044 5
-156.49081 158.45915 -4.2452197 5
-155.89037 157.95865 -4.3504248 5
-155.64655 166.54158 -2.6912029 7
-155.54865 164.67136 -3.4324172 6
-155.56628 165.92409 -2.4970169 7
-155.53848 166.2626 -2.5643201 7
-155.22368 165.16493 -2.2816694 7
-155.16173 164.84758 3.065057 11.009
-154.77872 165.78279 -2.4847076 7
-154.74954 166.49132 -2.6653588 7
-154.01834 166.41803 -2.6886802 7
-154.00691 163.84195 1.5848011 10.0085
-153.94572 166.37595 -2.6637161 7
-153.81032 163.48622 1.6186037 10.0085
-153.38654 172.20346 -2.8179793 8.0865002
-153.02188 167.92151 1.1487435 9.0054998
-152.82919 162.40315 2.3829093 11.0715
-152.88821 163.97235 2.2067327 11.0685
-152.63885 162.4402 2.1532288 11.07
-152.32332 168.51057 -1.8495363 8.0710001
-152.00549 167.34241 -1.5879602 8.0780001
-152.26904 167.74707 -1.5269603 8.0714998
-152.16284 168.47124 -1.5833931 8.0690002
-152.14389 168.49626 -0.059847809 9.0690002
-152.34151 162.65065 2.0644658 11.069
-152.31174 164.34091 3.4715655 12.068
-151.83101 167.41415 -1.685086 8.0710001
-151.69266 171.15936 -1.6744616 8.0617504
-151.95886 167.43466 -1.4127014 8.0717506
-151.80025 155.45837 0.90346706 10.009
-151.89493 155.60178 0.88036668 10.009
-151.84062 162.3078 2.1867447 11.0705
-151.56474 167.58212 -1.6593959 8.0684996
-151.38977 170.98727 -1.750756 8.0684996
-151.23137 155.18724 -0.19656838 9.0085001
-151.47319 155.71347 0.72862309 10.011
-151.20695 154.79549 0.98263383 10.0085
-151.29266 155.94278 0.82430571 10.0085
-151.59308 152.32597 2.295826 13.021
-151.4554 162.23703 2.0255768 11.0695
-151.52313 164.83824 2.2107587 11.068
-151.46689 165.14793 6.0179162 15.0575
-150.97009 154.55034 -2.2341666 7
-150.90131 171.04941 -1.6775916 8.0678577
-150.89264 171.22717 -1.682081 8.0644999
-150.82385 173.09171 -1.7092044 8.0670004
-150.91464 154.71579 -1.2187868 8.0083342
-150.91417 154.8427 -1.241923 8
-151.01982 154.67177 -1.1470839 8.0112495
-151.14594 155.14938 -0.90399855 8.0065002
-150.98386 155.15205 -0.12038236 9
-150.93349 155.36987 -0.12071883 9.0016003
-151.01939 156.52361 0.2881054 9.0065002
-151.10573 154.73808 0.73918182 10.009
-151.0377 155.82872 0.58142412 9.5085001
-151.01656 154.75119 0.91491961 9.0825005
-150.93489 154.98589 0.9870072 9.6345997
-150.98891 155.44707 1.1499482 10.07825
-150.91179 154.1496 1.5522912 11.0095
-150.85959 151.28394 1.89767 12.0145
-151.02481 171.55989 1.6230824 10.07
-151.0145 162.52132 2.2133713 11.070624
-150.88734 168.98997 2.4972534 10.0745
-150.87631 151.87738 3.0930624 10.084
-150.88345 153.25999 2.9214001 11.08
-150.81924 152.94138 3.2534976 15.047
-150.49628 171.28413 -2.1002626 8.0784998
-150.54352 171.13818 -1.6067524 8.0670004
-150.51007 171.26668 -1.6698505 8.0634995
-150.52693 171.92461 -1.6874363 8.0640001
-150.46335 154.70668 -1.2293646 8.0080004
-150.64658 154.85297 -1.2418101 8.0019999
-150.49075 171.59631 -1.5230505 8.0745001
-150.5358 171.89745 -1.3266276 8.0754995
-150.61253 154.68921 -1.1753743 8.0097504
-150.49954 154.80821 -1.0889843 8.0065002
-150.50047 155.41107 -0.91407561 8.0059996
-150.6088 155.03448 -0.50009793 8.0054998
-150.62827 156.20602 0.15022807 9.0065002
-150.46277 156.67717 0.14839984 9.007
-150.59979 154.93758 0.7838307 10.008
-150.68449 156.37128 0.50727814 9.0059996
-150.63739 155.12134 0.9172132 10.002666
-150.78368 151.47859 1.9772032 12.012
-150.73691 154.3703 1.658583 11.0085
-150.70258 155.5045 1.9259712 11.008
-150.63698 150.86967 2.9813471 11.08175
-150.4446 152.98094 3.1478026 12.078
-150.60805 152.38014 3.4505155 13.0765
-150.60947 152.24232 3.9125888 14.0745
-150.18761 171.19202 -1.682587 8.0664997
-150.36958 171.42973 -1.64319 8.0655003
-150.12437 172.03793 -1.6446815 8.0644999
-150.24367 172.63614 -1.7218479 8.0686426
-150.19476 172.8004 -1.7681305 8.0699997
-150.20462 155.56201 -1.2279632 8.0074997
-150.24577 155.72528 -1.2348838 8.0074997
-150.33466 154.85034 -1.1797979 8.0065002
-150.29359 155.37703 -0.895648 8.0057497
-150.10007 156.00258 -1.0952996 8.0059996
-150.17453 155.50095 0.31511894 9.0059996
-150.04103 172.96146 0.72382027 9.0734997
-150.08301 173.53938 0.46099377 9.0725002
-150.35533 155.295 2.2509956 11.077
-150.20183 151.56329 3.1126831 10.084
-150.28665 151.68607 3.169317 10.084
-150.37672 162.75894 2.9178727 11.074
-150.01534 153.29478 3.5210738 13.008
-150.2106 163.8615 3.6014669 13.061
