# .PCD v0.7 - Point Cloud Data file format
VERSION 0.7
FIELDS x y z intensity
SIZE 4 4 4 4
TYPE F F F F
COUNT 1 1 1 1
WIDTH 353
HEIGHT 1
VIEWPOINT 0 0 0 1 0 0 0
POINTS 353
DATA ascii
-203.78667 -12.112811 26.625771 14.177
-203.75917 -11.334413 26.574377 14.177
-203.71315 -11.562339 27.214451 14.1765
-203.38278 -11.911051 9.314394 9.0804996
-203.57904 -11.616467 28.626909 15.1755
-202.29488 -11.941611 28.651314 15.176
-201.73889 -22.205864 7.5093193 8.1719999
-201.59955 -28.289879 8.6806021 9.1280003
-200.87912 -11.281316 8.3411407 9.1215
-200.4593 -21.928467 7.9358654 8.1745005
-200.76653 -22.235249 8.2099228 8.1794996
-200.22388 -11.591093 8.8882828 9.0830002
-200.25369 -12.287764 29.553509 14.073
-199.39215 -11.791172 7.8946066 8.1754999
-199.43243 -2.4446859 27.555574 15.172
-199.14973 -24.990864 6.2465959 8.1280003
-199.04257 -11.462287 9.1716824 9.0860004
-198.93828 -10.958664 29.881863 14.069
-198.65114 -11.095207 9.2692089 9.0955
-198.58366 -11.03941 27.710581 14.1035
-198.46947 -11.537271 28.415018 15.1765
-198.6243 -10.683296 31.517759 15.1035
-198.05652 -11.932008 6.8029451 8.1260004
-198.15738 -11.099961 8.2285213 9.1190004
-198.17381 -11.36509 9.1700449 9.0895004
-198.23146 -11.368546 25.480938 13.069
-198.20015 -10.74215 31.199444 15.1035
-198.08136 -11.110818 32.813499 15.077
-197.99864 -7.4250422 30.768892 15.067
-197.97298 -10.668778 30.973198 15.1035
-197.9162 -11.228272 33.381413 15.0725
-197.48778 -26.942829 6.0400763 8.1269999
-197.41518 -12.349237 24.843313 13.0725
-197.39107 -7.2816367 30.858267 14.0185
-197.2847 -11.222445 32.825394 15.0745
-197.57372 -7.7676787 32.864395 15.055
-196.92297 -10.668121 6.2013164 8.1520004
-196.98276 -8.4691105 26.996155 15.1745
-197.00461 -7.0860062 27.024969 15.174
-197.0956 -5.9473429 26.874073 15.1735
-196.92326 -10.969889 27.499645 14.103
-196.94951 -8.9515934 27.303734 15.175
-197.00568 -7.5631809 27.341011 15.1745
-197.04063 -6.1688042 27.378183 15.174
-196.89796 -9.5588551 27.857327 15.1755
-196.92513 -8.1746264 27.885201 15.175
-196.96011 -7.4390745 27.983408 15.175
-196.97447 -6.7643347 27.927069 15.1745
-196.97136 -5.152771 27.902597 13.1785
-196.88954 -9.3352423 28.293873 15.1755
-196.94405 -7.9138145 28.335197 15.175
-197.02454 -4.099802 28.36902 13.1785
-197.0695 -2.066926 28.315218 13.178
-196.98766 -9.8140354 28.542818 14.0765
-196.95526 -6.1255398 28.423765 13.179
-197.15468 -12.203608 28.919699 14.0725
-197.06297 -4.2925014 30.398109 14.178
-197.08031 -7.3838444 30.61235 14.7175
-196.88855 -9.8587093 31.090481 14.1795
-197.01207 -6.0831709 30.959488 14.1785
-197.04819 -4.1956921 30.898401 14.178
-196.92648 -10.634142 31.283295 15.103
-196.89662 -10.217632 31.490892 14.1795
-196.98059 -8.3221188 31.428535 14.179
-196.99146 -6.4070358 31.353022 14.1785
-197.05394 -4.5574207 31.426828 14.178
-196.923 -10.391308 31.75399 14.1795
-196.93996 -8.4611301 31.815683 14.179
-196.91197 -8.2477055 31.927507 14.179
-196.97467 -6.514864 31.74855 14.1785
-196.93193 -6.2938881 31.859398 14.1785
-196.80107 -5.2568383 31.849161 15.1015
-197.01659 -4.5379086 31.839146 14.178
-196.99489 -3.930918 31.79796 14.178
-196.88945 -10.35239 32.024803 14.1795
-196.88684 -8.8391094 32.210884 14.1795
-196.92589 -6.846148 32.145149 14.179
-196.98561 -4.8631735 32.093376 14.1785
-196.90576 -10.398317 32.465084 15.0825
-196.84689 -9.8495369 32.772652 14
-196.90714 -9.510622 32.720791 15.0765
-196.87822 -7.8202596 32.701305 14.1795
-196.95201 -5.8400497 32.651451 14.179
-197.01793 -3.8110869 32.605846 14.1785
-197.00191 -8.9117298 33.024876 15.074
-196.41588 -10.903373 8.6432314 9.1440001
-196.72978 -12.343791 24.378843 13.0745
-196.79597 -10.322817 27.452978 14.1025
-196.71947 -9.7703657 27.776838 14.102
-196.66164 -5.5459008 28.31554 14.1
-196.79671 -4.9047494 28.275427 14.101
-196.44246 -9.5597105 29.982229 14.064
-196.55176 -7.4445753 30.337954 14.019
-196.60638 -10.674716 31.019165 15.068
-196.67625 -9.8199158 31.024303 15.091166
-196.56465 -8.5986814 30.803068 15.0675
-196.65923 -10.094012 31.231821 15.1025
-196.78255 -8.5005665 31.502123 15.1025
-196.75697 -7.65169 31.48366 15.10225
-196.65678 -10.204561 31.827417 14.640249
-196.63158 -9.4975996 31.620707 15.102
-196.57741 -7.7098336 31.991066 15.1005
-196.75386 -7.2916741 31.71369 15.0555
-196.65826 -7.1291451 31.914541 15.1015
-196.50987 -5.2794409 32.316086 15.099251
-196.70079 -4.6243386 32.237328 15.101
-196.71014 -10.658557 32.784531 15.0795
-196.49217 -8.1989927 32.637787 15.082
-196.20461 -10.359363 26.792631 13.019
-196.3214 -9.2567472 26.594677 13.019
-196.2317 -3.9238999 28.7295 14.094
-196.38889 -9.6895018 29.901363 14.065
-196.14836 -11.220843 30.746904 14.02
-196.39128 -9.8747892 30.750158 14.0195
-196.31676 -7.7073622 30.68866 14.0185
-196.06778 -12.633807 30.886675 14.0205
-196.26608 -10.256206 30.999674 14.03775
-196.20844 -9.4047728 30.884989 14.019
-196.32649 -9.1304502 31.017937 14.019
-196.39745 -8.1036634 30.804649 14.019
-196.04062 -13.858264 31.218624 14.0205
-196.21587 -13.023356 31.440378 14.057
-196.10849 -11.965861 31.326433 14.0195
-196.23428 -11.40047 31.412449 14.54425
-196.02359 -14.224956 31.734484 15.069
-196.17999 -13.144717 31.645781 15.07
-196.13219 -12.567218 31.634052 15.07
-196.36653 -7.8729429 31.999086 15.099
-196.0986 -8.7492399 32.190296 15.095
-196.31496 -9.2933836 32.643574 15.0855
-196.26994 -8.9716978 32.540001 15.089
-196.15239 -7.4865985 32.614162 15.092
-196.17261 -6.1532702 32.527782 15.0945
-196.18755 -3.5805542 32.857418 15.094
-195.64919 -7.7933693 28.649965 14.0735
-195.37599 -14.126041 27.187368 13.02
-195.39003 -11.636501 28.314398 14.0795
-195.32471 -10.530392 32.926964 15.056
-195.15462 -11.275739 24.947075 13.0685
-194.82559 -10.896115 33.129162 15.0525
-194.70387 -11.907811 6.2833714 8.125
-194.70827 -6.6102724 28.368898 14.0915
-194.79933 -11.736615 28.964174 14.0685
-194.67734 -4.3221025 29.197918 15.0685
-194.50713 -3.9556937 29.079847 15.0675
-194.01265 -2.3374102 6.2964811 8.1604996
-194.24467 -10.653051 26.271637 13.02
-194.12822 -12.166296 28.304619 14.072
-194.08173 -13.039244 33.245525 15.0465
-194.39281 -12.544531 33.27462 15.05
-193.97356 -3.5606158 6.3270874 8.1610003
-193.6971 -10.384982 6.7395186 8.1669998
-193.84282 -5.6163697 6.6285644 8.165
-193.88448 -4.4035516 6.6014895 8.1645002
-193.92888 -3.1780684 6.5746145 8.1639996
-193.95924 -1.9187529 6.546524 8.1634998
-193.6106 -11.169848 7.1606627 8.1730003
-193.79485 -5.0649633 7.0975981 8.1689997
-193.80418 -3.9063344 7.1068196 8.1669998
-193.61563 -11.141397 7.2506671 8.1700001
-193.65398 -10.57848 7.2170453 8.1715002
-193.65059 -9.9609432 7.2265749 8.1695004
-193.75859 -4.9817185 7.7739811 9.1035004
-193.77661 -9.4728374 8.1082678 9.1225004
-193.72438 -8.9837675 8.1331587 9.1040001
-193.99005 -2.7565291 8.2096319 9.1210003
-193.97171 -9.7297115 8.4703493 9.1555004
-193.86037 -9.5196457 23.514097 14.175
-193.44122 -4.8059835 7.1406851 9.0675001
-193.54758 -11.23013 7.5514855 8.1754999
-193.55981 -11.179024 7.506516 8.1750002
-193.55634 -10.764829 7.4939322 8.1747503
-193.39478 -7.8518362 7.639257 9.1145
-193.39711 -7.8120947 8.1719379 9.1505003
-193.36499 -6.1714334 8.3340855 9.1540003
-193.46223 -0.73328102 8.0029602 9.1475
-193.59448 -10.967612 8.5349836 9.1245003
-193.3974 -10.145949 23.900923 14.1755
-193.41676 -8.9883165 23.82999 14.1755
-193.38948 -7.9085541 25.047098 12.001
-193.30228 -6.9276743 24.937973 13.58675
-193.44008 -5.8492661 25.003504 12.0005
-193.29941 -4.4036131 25.016872 15.1715
-193.24031 -5.1989756 25.515678 15.1725
-193.55937 -11.54248 26.720394 14.1025
-193.29655 -11.348037 27.572123 14.082
-193.58951 -12.158515 27.831726 14.074
-193.20737 -5.3690329 29.211348 15.069
-192.98822 -3.9812694 21.065592 12.019
-192.84946 -9.5574608 23.787344 14.1755
-193.15038 -8.8691158 23.842363 14.175
-192.82275 -1.567703 24.768108 13.018
-192.89041 -0.6652447 24.692677 13.018
-193.15233 -9.4657774 24.830519 15.1735
-193.19408 -8.2011652 24.869831 15.173
-193.1378 -6.8714509 25.027195 12.0005
-192.81604 -4.3058085 24.988956 13.019
-192.84018 -2.6559293 25.069937 13.0185
-192.99496 -1.759336 24.825281 12.1795
-192.90778 -1.4003445 24.865503 13.018
-193.12093 -9.5177317 25.554222 15.1745
-193.13797 -9.0136633 25.3682 15.174
-193.15804 -8.2347517 25.586754 15.174
-193.17719 -7.7420321 25.413105 15.1735
-193.19066 -6.4917545 25.45513 15.173
-192.8089 -3.7353284 25.396688 13.018
-192.80952 -11.344643 26.934181 14.1005
-192.96979 -11.187981 27.036623 14.099
-192.47667 -1.955063 5.8624926 8.1265001
-192.47794 -0.00057999132 20.756012 12.018
-192.797 -4.811729 21.666395 13.0755
-192.43939 -11.82397 23.540951 14.1765
-192.46388 -10.483027 23.556196 14.176
-192.57837 -11.296484 24.053608 13.62375
-192.46445 -10.045805 24.026007 14.1755
-192.62801 -8.5416327 24.357149 15.172
-192.68462 -6.0822048 24.446695 15.171
-192.79883 -1.3874815 24.773746 13.018
-192.47908 -11.593563 25.112106 15.175
-192.70789 -11.030142 25.005211 12.00175
-192.6078 -10.347912 25.173058 15.1745
-192.71475 -3.8100381 25.107363 13.0185
-192.79312 -2.999748 25.02985 13.0185
-192.76178 -2.4117811 24.939816 13.018
-192.4207 -11.687976 25.528246 15.1755
-192.44913 -10.413725 25.545637 15.175
-192.46758 -4.8714066 25.372917 13.018666
-192.46774 -10.900944 25.86795 15.1755
-192.64754 -11.532909 26.458504 14.102
-192.53722 -11.160728 27.529734 14.076
-192.43681 -10.43119 27.532085 13
-192.53535 -3.1573696 27.5954 13
-192.56499 -2.7591391 27.590332 13
-192.57773 -2.3626957 27.581615 13
-192.58907 -1.9660501 27.572836 13
-192.5874 -1.5708447 27.561308 13
-192.62679 -1.1690102 27.559498 13
-192.63707 -0.60234159 27.546818 13
-192.57362 -11.598198 27.746141 14.079
-192.43755 -10.202459 27.913216 13.0005
-192.44691 -8.2381344 27.840376 13
-192.47865 -6.6762514 27.700302 13
-192.50146 -6.2827053 27.691385 13
-192.49187 -5.8922501 27.675205 13
-192.51573 -5.4977932 27.667046 13
-192.51111 -5.1062288 27.652538 13
-192.54213 -4.7304344 27.818512 13
-192.54796 -4.3332629 27.807762 13
-192.55431 -3.9356952 27.797403 13
-192.56279 -3.5175171 27.763903 13
-192.5836 -3.1003866 27.832933 13
-192.57573 -2.7017756 27.82061 13
-192.59346 -2.2992139 27.814449 13
-192.60396 -1.8971958 27.806881 13
-192.63618 -1.4915218 27.804564 13
-192.64328 -1.099081 27.796951 13
-192.64178 -0.69744772 27.787407 13
-192.6442 -0.30480379 27.779236 13
-192.60838 -10.960365 28.109268 14.0715
-192.40251 -10.292957 28.141674 13
-192.41397 -9.8960686 28.129429 13
-192.424 -9.4990501 28.117126 13
-192.41711 -9.1030922 28.101152 13
-192.41634 -8.5428963 28.287779 13
-192.44972 -8.159338 28.283722 13
-192.60182 -3.7142563 28.199739 13
-192.57256 -3.3335962 28.184214 13
-192.57433 -2.92838 28.175644 13
-192.58493 -2.5418425 28.169806 13
-192.61093 -2.1324158 28.167334 13
-192.61349 -1.7054977 28.15933 13
-192.62109 -1.2977219 28.153164 13
-192.62619 -0.91022485 28.147066 13
-192.59625 -0.5073967 28.132795 13
-192.66122 -0.089237139 28.140608 13
-192.4575 -10.682335 28.591034 14.068
-192.40761 -9.4295006 28.797951 13
-192.43452 -9.0234089 28.79141 13
-192.4382 -8.6390934 28.780315 13
-192.43517 -8.2349186 28.767281 13
-192.41524 -7.8321037 28.750549 13
-192.45204 -7.423769 28.747375 13
-192.46025 -7.0177383 28.737778 13
-192.60533 -2.5409145 28.663033 13
-192.61179 -2.130415 28.656219 13
-192.6129 -1.7202301 28.648441 13
-192.61143 -1.3305683 28.640713 13
-192.64438 -0.91478342 28.640871 13
-192.66336 -0.52109331 28.63839 13
-192.65193 -0.090532243 28.62841 13
-192.65654 -8.8395405 29.167858 13.0015
-192.68929 -7.7646141 29.174896 13.001
-192.55458 -6.7534351 29.12014 13.00075
-192.76839 -4.6850166 29.105412 13.0005
-192.51431 -4.2979794 29.079784 13
-192.57703 -10.937366 29.204708 13.002
-192.60432 -9.8097086 29.208269 13.0015
-192.57426 -4.4408188 30.838905 15.0555
-192.07785 -5.0101247 24.797005 13.0195
-192.06355 -4.8644109 25.182098 13.019
-192.2177 -6.8313298 25.583101 13.0185
-192.07845 -4.982285 25.369602 13.0185
-192.37415 -4.3729863 25.250147 13.018
-192.35661 -11.73893 26.397497 15.1765
-192.06859 -13.65278 26.62178 13.0205
-192.23946 -11.330994 26.679504 14.1015
-192.37552 -11.317316 26.951355 14.087999
-192.10268 -9.9623575 27.477236 14.0815
-192.33742 -11.341575 27.857002 13
-192.34946 -10.952634 27.842545 13
-192.12282 -7.4431386 27.782333 14.0845
-192.13928 -0.87345183 27.920429 15.068
-192.36134 -11.403847 28.273449 13
-192.37044 -10.912081 28.256931 13
-192.37306 -10.565788 28.34445 13
-192.37704 -10.166049 28.331625 13
-192.37312 -9.7866707 28.317902 13
-192.38472 -9.3659754 28.306704 13
-192.39473 -8.9450722 28.295441 13
-192.03978 -6.8017354 28.341429 14.0575
-192.27206 -6.7770925 28.162148 14.078
-192.04175 -5.8132558 28.084951 14.084
-192.22282 -2.2974935 28.239439 14.056
-192.37108 -11.428244 28.85696 13
-192.32405 -10.919933 29.017767 13.00075
-192.39095 -10.621019 28.833529 13
-192.37933 -10.218524 28.817156 13
-192.39993 -9.8539553 28.809937 13
-192.34911 -8.7545748 29.148714 13.001
-191.9929 -8.2109537 25.925671 13.019
-191.91745 -7.4336481 25.712093 13.019
-191.63554 -12.09752 26.341053 13.02
-191.80525 -11.980134 26.379454 13.0205
-191.82585 -10.008859 26.092794 13.0195
-191.9841 -13.725666 26.522177 13.0205
-191.73317 -10.55716 27.143717 14.0945
-191.94724 -9.7544184 26.968601 14.0985
-191.94513 -10.987039 27.528267 14.085
-191.89732 -10.28431 27.484653 14.0885
-191.86472 -5.654748 27.781614 14.057
-191.73793 -8.1794748 28.272999 14.0575
-191.89218 -4.6792612 30.933603 15.052
-191.58083 -14.444154 26.618128 13.0205
-191.30739 -5.2458739 27.16811 14.056
-190.99841 -1.1551534 29.886246 15.0515
-190.47855 -1.0434064 29.538088 15.045
-190.7907 -0.47571793 29.549 15.0485
-190.61732 -2.6501567 30.009506 15.049
-190.14217 -5.5263171 30.502907 15.046
-184.53995 -2.3179176 7.4151015 9.1385002
-181.02649 -11.689564 6.7592978 8.1750002
-181.07286 -11.439999 6.6302471 8.1731672
-180.13725 -11.068595 6.3527865 8.1719999
