# .PCD v0.7 - Point Cloud Data file format
VERSION 0.7
FIELDS x y z intensity
SIZE 4 4 4 4
TYPE F F F F
COUNT 1 1 1 1
WIDTH 1231
HEIGHT 1
VIEWPOINT 0 0 0 1 0 0 0
POINTS 1231
DATA ascii
-57.383686 -107.02312 13.64072 12
-57.228077 -106.58897 13.876644 13.1565
-57.458874 -105.85802 13.760155 13.361833
-57.508415 -105.4218 13.62292 13.157
-57.540146 -93.622932 13.640272 13
-57.570381 -93.510529 13.669442 13
-57.432087 -114.38255 14.266232 10.1675
-57.209881 -112.68016 14.159187 11.107
-57.334579 -106.83643 14.274631 15.092
-57.361172 -106.6554 14.196269 12.335428
-57.361797 -106.13423 14.285652 11.706333
-57.439007 -105.80766 14.280367 10.476072
-57.350857 -109.15312 14.447584 11.162
-57.494823 -108.11313 14.44912 12.12
-57.293282 -107.67146 14.622927 11
-57.410198 -106.91721 14.581177 12.089
-57.270607 -106.59341 14.516989 11.063
-57.260735 -106.07479 14.529919 11.75
-57.504395 -105.93224 14.530127 11.781875
-57.590302 -111.481 14.883699 11.1625
-57.390862 -110.68858 14.871128 11.1635
-57.396774 -107.6548 14.936796 12.1355
-57.319321 -107.30383 14.828599 15.0875
-57.395115 -106.97562 15.039308 13.4638
-57.328819 -106.37128 14.936798 11.583
-57.34594 -107.00117 15.288901 14.362332
-57.344875 -112.97466 15.990794 12.1455
-57.34481 -106.11774 15.89636 13
-57.381935 -105.86607 15.895849 12.0815
-57.379601 -106.16456 16.165743 12.666667
-57.463295 -105.91689 16.204105 12
-57.495502 -105.54118 16.376905 11.1705
-57.429939 -105.73641 16.646193 12.5
-57.454075 -105.43655 16.67923 11.068001
-57.447021 -108.52222 17.025282 13.1515
-57.370308 -106.05444 17.476143 14
-57.562397 -105.80785 17.441788 13.5
-57.272839 -106.59673 17.677567 13.1625
-57.313148 -106.02042 17.667692 14
-57.545464 -107.24255 18.289415 13.164
-57.382736 -107.01175 18.221014 14.1485
-57.354439 -107.62875 18.585499 13.1655
-57.521374 -107.04074 18.461876 14.153
-57.563789 -108.57071 19.240299 11.175
-57.197899 -106.61496 2.9983606 7
-57.143841 -114.70575 4.7848558 8.0865002
-57.114254 -109.2662 4.6210814 8.0865002
-56.858456 -114.80898 4.8992543 8.0874996
-56.985516 -114.73112 4.8618083 8.0879002
-57.169044 -106.44384 5.1825142 8.0174999
-56.95274 -106.12925 5.8687758 9
-56.979893 -105.97347 5.821516 9.0247498
-57.029125 -92.932053 6.0232077 9.0970001
-56.803623 -105.95339 6.6874056 9.0889997
-57.157688 -107.16994 7.0269203 9.1520004
-57.080246 -106.70013 6.9099646 9.1490002
-57.140774 -106.18655 6.9280715 9.1525002
-57.041428 -105.81447 7.0657196 9
-57.01609 -105.44342 7.0917482 9
-57.116127 -107.01688 7.2847104 7
-57.126526 -106.45752 7.2579832 9.1604996
-57.00275 -106.23366 7.3361526 10.028666
-56.957741 -105.92787 7.4349699 10
-57.116283 -92.927696 7.3885059 12
-57.180672 -109.10661 7.8207798 10.086
-56.94664 -105.7277 7.8864737 8.2701874
-56.938175 -105.48064 7.9763093 10.087
-56.922138 -92.906914 7.90416 13
-57.133076 -115.43161 8.2776327 8.1064997
-57.081486 -105.64568 8.0125875 8
-57.044449 -105.45992 8.2706003 10.591499
-57.063309 -92.891174 8.1283779 13.283625
-57.034958 -105.73333 8.7393475 10.08675
-56.9492 -105.43583 8.5991917 10.635687
-56.932404 -92.88549 8.7197227 14
-56.959885 -111.38846 9.1942358 11.096
-56.965393 -107.29241 9.028347 10.390834
-56.892078 -107.17284 8.8667021 10
-56.970169 -105.49942 9.0529394 11.0215
-57.084614 -92.863579 9.0439825 14
-57.026703 -112.10188 9.345746 11.0995
-56.844147 -110.78504 9.3656263 11.1075
-57.068005 -109.0461 9.5220394 10.0445
-56.942448 -92.862282 9.5495768 15
-57.125626 -115.30581 9.8464642 8.1709995
-56.924187 -112.01395 9.6897926 10.58625
-56.909615 -111.86184 9.93472 11.0865
-57.014847 -109.01228 9.7069654 11.0865
-56.97665 -106.23284 9.913847 10
-57.114372 -92.819359 9.9058876 15
-57.0746 -109.09531 10.043406 11.087
-56.838959 -108.78996 10.326541 12.0925
-57.028942 -106.57782 10.329042 11.54375
-56.840687 -106.23786 10.274693 11
-57.030159 -105.85202 10.021638 10
-56.810005 -105.50555 10.098179 10.106
-57.048615 -92.820114 10.035756 15
-57.170086 -112.55311 10.516639 11.087
-57.04604 -107.99131 10.535717 12.0865
-57.093712 -106.53334 10.503936 11.718999
-57.008518 -106.14275 10.710466 12.043
-56.975231 -105.71009 10.601567 11
-57.061417 -105.51734 10.693665 11.0435
-56.909756 -106.07829 10.950363 12.365167
-56.978191 -105.81044 11.046581 10.411562
-57.034348 -105.49078 11.025742 10.725333
-57.195267 -91.651169 10.9858 11.1405
-56.965065 -107.79301 11.331163 11
-57.039341 -106.65466 11.20673 11
-57.13525 -105.54159 11.364928 13.0875
-57.08186 -92.972267 11.575508 10.0385
-57.010368 -90.914307 11.399842 10.090333
-56.892632 -109.04086 11.868895 13.0925
-56.994133 -107.42269 11.886126 12.04325
-57.16589 -106.96472 11.875923 11.346001
-56.934013 -106.79374 11.911316 13
-56.915695 -106.15102 11.728389 9.7506666
-57.055466 -105.86407 11.861569 9.5782499
-56.865967 -105.55325 11.644136 10.103
-57.191616 -91.920563 11.615841 11.0975
-57.112862 -107.40032 12.189198 13.562
-56.890228 -106.93273 12.262063 13.042666
-56.829548 -106.65945 12.018048 12.5
-56.878735 -106.14098 12.327998 12
-56.985004 -105.86639 12.240475 11.04525
-56.821644 -105.18299 12.246861 10
-57.168083 -91.454536 12.018559 12.1285
-57.189228 -107.22699 12.735409 14.0955
-57.085907 -106.85593 12.509096 13
-56.990818 -106.16414 12.593304 13.258501
-56.946762 -105.81911 12.489152 10.706333
-56.963924 -105.27573 12.416817 10
-57.021797 -90.954033 12.657084 11.0945
-57.154335 -90.608437 12.491552 11.095
-56.803688 -106.82044 13.161816 11
-56.819218 -106.03243 13.106085 14.0865
-56.841854 -105.80557 12.983504 12.333333
-56.933887 -105.3909 13.020464 10.9484
-57.024197 -105.16933 12.897104 11.13975
-57.163677 -90.659286 13.122759 13
-57.173428 -90.120407 13.045886 13.140167
-57.013374 -110.09158 13.285368 14.133
-57.052799 -107.79955 13.373589 11.043375
-57.125473 -107.40079 13.258047 11.1305
-57.059017 -106.62753 13.48928 13.042834
-56.823578 -105.96595 13.205744 13.087
-57.133839 -93.229591 13.494804 13
-56.920731 -90.891136 13.453746 12.558001
-56.985668 -90.522896 13.384388 12.5585
-57.054585 -90.276588 13.405869 12.7456
-56.831749 -107.83105 13.636845 14.064
-57.021931 -106.96835 13.692837 13.695666
-57.004303 -106.69512 13.902801 14.246699
-56.966648 -106.20872 13.728301 11.103
-56.839718 -105.97692 13.985327 11.1625
-57.14677 -90.478004 13.745565 13.10675
-56.999531 -114.34124 14.303123 11.1325
-56.944935 -111.75191 14.050203 11.1425
-57.163918 -106.88961 14.001955 15.107
-56.992981 -106.53124 14.232837 12.3155
-57.05785 -106.21375 14.243651 11.896357
-56.983368 -105.80234 14.236973 10.555555
-56.830219 -107.71116 14.538818 11.5
-57.08102 -107.41029 14.629625 12.04375
-56.963989 -106.97479 14.594349 13.354626
-57.056995 -106.60281 14.459984 11.709332
-56.902893 -106.22915 14.410751 11
-56.993355 -105.9985 14.52642 12
-57.087746 -111.17081 15.159683 12.1265
-57.140408 -107.40621 14.853949 12.1435
-56.96809 -106.9949 15.005424 14.04325
-57.013542 -106.67156 15.115742 12.631
-56.995651 -106.27431 15.037601 11.583
-56.915855 -107.00339 15.301533 14.5435
-56.815212 -106.78912 15.39099 15.151
-57.089806 -106.1363 15.425301 12.16
-57.18491 -106.52157 15.807943 13.121
-57.174686 -106.19627 15.878345 13
-57.013775 -105.95767 15.818603 11.445
-56.930656 -105.41892 15.965015 12
-56.824406 -106.69948 16.225595 12
-57.073418 -106.23467 16.105389 13
-57.144314 -105.74325 16.216236 12
-56.892281 -105.44814 16.025856 12
-57.183079 -105.32955 16.617298 11
-56.896137 -104.99026 16.525875 11
-57.0359 -106.87238 17.440664 12.166
-57.113678 -106.1552 17.556717 14
-56.857174 -106.45043 17.766823 13.652
-57.142296 -106.18031 17.660524 14
-57.099918 -112.23443 18.005222 11.1705
-56.883587 -106.75283 18.091936 13
-57.117908 -108.95224 19.438599 13.1665
-56.560791 -114.8042 4.7858315 8.0874996
-56.649326 -114.80239 5.0050654 8.1000004
-56.651787 -114.6713 4.8046861 8.0869999
-56.423683 -114.91068 5.429924 8.1079998
-56.619335 -106.10421 5.859941 9.0095558
-56.48576 -106.92602 6.0207458 9.0865002
-56.458927 -106.40136 6.1151371 9.0869999
-56.666027 -93.115746 6.1166005 9.1125002
-56.457573 -106.09828 7.0102091 9.4110003
-56.665852 -105.82816 7.0173402 9.03475
-56.659718 -107.54632 7.3813829 9.1289997
-56.405754 -106.88697 7.2334003 7
-56.774006 -106.50352 7.5916085 10
-56.663227 -106.07824 7.3295941 9.8591661
-56.69257 -105.91064 7.4251509 10
-56.525707 -105.02255 7.4503317 9.0109997
-56.565945 -104.7886 7.513484 9.0080004
-56.503544 -114.69881 7.6426907 7
-56.694912 -106.46281 7.6519532 10.0865
-56.647015 -106.14699 7.8396263 9.574625
-56.67086 -105.8103 7.8986444 8
-56.437878 -115.15533 8.0200644 7
-56.458305 -107.31693 8.3385782 10
-56.571861 -105.83305 8.2014847 10
-56.481712 -105.43992 8.2280188 10
-56.650772 -115.39198 8.4183788 8.1075001
-56.545113 -106.65578 8.6881075 10.5
-56.62999 -105.39811 8.6254301 10.875
-56.688828 -93.073128 8.7486019 10.1125
-56.601665 -107.49709 8.9897223 10
-56.535275 -107.05294 9.0006599 10.666667
-56.656952 -105.46304 8.989871 11
-56.737957 -111.89878 9.4228315 10.0875
-56.6119 -110.70189 9.4456396 11.087
-56.481434 -110.10753 9.3606691 8.1661673
-56.798977 -107.80855 9.2920008 10.1565
-56.61005 -107.49522 9.2872705 10.58725
-56.672787 -106.23069 9.5317335 10
-56.5966 -115.34642 9.8097086 8.1687498
-56.425114 -111.66536 9.7954607 10.089
-56.452694 -111.08102 9.7776651 11.0865
-56.437267 -107.03405 9.74858 11.093
-56.600872 -106.08279 9.8528166 9.5907497
-56.64735 -105.80204 9.9125605 10
-56.781704 -111.93723 10.264617 11.087
-56.625038 -106.92812 10.120025 9.6794996
-56.40147 -106.44335 10.101768 11
-56.610439 -106.29091 10.186304 11.299644
-56.54512 -105.89049 10.277737 11
-56.486217 -107.04739 10.513791 12
-56.569168 -106.43863 10.757904 9.0544996
-56.601894 -106.18362 10.67042 10.3755
-56.541748 -105.88567 10.609272 11.666667
-56.754814 -105.55228 10.670611 11
-56.414745 -107.23508 11.062896 11.087
-56.581181 -106.52563 10.980296 12.091499
-56.676994 -106.15386 11.082667 9
-56.613071 -105.86395 11.032001 9.7593746
-56.566612 -107.34494 11.41301 11.528916
-56.757732 -107.06811 11.449067 11.0875
-56.603046 -106.73786 11.548278 11.088
-56.498909 -106.07735 11.218455 12.087
-56.790264 -105.83556 11.358558 12.087
-56.611141 -107.40011 11.760292 12.272
-56.551807 -106.64472 11.81216 12.31875
-56.63446 -105.534 11.967259 10.16
-56.680157 -112.8939 12.309678 10.131
-56.652946 -108.03365 12.217694 11.085
-56.544289 -107.33138 12.027104 13
-56.565472 -106.98161 12.130667 13.559999
-56.544903 -106.49013 12.112439 12.333333
-56.662964 -106.17865 12.177508 12.479857
-56.555889 -105.8439 12.295938 12.0995
-56.54295 -105.29864 12.216435 10.054167
-56.450497 -108.20066 12.43434 14.1245
-56.750507 -107.64457 12.752565 10
-56.79866 -107.33779 12.710084 10
-56.674061 -107.09934 12.533647 13.557751
-56.60556 -106.58287 12.538258 13.548
-56.581337 -106.16338 12.65593 13.030833
-56.602482 -105.81486 12.52584 10.6691
-56.664349 -105.41158 12.438809 10
-56.564693 -106.10531 13.02581 13.5435
-56.546413 -105.7574 12.945636 11.01375
-56.486225 -105.53885 12.925254 11.143
-56.642212 -109.73546 13.561242 11.0845
-56.552555 -107.28277 13.286495 13.028999
-56.512436 -107.04837 13.394773 14.418667
-56.591362 -106.61697 13.45495 15.12675
-56.749805 -90.804077 13.24142 13.118
-56.535877 -112.98405 13.723287 11.1275
-56.480347 -108.91702 13.871758 11.156
-56.731495 -108.2957 13.854573 12.0865
-56.731812 -107.74877 13.869944 14.038501
-56.766144 -107.57142 13.711629 12
-56.474926 -107.13192 13.677766 14
-56.7355 -106.63786 13.823018 11.595249
-56.634148 -106.243 13.803233 13.11875
-56.699593 -113.5799 14.317086 11.146
-56.595295 -112.83254 14.190726 11.138
-56.470737 -108.35352 14.128947 12
-56.645443 -106.90389 14.153229 13.697499
-56.682064 -106.65826 14.236667 12.5
-56.648964 -106.16859 14.335649 10.434
-56.775208 -105.87164 14.293248 10.333333
-56.68137 -109.25273 14.674261 14.091749
-56.746555 -109.03211 14.658156 15.1035
-56.436794 -108.19822 14.622832 13.58725
-56.561794 -107.69203 14.449926 12
-56.542522 -107.01163 14.551715 12.1265
-56.699287 -106.4963 14.574431 12.552999
-56.628185 -106.20991 14.492633 11.686444
-56.575851 -105.87298 14.72156 12.14975
-56.551105 -107.85169 14.967597 14.5875
-56.62965 -107.00809 15.058344 12.7138
-56.639679 -106.58142 15.16064 12.0785
-56.49559 -106.15189 14.841994 11
-56.617779 -105.88464 14.809262 12.153
-56.640797 -108.09705 15.222322 11.1665
-56.795055 -107.08093 15.346543 14
-56.63509 -106.68702 15.875699 13.123
-56.626698 -105.31884 15.972778 12
-56.524319 -104.93362 15.869391 12.57275
-56.415825 -104.24694 15.994121 13.1525
-56.55991 -106.91257 16.304979 12
-56.650158 -106.7463 16.218233 12
-56.618118 -106.35229 16.046444 13
-56.738197 -104.85329 16.334965 13.1545
-56.444744 -113.1672 16.521561 12.159
-56.715229 -106.88039 16.415684 12
-56.636673 -105.26362 16.597206 11
-56.660553 -104.98862 16.579752 11.583
-56.658184 -111.88105 17.394253 13.1455
-56.527077 -107.08716 18.191217 13.333333
-56.706863 -106.77744 18.077377 13
-56.790962 -107.7378 18.594271 11.1715
-56.761833 -107.56922 19.015127 14.159
-56.234634 -114.89369 4.9374223 8.0878754
-56.177979 -114.72595 4.9000216 7.8943567
-56.141132 -106.18527 5.7365556 9
-56.163712 -105.92191 5.7654243 9
-56.169937 -106.14165 7.0333672 9.8179998
-56.304543 -105.70602 7.13411 9.0376663
-56.165813 -107.46889 7.422039 10.021749
-56.126057 -106.98945 7.5554395 10.0865
-56.257549 -106.11153 7.3194094 10.0345
-56.397308 -105.97554 7.5250072 10.0865
-56.383118 -115.13113 7.6385422 7
-56.232788 -111.85182 7.838387 9.1234999
-56.138721 -106.8335 7.906599 10
-56.16066 -106.14236 7.6762271 10.087
-56.30793 -105.78164 7.8904204 8.0194998
-56.098408 -107.36744 8.3667259 10
-56.201183 -105.72658 8.3122187 10.666667
-56.301018 -107.39892 8.4749498 10.044001
-56.188694 -107.11977 8.7799215 11
-56.351002 -106.76614 8.7254105 11
-56.202908 -107.32253 8.8924446 11
-56.351982 -106.86042 8.8006697 10.087
-56.397934 -111.5889 9.4774733 10.087
-56.193726 -110.96506 9.4063225 10.420333
-56.084393 -107.40861 9.4179754 10.0895
-56.114971 -108.47952 9.6143408 11.087
-56.049419 -107.70428 9.8833542 10
-56.312355 -107.32486 9.7357597 11
-56.215054 -107.04909 9.8753929 10.696834
-56.227852 -105.64249 9.9343309 10.0915
-56.01442 -108.16277 10.283115 10.0865
-56.008224 -107.79826 10.362419 12.0885
-56.168896 -107.26028 10.138679 11
-56.141045 -107.08247 10.244301 11.049999
-56.228928 -106.4324 10.351702 11.724667
-56.389828 -106.33835 10.089103 9.0900002
-56.270203 -105.8512 10.26828 11
-56.301872 -107.35352 10.418435 11.5
-56.338306 -106.94673 10.676284 9.1630001
-56.306301 -106.32556 10.659404 12.0865
-56.267269 -105.87265 10.647814 11.415
-56.002052 -107.21069 10.851051 9.1660004
-56.220913 -106.88703 10.838595 9.1645002
-56.189373 -108.07814 11.417885 11.087
-56.160931 -107.39062 11.429123 12.666667
-56.320469 -107.11557 11.422651 10.12575
-56.184757 -106.5564 11.546508 11.0885
-56.038731 -106.04951 11.290813 12
-56.139069 -108.21235 11.718052 11
-56.256702 -107.44274 11.797453 12.5
-56.240139 -106.52573 11.886626 11.864901
-56.32626 -106.05715 11.841786 9.1700001
-56.368984 -105.8884 11.776528 10.155
-56.079823 -108.55166 12.208605 12.521626
-56.297867 -107.68913 12.013173 12
-56.126072 -106.87859 12.350488 14.116
-56.165375 -106.58829 12.232751 12.376834
-56.036228 -106.29737 12.384616 12
-56.375809 -105.78389 12.104608 10.1615
-56.199162 -108.06351 12.407021 14.1285
-56.072891 -107.94106 12.459612 14.1205
-56.038551 -106.90472 12.486807 12.088
-56.21225 -106.51523 12.766483 11.102
-56.203716 -106.26842 12.595891 10.708167
-56.323471 -105.83025 12.532883 10.747833
-56.043102 -107.72821 13.0136 14.093
-56.299187 -107.00173 13.067519 13.0435
-56.132927 -106.49965 13.000527 12.0875
-56.320412 -106.11777 12.995126 11.79575
-56.289165 -105.85875 12.918099 11.135272
-56.179127 -109.46337 13.475771 10.167
-56.306866 -106.99297 13.403122 14.025701
-56.084064 -106.64511 13.315094 13.706833
-56.150997 -106.30135 13.267614 13
-56.364693 -112.96101 13.641248 11.126
-56.091148 -109.05166 13.964583 12.0875
-56.243347 -107.86503 13.974586 13
-56.383053 -114.60525 14.24204 10.168
-56.390747 -112.77969 14.081496 11.1405
-56.297668 -109.32382 14.040548 12.087
-56.195286 -108.53165 14.313937 13.558001
-56.273647 -108.30112 14.24056 12.04425
-56.090599 -106.98659 14.219434 11.164
-56.391315 -106.44553 14.358707 11
-56.355354 -109.28616 14.666278 10.039
-56.15023 -108.97577 14.493794 13.6105
-56.152485 -108.60302 14.602407 13.744083
-56.070393 -108.36512 14.712444 12
-56.117027 -107.29583 14.565845 11.166
-56.136826 -107.18404 14.614673 12
-56.098652 -108.45028 15.036691 14.08825
-56.190426 -108.32294 14.85514 13.08825
-56.358906 -107.0483 14.899658 12
-56.046265 -105.24996 15.449274 13.1175
-56.072754 -105.09161 15.439232 12.1625
-56.153309 -111.41983 15.996686 11.1675
-56.150425 -106.17026 15.931733 13.069
-56.193794 -105.7044 15.857759 13.13325
-56.14259 -105.44629 15.810981 13.020857
-56.160347 -105.06947 15.751344 12.848125
-56.293503 -104.61184 15.848393 12.657249
-56.111774 -105.14065 16.085264 13.150833
-56.211884 -104.63871 16.335817 12.16325
-56.325027 -104.38253 16.308022 11
-56.314568 -106.91342 16.442083 13
-56.201855 -104.7116 16.546297 11.8325
-56.23737 -110.88735 17.068266 13.1375
-56.183613 -107.49339 16.993162 13.1575
-56.106983 -106.11952 16.97673 12.1665
-56.037193 -106.9921 18.284582 13.166
-56.248539 -106.67852 18.19322 14.1535
-55.766361 -92.570374 1.9350153 8.0834999
-55.654545 -114.78532 4.7246943 8.0885
-55.787865 -114.92265 4.9134736 8.0877495
-55.742397 -114.71795 4.9086704 7.9180551
-55.673931 -114.90864 5.4277401 8.1084995
-55.944126 -106.9538 5.824264 9
-55.997269 -106.12777 5.7835822 9
-55.67897 -106.82603 6.5572433 9.0874996
-55.795658 -106.9294 7.0428758 9
-55.825726 -106.73355 7.0895648 9.333333
-55.823605 -106.20472 7.1023426 9.5482502
-55.791256 -108.32239 7.4568539 9.1295004
-55.76405 -107.0573 7.3514729 8.7353334
-55.803944 -106.65774 7.3770866 10.108
-55.780315 -106.26994 7.2160292 9.0887508
-55.624352 -93.391861 7.5477786 8.1335001
-55.614849 -115.04725 7.923768 7
-55.924896 -106.85625 7.8964486 10.04375
-55.805981 -106.71739 7.7442975 9.5752497
-55.61092 -106.29482 7.9487996 8
-55.645115 -93.348015 7.6317325 8.1415005
-55.832661 -93.110153 7.6826987 8
-55.673351 -115.35926 8.2763805 8.1075001
-55.835392 -107.31392 8.3421268 10
-55.920631 -106.81353 8.367815 10
-55.61245 -106.74632 8.358223 10
-55.924835 -105.79485 8.3487167 11
-55.810993 -107.77202 8.664938 11
-55.975826 -107.2254 8.4336939 10
-55.764954 -107.00546 8.5794773 11.07125
-55.978409 -106.46766 8.4064245 11
-55.624393 -93.299515 8.5451298 8.4888334
-55.678486 -108.40835 9.1294308 11
-55.773113 -108.2511 9.0196228 10.195916
-55.660446 -107.75645 9.1067619 10
-55.929096 -107.28773 8.803997 11
-55.712418 -93.121422 8.9813042 9
-55.616367 -111.41789 9.4574327 11.089
-55.830044 -108.5126 9.4394217 10.776833
-55.919792 -108.02221 9.4004011 10.15825
-55.760754 -107.7841 9.2954464 10.0785
-55.668156 -107.45042 9.3757 9.0852499
-55.63435 -113.53917 9.8266945 11.1085
-55.805614 -108.11701 9.8096905 10.5
-55.840981 -107.71233 9.8852148 11.59375
-55.772095 -107.05046 9.9222698 12
-55.748943 -113.47438 10.27248 11.08725
-55.801769 -108.19038 10.327374 10.54475
-55.816391 -107.99744 10.002678 10
-55.731754 -107.30103 10.231312 11
-55.999641 -107.11203 10.233143 12
-55.884731 -105.83598 10.212371 11
-55.681297 -93.083199 10.227341 9.7921247
-55.690353 -111.83898 10.764606 11.088
-55.755657 -108.15196 10.564766 11.666667
-55.809948 -107.95246 10.63635 12.04325
-55.842243 -106.50674 10.484534 10.1195
-55.773365 -105.83237 10.599119 12.08675
-55.705555 -111.80237 10.898035 12.0935
-55.721828 -108.1657 10.994305 11.5875
-55.8111 -107.9397 11.035457 11.0875
-55.946121 -107.3191 11.189708 11.087
-55.663177 -106.00985 11.1945 12.0875
-55.800938 -105.74897 10.911807 11.271001
-55.625534 -93.239449 10.946785 11
-55.661514 -93.109413 11.063114 10.870143
-55.762405 -109.21603 11.540905 11
-55.746635 -108.27557 11.407844 11.775
-55.700752 -107.8068 11.337641 10.5
-55.831978 -107.28555 11.348755 13
-55.860401 -105.98713 11.276758 12
-55.708832 -92.943626 11.288891 11
-55.998425 -109.42068 11.937557 12.0875
-55.834862 -108.21261 11.754631 11
-55.952251 -105.94794 11.981808 10.1605
-55.690536 -109.39722 12.357065 12.153
-55.972504 -108.58329 12.042942 13.0885
-55.789238 -108.20908 12.270868 12.5
-55.836193 -107.86282 12.1711 12
-55.896759 -106.54873 12.32111 12.0335
-55.90958 -105.92394 12.254931 12.14925
-55.600651 -93.02169 12.394458 12
-55.777176 -108.24979 12.509819 13.336
-55.819702 -107.35962 12.723871 13.727834
-55.881855 -107.06933 12.637473 14.054
-55.792236 -106.54685 12.591137 13.771749
-55.825191 -106.26408 12.449892 10.582251
-55.627136 -92.93737 12.504865 12
-55.912251 -107.8037 12.803921 14.1
-55.824127 -107.39451 13.066893 12.04475
-55.707256 -106.97314 13.095574 11.754001
-55.706768 -106.58006 12.934422 13.08825
-55.738014 -106.36193 13.050125 12.5875
-55.64312 -107.37211 13.499711 15.129
-55.856915 -107.19803 13.438585 15.125
-55.887505 -106.59631 13.284885 13.54325
-55.911671 -108.80679 13.631375 11.15
-55.789227 -108.51963 13.837996 15.132
-55.774742 -108.28761 13.776017 12
-55.778736 -108.57077 14.236061 13.567625
-55.975056 -108.366 14.319218 12
-55.7127 -107.03491 14.289269 11
-55.756939 -108.87405 14.553332 14.04825
-55.76907 -108.62967 14.592091 12.417399
-55.888981 -108.368 14.540735 12.06325
-55.742996 -107.23753 14.573915 12
-55.757401 -107.05872 14.549388 11.769834
-55.769798 -105.4699 15.150698 12.1605
-55.67598 -109.07081 15.496543 12.1565
-55.607231 -105.62431 15.510225 13.1245
-55.7015 -105.44711 15.491704 13.116
-55.629791 -113.96642 15.709763 12.132
-55.83609 -106.02726 15.702429 12.103
-55.821301 -105.82629 15.877682 12.8935
-55.900692 -105.38902 15.715615 13.042666
-55.940495 -104.86431 15.918562 12.1655
-55.786282 -113.30481 16.32679 11.168
-55.992275 -108.00986 16.298126 13
-55.681023 -105.70554 16.104078 13.149
-55.831841 -105.12958 16.3346 13.156
-55.958988 -107.36396 16.527357 13.1495
-55.711296 -105.23769 16.564096 12.1665
-55.772625 -105.0985 16.556599 12.442333
-55.868668 -104.68909 16.505177 11.085
-55.909027 -107.84583 17.14196 12.167
-55.639378 -105.25283 16.855572 14.121
-55.87273 -104.91932 17.021244 14.13
-55.856457 -105.81805 17.326681 13.646749
-55.82629 -105.59248 17.358309 14.1435
-55.679024 -106.40191 17.624325 13
-55.728489 -105.67283 17.676186 13.65675
-55.849903 -106.85653 18.483625 14.1575
-55.883877 -107.48743 18.907206 12.1715
-55.391888 -94.466713 1.7568306 6
-55.398785 -114.65476 2.2899027 8.1000004
-55.424114 -114.61369 3.8695557 7
-55.364666 -114.88512 4.7200103 8.0883999
-55.425629 -114.69463 4.5770645 8.0900993
-55.470375 -114.81056 4.8897882 8.0882502
-55.308319 -114.72276 4.8928251 8.0510006
-55.312828 -114.94111 6.6370292 9.0436249
-55.44693 -106.39281 7.0705662 9.0915003
-55.532394 -107.30148 7.418189 8.5432501
-55.519386 -106.85329 7.541008 10.087
-55.393085 -106.71476 7.3486605 10.0875
-55.296993 -106.35958 7.4746461 10.087
-55.371605 -113.77157 7.8204703 9.1059999
-55.289009 -106.51483 7.7897449 8.04
-55.296337 -106.1894 7.8668556 8.4404011
-55.506256 -93.610451 7.6557565 8
-55.458736 -115.27451 8.3859501 8.1084995
-55.303261 -114.88226 8.1130733 10
-55.301548 -106.88059 8.3028631 10
-55.420166 -106.56603 8.2758551 10.0955
-55.365032 -106.29809 8.0386848 9.0634995
-55.553825 -93.336861 8.2035465 8.1672497
-55.533337 -115.31898 8.4628448 8.1079998
-55.345814 -113.97042 8.7394962 10.088
-55.502716 -107.32299 8.5383663 11
-55.459717 -107.17668 8.566123 11
-55.37748 -93.689064 8.7402477 9.099
-55.425468 -93.386528 8.6970444 8.8632498
-55.258667 -113.85853 9.1514988 10.0885
-55.537529 -108.46594 9.0528374 10.333333
-55.566063 -108.24142 8.9494915 10
-55.473331 -107.66386 8.9392376 10.5
-55.345161 -93.61837 8.9362564 9.0784998
-55.420902 -93.478058 8.8993654 9.0544996
-55.506382 -111.0145 9.4190979 10.58725
-55.502468 -108.22482 9.569252 11
-55.506721 -107.71091 9.2841759 10
-55.306175 -115.2584 9.8491135 8.1704998
-55.347252 -113.47383 9.7294264 10.421166
-55.426449 -108.2716 9.8342428 11
-55.522526 -107.96654 9.9230843 10
-55.37645 -107.43049 9.900279 11.5
-55.459576 -106.10491 9.8381462 8.1754999
-55.347828 -93.629539 9.8257542 10
-55.38921 -93.495224 9.8515444 10.019616
-55.320068 -113.88665 10.240097 11.0875
-55.436481 -113.38038 10.281857 11.0875
-55.418324 -108.25623 10.380408 11
-55.436295 -107.51352 10.153214 11.666667
-55.414856 -107.14832 10.019491 12.05425
-55.567146 -105.76641 10.249317 11
-55.40638 -93.538658 10.016491 10
-55.556973 -93.165192 10.255979 9.7229996
-55.310993 -113.09486 10.605896 11.088
-55.388008 -108.15958 10.50926 11.772125
-55.381126 -107.79517 10.562975 11.5
-55.295174 -107.40832 10.791189 12.087
-55.559643 -106.96581 10.465403 9.1610003
-55.382736 -93.441933 10.562626 10.097
-55.405746 -108.11093 11.182753 9.04
-55.474045 -107.8577 11.110309 11.04375
-55.330303 -93.470879 11.008605 11.007406
-55.216614 -109.41172 11.20379 10.1145
-55.453186 -108.00491 11.346668 11.5
-55.363667 -107.85545 11.360896 10.945786
-55.497799 -107.40271 11.355172 13
-55.327339 -93.502777 11.362936 10.699666
-55.513088 -93.130821 11.388617 10.837625
-55.3536 -108.96111 11.892445 11
-55.460754 -108.09525 11.818148 12
-55.306339 -107.91962 11.642185 12
-55.320053 -107.59652 11.955332 13
-55.579655 -106.04295 11.614286 10.1515
-55.289429 -105.3731 11.768287 10.159
-55.498898 -93.114159 11.817317 10.584249
-55.498631 -108.19387 12.160233 11.696
-55.425217 -106.71671 12.12159 11.09
-55.3354 -105.60354 12.209564 10.164
-55.273853 -105.53211 12.12198 10.64075
-55.281212 -93.400017 12.171349 11.943563
-55.580929 -93.087021 12.188456 12
-55.463596 -111.62004 12.406387 10.1535
-55.332684 -109.2449 12.787851 12.0885
-55.216206 -108.57487 12.536996 14.1255
-55.47934 -108.29177 12.550235 13.778999
-55.233917 -107.29215 12.452176 14
-55.444824 -106.99904 12.675411 13.6
-55.426987 -106.54379 12.506604 12.568251
-55.345394 -106.34062 12.671759 14.138
-55.365826 -105.79945 12.439118 10.166
-55.411861 -105.57751 12.776333 11.138
-55.289677 -93.399727 12.651967 12
-55.518814 -93.027512 12.703895 12.086166
-55.556732 -109.24496 12.957869 13.1025
-55.248375 -108.15813 12.940065 14.097
-55.229591 -107.69508 12.832575 14
-55.357956 -106.92477 13.03561 13
-55.495247 -106.43322 12.977913 12
-55.42379 -105.61107 12.845883 11.1355
-55.240597 -93.332207 13.15401 13
-55.491829 -92.977806 12.924713 12
-55.439678 -110.89442 13.240655 11.1255
-55.313137 -110.10863 13.591254 11.1455
-55.205116 -109.7057 13.427422 11.1325
-55.448696 -109.28156 13.420775 10.1675
-55.479691 -108.50153 13.59818 11.1065
-55.261131 -107.66409 13.573546 15.1325
-55.250984 -107.47643 13.527561 15.1255
-55.449951 -106.94262 13.469651 15.121
-55.414883 -106.65583 13.325051 13.5435
-55.261913 -93.351624 13.370438 12.844135
-55.550148 -93.012642 13.453032 13
-55.296593 -112.17692 13.965232 11.1435
-55.552444 -108.65911 13.912672 12
-55.493855 -108.22646 13.649014 12
-55.309113 -107.37254 13.803946 15
-55.253094 -93.328339 13.848243 13
-55.542923 -92.943871 13.813743 12.720666
-55.597248 -108.83799 14.282612 15.1165
-55.515125 -108.66203 14.277288 12
-55.469036 -108.38523 14.084702 13.088
-55.28508 -106.25433 14.244571 10.1705
-55.263401 -93.270073 14.283284 13.456786
-55.455154 -92.954918 14.176945 13.0525
-55.289013 -108.88963 14.513944 14.05025
-55.44529 -108.67133 14.559164 12.315125
-55.475479 -107.29279 14.510261 11.666667
-55.210533 -106.24596 14.494164 12
-55.287468 -105.6058 14.692608 11
-55.372948 -105.47821 14.624009 11.865126
-55.225784 -93.315895 14.627222 14.0237
-55.481098 -92.982002 14.731544 14
-55.394791 -105.41206 14.956506 12.159
-55.365471 -93.401741 15.072866 13.867624
-55.424389 -92.998329 15.043898 13.0835
-55.578754 -92.775024 14.996093 14
-55.395473 -109.17764 15.524618 11.1675
-55.275539 -107.50944 15.41744 12.63925
-55.244011 -106.84727 15.571268 12
-55.308792 -106.71928 15.384413 12.07975
-55.259869 -106.20058 15.251781 12.161
-55.323616 -105.55674 15.332917 12.639999
-55.268074 -94.127831 15.475171 14.1055
-55.203102 -93.276871 15.379951 14
-55.476254 -93.045662 15.294343 14
-55.303707 -110.19982 15.946838 12.1605
-55.395706 -107.0107 15.929217 13
-55.409069 -106.64745 15.873938 12.75
-55.584644 -106.06213 15.750645 13.1265
-55.383286 -105.54781 15.627771 12.164
-55.425354 -107.31875 16.144815 13
-55.356277 -107.03549 16.103006 12.5
-55.356682 -106.58379 16.054064 12.8582
-55.38324 -106.22263 16.026554 13
-55.518154 -105.98637 16.11746 12.166
-55.371094 -105.3969 16.200567 13.1545
-55.344349 -107.80645 16.548779 13.15
-55.405785 -105.3549 16.531332 12.082667
-55.326809 -106.91006 16.916491 11.1705
-55.459545 -106.59357 17.088156 12.905
-55.377838 -105.45831 16.953318 14.123751
-55.26046 -109.12057 17.567457 12.1675
-55.358776 -106.81792 17.30611 13
-55.382408 -106.70135 17.387463 13.853917
-55.322678 -106.24471 17.417307 14.028799
-55.50005 -105.86873 17.395821 13.7635
-55.429211 -109.17043 17.62126 12.1675
-55.222008 -108.20687 17.832153 13.164
-55.421326 -106.69644 17.89361 13.602333
-55.485554 -106.39887 17.601501 13
-55.488861 -108.29902 18.157808 14.1475
-55.471893 -107.47004 18.10778 13
-55.204071 -107.18191 18.390184 11.172
-55.372776 -106.72866 18.146505 14.155001
-55.235989 -109.36061 18.61603 14.153
-55.29039 -107.08389 18.721861 13.66325
-55.413704 -106.92632 18.991074 11.839833
-55.248592 -106.70004 19.02173 14
-55.059456 -91.627373 0.95438194 7
-54.840019 -114.92819 4.6967092 8.0869999
-55.070789 -114.70403 4.6253357 8.0591669
-54.946423 -114.92944 4.9294953 8.0890007
-55.019905 -114.70878 4.8943114 7.9447007
-54.909706 -114.88643 5.424408 8.1090002
-54.980907 -114.92847 6.582418 9
-55.09536 -112.0575 7.1676021 9.0895004
-55.017559 -112.05705 7.492991 9.0918341
-55.125748 -111.97028 7.4584641 9.0909996
-55.138653 -109.68423 7.3379169 7
-55.046448 -106.84228 7.3942189 10.087
-54.963997 -112.10728 7.7773776 9.5918751
-55.030842 -106.53032 7.7856665 10.087833
-55.147133 -106.22136 7.8903584 8.0380001
-55.044235 -115.3415 8.2148247 8.1070004
-55.058422 -114.85079 8.1083765 10
-54.827263 -112.44181 8.1617785 10.109
-55.074535 -112.12295 8.1137276 10.0875
-54.963905 -111.97578 8.3245115 9.0637503
-55.012703 -109.69159 8.033288 8.1055002
-55.051586 -107.097 8.3485565 10
-55.090004 -106.46854 8.3228512 10
-54.89801 -107.10111 8.4151802 10
-55.184143 -106.69325 8.5130901 11.0935
-54.976276 -113.75643 9.1201925 10.0885
-55.101494 -108.44037 8.9381704 11
-54.953167 -113.77923 9.5570354 10.59375
-55.178551 -106.34766 9.5778427 9.1005001
-55.053303 -114.16891 9.7905741 10.428166
-54.998703 -113.81624 9.8228359 11.090333
-55.171276 -112.90867 9.9400511 10.0895
-55.168797 -111.44289 9.6588488 11.087
-54.914402 -109.69637 9.8770285 9.1040001
-55.149395 -107.45472 9.806798 11.04525
-54.897938 -106.53721 9.8423166 9.0997505
-54.924183 -106.30755 9.6598635 9.1014996
-55.019989 -105.92646 9.9576569 9.1012506
-54.994286 -114.21893 10.264503 11.0875
-55.025028 -108.11871 10.143114 12
-54.994106 -107.75787 10.169145 10.2547
-54.986027 -107.48162 10.23924 10.7391
-54.808804 -107.04883 10.037793 10.092
-54.858303 -106.21729 10.286673 9.1595001
-54.877369 -109.52598 10.621089 10.1135
-54.987606 -107.439 10.486292 11.5145
-54.846943 -107.02058 10.484738 10.566
-55.12698 -106.45895 10.561589 9.1634998
-54.865093 -106.32604 10.521081 9.0812502
-54.843384 -112.31944 10.888733 12.101
-55.061142 -107.78104 10.928326 10.709167
-54.810116 -107.44465 11.125875 9.0395002
-54.967823 -107.18644 10.960596 12.0875
-55.023312 -106.28806 11.080392 9.0834999
-55.164722 -115.13992 11.497583 9.1645002
-54.848568 -112.02024 11.352321 9.1669998
-55.002735 -111.89901 11.350543 9.1674995
-54.983467 -107.7828 11.448057 12.105954
-54.912998 -107.493 11.278724 11.543751
-54.832092 -106.22881 11.44959 10.0655
-55.031353 -115.52059 11.800089 9.1669998
-54.985989 -107.79068 11.748254 12.29425
-55.005554 -107.5372 11.888815 13
-54.811279 -106.87605 11.940114 11.09
-54.993568 -105.46976 11.710806 10.158001
-55.139324 -108.24222 12.235006 11.72
-55.114929 -107.75656 12.146191 13.043167
-54.899063 -107.52374 12.156426 13
-55.105476 -107.07369 12.389499 14
-55.01054 -106.68387 12.3249 10.6181
-54.962238 -105.91002 12.38308 10.16525
-55.034863 -112.20226 12.429036 10.151501
-54.983067 -111.81737 12.424863 10.1515
-54.984295 -111.46559 12.560667 10.15925
-55.189213 -108.45576 12.505332 14.1325
-54.999123 -108.13457 12.457208 13.06075
-54.963032 -107.30509 12.559758 13.54375
-55.032265 -107.00494 12.64025 12.54375
-55.018517 -106.76445 12.607888 13
-54.993183 -105.78692 12.596627 11.12275
-54.951351 -111.95921 13.04176 10.165
-54.841549 -109.51785 12.919384 10.1665
-54.884735 -107.31808 12.936007 11.728
-55.067055 -107.11276 13.017339 13.5
-55.018723 -106.64378 13.070553 12.849667
-55.066795 -106.09844 12.899214 10
-55.187073 -105.80695 12.871865 11.141
-54.805824 -112.29295 13.439006 11.128
-55.091946 -109.66656 13.490457 11
-54.865402 -109.40917 13.398273 11.13875
-54.897995 -107.61061 13.330168 11.1525
-54.93251 -107.27116 13.383012 13.5
-55.017868 -107.17493 13.364585 12.54375
-55.050308 -106.73089 13.304467 13.521749
-55.187687 -93.356895 13.264627 13
-54.989502 -112.19556 13.850932 11.141
-55.009701 -110.59611 13.669103 10.63
-55.022877 -109.3464 13.835346 12.6215
-55.057491 -109.10995 13.60642 11.151751
-55.023846 -107.69669 13.609178 15.1295
-55.009201 -107.20417 13.804675 13
-55.104858 -107.10705 13.777199 11.709167
-55.008881 -106.70531 13.967565 11
-55.058285 -109.27651 14.215932 14.087
-55.114067 -108.12353 14.22833 11.164
-55.051788 -106.49329 14.295527 12
-55.053375 -106.36973 14.38636 12
-55.155693 -93.32328 14.35278 14
-55.194988 -108.93536 14.652954 15.097
-54.836063 -107.72543 14.558196 12
-55.135738 -107.30087 14.584134 12.1365
-54.965027 -106.44762 14.406623 12
-54.928299 -106.16064 14.521769 12.051333
-54.929733 -105.84188 14.662851 11.329124
-54.993538 -105.57681 14.795576 12.1575
-55.165009 -93.311508 14.567494 14
-55.195267 -106.73013 14.9631 12.156
-54.843491 -105.6838 14.831883 11.167
-55.147243 -93.334145 14.840409 14
-54.932877 -107.37648 15.396688 12.08075
-54.85223 -106.81016 15.525994 12
-54.801434 -106.51867 15.397228 13.122
-55.01535 -106.19064 15.446334 13.12175
-55.194298 -105.65459 15.582631 13.1285
-55.193127 -94.440842 15.499061 14.1565
-55.137985 -93.253632 15.544656 15
-54.944698 -112.95171 15.962081 10.1725
-54.966221 -107.30524 15.933751 13
-55.0881 -107.0762 15.825772 12.589357
-54.826881 -106.64716 15.619233 12.1035
-54.97752 -94.616562 15.7792 15.135
-55.135551 -94.049004 15.680745 15.1315
-54.969894 -107.15245 16.073759 12.666667
-55.19334 -106.7673 16.001781 13
-54.894794 -106.13271 16.262711 13.154
-54.947002 -105.99557 16.204145 13.154
-54.915691 -106.02808 16.670452 13.1595
-55.18549 -105.47871 16.427292 11.1705
-54.985432 -108.30753 17.172981 12.1675
-54.969868 -107.25721 17.151878 13.1615
-55.165482 -107.03358 16.810423 12.167
-55.020008 -105.40224 16.986151 14.1285
-55.17897 -105.05825 16.978943 13.811833
-55.043167 -106.991 17.444468 13.517151
-55.065514 -106.65681 17.456568 13.6
-55.090115 -106.21994 17.387697 14
-55.01944 -108.25563 17.782961 14
-55.129311 -107.80634 17.809736 14.142
-55.044609 -107.0689 17.722042 13.714833
-55.003471 -106.90064 18.151772 13.1665
-55.07251 -107.06328 18.446142 12.664499
-54.970142 -107.06435 19.047972 14.919111
-55.069656 -106.98476 19.31428 14
-54.673592 -91.535439 2.1060359 7
-54.790508 -91.729668 2.4242959 7
-54.627129 -114.94033 4.6610618 8.0872498
-54.62072 -114.67728 4.7056613 8.0534
-54.574188 -114.91599 4.9246922 8.0880003
-54.600994 -114.70663 4.897799 7.9731779
-54.502697 -94.486427 5.4264183 6
-54.57655 -114.99352 6.5920496 9.0293341
-54.775043 -112.32243 7.1021185 9.0885
-54.473633 -111.79769 7.1191645 9.0885
-54.696499 -106.68853 7.1872067 9.1134996
-54.64415 -112.05021 7.3626113 9.1490002
-54.749985 -111.73656 7.7459292 10.09925
-54.621418 -112.12254 8.2540884 8.722167
-54.551838 -111.78591 8.1156988 10.087749
-54.550972 -106.98853 8.5076962 11
-54.411003 -114.58437 8.8118401 10.0885
-54.780277 -113.79417 8.9770479 10.0885
-54.511391 -113.58845 9.1677713 10.089
-54.587879 -113.7408 9.2388868 10.089
-54.774433 -111.71561 9.5936422 10.0885
-54.797329 -107.37353 9.4112291 10.09
-54.541988 -107.08899 9.4104757 10.387667
-54.548698 -114.30308 9.6971045 10.088
-54.597923 -107.37798 9.7980175 11.261437
-54.568596 -107.0122 9.7983952 10.553
-54.557541 -106.6581 9.8147936 10.594999
-54.458447 -106.28764 9.6700516 9.1009998
-54.453308 -114.60595 10.349207 11.088
-54.529095 -114.37168 10.068853 11.087999
-54.418377 -107.87421 10.256279 10.086
-54.588524 -107.40131 10.130054 11.243112
-54.496181 -106.66962 10.381395 9.1615
-54.768047 -106.23593 10.189654 9.1560001
-54.623943 -114.91692 10.519939 11.088
-54.686047 -107.47918 10.478869 11.772
-54.487675 -107.09206 10.723038 12.0875
-54.483368 -106.47696 10.557954 9
-54.675392 -106.29709 10.594735 9
-54.675835 -107.70651 10.898876 11.0885
-54.64003 -107.57867 11.098734 10.708835
-54.435379 -107.04562 11.062171 12
-54.706112 -112.19012 11.390748 9.1665001
-54.727318 -108.40707 11.246961 9
-54.614391 -107.7653 11.445301 12.615357
-54.56884 -107.48758 11.394957 11.664813
-54.477966 -106.12814 11.445143 10.07075
-54.639721 -105.82531 11.512542 10.150625
-54.798244 -109.63224 11.717158 10.129499
-54.586781 -107.72462 11.876017 12.0179
-54.662292 -107.36884 11.748618 11.57625
-54.600113 -107.09154 11.744792 10.100666
-54.489475 -106.36263 11.757287 10.158
-54.617073 -105.85235 11.814695 10.159333
-54.716969 -108.15089 12.356151 12.0885
-54.615185 -107.78568 12.174415 13.029167
-54.670959 -107.57851 12.054955 13
-54.730385 -106.93025 12.172498 10
-54.645081 -106.75635 12.235293 10.040375
-54.591019 -105.70674 12.234183 10.08175
-54.673931 -105.53789 12.158662 10
-54.57188 -109.21828 12.719674 14.126
-54.579281 -107.95424 12.533511 13.0875
-54.649006 -107.37179 12.535231 12.718501
-54.596725 -106.99174 12.543667 11.527688
-54.623718 -106.78037 12.574546 14.06875
-54.571659 -105.81245 12.666798 11.13225
-54.713032 -105.57606 12.760018 11.144
-54.793213 -112.02567 12.93264 10.164
-54.554367 -109.83112 12.96178 12.117167
-54.457523 -107.80841 13.100015 10
-54.630974 -107.4036 12.991746 12.446
-54.622265 -106.96503 12.973676 11.4615
-54.584724 -106.7465 12.918105 11.614751
-54.551991 -106.11266 12.868263 11
-54.7169 -109.54986 13.326303 11.06475
-54.740662 -107.76469 13.33536 11.58375
-54.572624 -107.20885 13.202345 13
-54.55162 -106.99725 13.497756 12
-54.704735 -106.6186 13.327025 12.552
-54.79108 -110.58648 13.636374 14.109
-54.675854 -107.25214 13.675521 14
-54.419563 -106.94061 13.822507 11
-54.553226 -106.2654 13.845924 11
-54.561096 -110.25864 14.242156 13.587999
-54.567783 -109.44123 14.155117 15.126
-54.643906 -107.11454 14.128779 11
-54.57803 -106.67007 14.28857 11.713
-54.543709 -106.18972 14.215896 11.567125
-54.547619 -105.88614 14.365364 12.147
-54.49052 -108.80747 14.755838 12.06625
-54.685471 -106.22285 14.576856 11.5835
-54.720268 -105.90772 14.524986 12.152
-54.773254 -107.5993 15.038164 11.1675
-54.421474 -107.13845 15.07056 12
-54.671177 -107.26646 15.441705 12
-54.68449 -106.37875 15.590573 12
-54.531212 -109.90626 15.92419 11.169
-54.755787 -107.75918 15.782214 13.126
-54.58223 -107.46053 15.809896 12.4326
-54.461811 -107.01009 15.771706 12.582
-54.548515 -106.55951 15.740499 12.756001
-54.551937 -106.3637 15.778111 12.57225
-54.619606 -109.08007 16.282665 13.13525
-54.537098 -107.66778 16.02758 13.1395
-54.628666 -107.29906 16.008013 13
-54.612476 -106.53001 16.043777 12
-54.591541 -106.35411 16.108536 12
-54.535679 -107.06509 16.571922 13.1565
-54.471176 -106.11736 16.455875 13.158
-54.426334 -106.82536 16.815176 13
-54.642387 -107.77493 17.424374 12.665501
-54.684486 -107.30338 17.475355 14
-54.554291 -107.12747 17.424957 14.0425
-54.652576 -107.90396 17.758097 13.055
-54.551254 -106.87233 17.891319 13.769
-54.654961 -106.6505 17.809851 12.773999
-54.430435 -109.01446 18.380329 13.166
-54.579594 -108.15093 18.14583 14.151166
-54.727669 -107.34989 18.344353 12.664
-54.7813 -109.16101 18.555679 13.1665
-54.543369 -107.75025 18.544966 14.1585
-54.674156 -106.96711 18.771471 14.1615
-54.609711 -107.29568 19.018915 14.574875
-54.576344 -107.09203 18.99239 14.234929
-54.396786 -114.76363 1.7958159 8.0860004
-54.188805 -90.441216 3.8038168 8
-54.077557 -90.267929 4.2312565 8.0500002
-54.236736 -114.91444 4.6317163 8.0951662
-54.328831 -114.73805 4.713407 8.0896254
-54.08886 -113.31905 4.4052234 8.1324997
-54.2024 -90.230042 4.5550165 9.0760622
-54.148628 -114.70162 4.8827963 8.0589447
-54.07568 -90.307205 4.9588475 9.3921671
-54.155342 -114.87659 5.4221511 8.1094999
-54.147415 -114.99069 6.588757 9
-54.176102 -113.37942 6.679193 9.0885
-54.046284 -93.114868 6.4544163 7
-54.228901 -92.740524 6.5018544 7
-54.135048 -113.53951 6.8158274 9.1094999
-54.139942 -112.94569 6.9192991 9.0889997
-54.219151 -111.83955 7.1091399 9.0892506
-54.259724 -111.78563 7.3190303 9.0904999
-54.062386 -92.87532 7.5006828 8.1379995
-54.154369 -92.775253 7.5116634 8.1467495
-54.146214 -112.15008 7.8211279 10.0945
-54.037281 -111.93884 7.822361 10.096499
-54.032784 -93.179771 7.9608645 8.1669998
-54.194851 -112.21152 8.1570301 10.09875
-54.107178 -114.43823 8.6772032 10.0885
-54.002899 -92.718422 8.4905233 9.1370001
-54.260036 -107.08388 9.082531 10.088249
-54.035713 -114.99683 9.2872953 10.089
-54.239265 -113.25774 9.5555754 11.0945
-54.109322 -111.77618 9.5116978 11.1095
-54.028065 -110.86828 9.3603172 11.09
-54.338562 -107.21062 9.4028225 11
-54.258915 -107.02251 9.3978519 10.123751
-54.143124 -106.72861 9.2910347 10.16025
-54.364876 -114.42427 9.7206583 10.0885
-54.162144 -114.09713 9.6465588 11.1015
-54.22216 -107.62714 9.9651632 12
-54.232353 -107.26904 9.886425 12
-54.167805 -106.98826 9.7437782 10.096001
-54.169365 -106.58291 9.7456007 10.094666
-54.055092 -108.16012 10.061934 12
-54.225929 -107.33247 10.108127 12
-54.194508 -107.1535 10.385046 11.089
-54.125854 -106.48223 10.243256 10.445333
-54.361843 -107.22723 10.472511 11.089
-54.166145 -107.03449 10.64202 9.8236246
-54.234379 -106.55908 10.678775 9
-54.363449 -106.29185 10.561838 9
-54.113544 -108.25663 11.128119 11.0885
-54.131317 -107.68771 11.135375 9
-54.051811 -107.53838 11.194279 9
-54.16526 -107.17229 10.951939 12.088
-54.29118 -106.47586 10.951744 13.1175
-54.088905 -108.32934 11.222521 11.088
-54.160698 -107.64238 11.366125 11
-54.208645 -107.53589 11.424726 11.7875
-54.004425 -106.44698 11.264345 12.0885
-54.311687 -106.26398 11.405212 10.1385
-54.160618 -109.13142 11.953404 10.151667
-54.228008 -107.76037 11.784375 11.835501
-54.175442 -106.99431 11.862943 11.54425
-54.220894 -109.12732 12.141471 10.159
-54.200706 -107.29351 12.300783 12.06675
-54.168324 -107.07278 12.231387 10.702499
-54.366062 -105.95191 12.356407 10
-54.22971 -109.2748 12.510434 11.0905
-54.204201 -108.72784 12.421276 13.0875
-54.233524 -107.40922 12.618467 12.3965
-54.231983 -107.10886 12.579316 12.305071
-54.250729 -106.27204 12.485037 11.1255
-54.246914 -109.79575 12.909153 14.13
-54.186752 -109.36436 12.982579 12.8475
-54.299053 -109.08225 12.957445 14.1175
-54.045185 -108.4314 13.090149 11
-54.179016 -108.14745 13.099257 10.75
-54.131359 -107.63223 12.85552 11
-54.193356 -107.49131 12.93964 11.015499
-54.247787 -107.08898 12.827967 14
-54.015881 -109.95847 13.360901 14.1015
-54.370426 -109.34933 13.39551 11.0885
-54.072083 -109.17219 13.229188 14.1095
-54.135025 -107.97269 13.202168 11
-54.193047 -107.42007 13.411482 11.621
-54.328762 -106.94724 13.547072 11
-54.259609 -112.22842 13.738455 10.650249
-54.012444 -111.61784 13.790497 10.1685
-54.097923 -111.16225 13.641541 10.1685
-54.139252 -110.55968 13.743498 14.0945
-54.22578 -110.18639 13.699547 12.0885
-54.181698 -109.65562 13.879143 13.0885
-54.010765 -109.30728 13.680589 13.0885
-54.065079 -107.88274 13.965894 11
-54.239288 -107.08968 13.915024 11.0325
-54.192265 -106.65874 13.993991 11.562
-54.327042 -106.09489 13.919888 11
-54.326698 -110.63311 14.294113 14.0885
-54.273731 -109.47996 14.188573 15.13
-54.199329 -109.17365 14.178543 15.122
-54.056435 -107.79107 14.088593 11
-54.067898 -107.40105 14.151383 12.0835
-54.0495 -107.16735 14.228645 11.56975
-54.222912 -106.21938 14.177709 11.060499
-54.100525 -105.81501 14.182464 12.1445
-54.108002 -108.67568 14.669818 11.75
-54.25264 -106.86971 14.720267 12
-54.162247 -106.29493 14.592831 12
-54.073139 -107.65861 14.991131 11.5
-54.103828 -107.45541 14.984082 11.333333
-54.273434 -107.04839 14.962269 11.58375
-54.092453 -107.82767 15.51509 13.123
-54.367737 -107.37381 15.248532 11.584
-54.069862 -106.84735 15.385665 12.104
-54.063557 -108.25156 15.752367 12.5625
-54.111889 -107.70045 15.792925 12.6
-54.151699 -107.33781 15.903952 12.533
-54.30727 -106.96954 15.80659 13.063749
-54.118183 -106.5556 15.855474 12.572374
-54.160435 -107.63295 16.016041 13
-54.010876 -107.14117 16.216991 13.1505
-54.204765 -106.46965 16.165897 13.050834
-54.301029 -106.37921 16.088047 12
-54.246178 -107.22277 16.771023 12.1675
-54.182667 -106.26762 16.560272 13
-54.122555 -106.99049 16.837692 11.5855
-54.004902 -106.40556 16.832367 14.119
-54.261055 -106.26408 17.028809 14.06275
-54.163479 -107.70248 17.594769 13
-54.351547 -109.32557 17.984785 12.169
-54.227718 -107.08652 17.87595 13
-54.257599 -106.74033 17.853535 14
-54.282101 -109.06853 18.127483 13.1655
-54.397751 -107.81261 18.31588 13.167
-54.108551 -108.50063 18.572117 11.1725
-54.208611 -107.96188 18.410431 14.157
-54.259727 -112.17825 19.01992 14.1495
-54.323578 -107.93568 18.932791 11.176
-54.364399 -107.2308 18.83382 15
-53.721939 -114.63245 2.3400536 8.1105003
-53.912914 -90.760025 2.3381364 7
-53.89127 -90.413208 3.555618 8.0882502
-53.877613 -90.332695 3.5568426 8.0705004
-53.905499 -114.56191 3.866935 7
-53.868549 -90.413979 3.8470702 7
-53.890064 -90.385674 3.6088722 8.0874996
-53.671162 -113.34082 4.3050737 8.132
-53.883144 -90.275764 4.3166471 9.0465002
-53.83276 -114.83099 4.6839738 8.0893326
-53.819027 -114.67501 4.606041 8.0760832
-53.693714 -113.32977 4.4767108 8.1274996
-53.863213 -90.290222 4.5265217 9.076375
-53.896648 -114.90327 4.9429893 8.088666
-53.73101 -114.68471 4.8734126 8.0538998
-53.834949 -90.217552 5.0526867 9.8635836
-53.80928 -94.31971 5.3264103 6
-53.860867 -93.030617 5.3251548 6
-53.926071 -90.314217 5.2387204 10.0885
-53.767082 -93.520348 6.2068801 8.0830002
-53.763813 -114.99604 6.5937324 9
-53.759773 -113.27203 6.5967307 9.0885
-53.862041 -93.012604 6.4337935 7
-53.80814 -113.3998 6.9233708 9.0889997
-53.728725 -113.15082 7.0346174 9.0664997
-53.756844 -112.07204 7.1704054 9.0900002
-53.895042 -111.95975 7.0674195 9.0880003
-53.721958 -99.330322 6.8454318 7
-53.722736 -112.04736 7.4584999 9.0915003
-53.937286 -111.88992 7.4443226 9.1148329
-53.982765 -93.100983 7.4797344 8.1230001
-53.705017 -114.96207 7.6347299 9.1440001
-53.658463 -112.02824 7.8832898 8.0404997
-53.7626 -115.26124 8.2135334 8.1079998
-53.886467 -115.12366 8.2702265 8.1094999
-53.922279 -112.00684 8.2602282 8.0384998
-53.84795 -111.94784 8.1630106 10.088166
-53.93663 -92.636803 8.2185268 8.1689997
-53.754467 -115.24547 8.4025745 8.1084995
-53.714188 -110.77503 8.6764555 10.089
-53.606331 -107.49162 8.7760286 10.0885
-53.912746 -92.875916 8.5354223 9.1293335
-53.963551 -92.617859 8.5447855 9.1370001
-53.960163 -110.71743 9.0644474 11.098
-53.693794 -107.32365 9.0290766 11.022
-53.734428 -106.52951 8.9265976 10.088501
-53.64085 -106.35027 9.1663074 10.09
-53.668598 -114.04559 9.2189589 10
-53.807026 -107.00014 9.425663 8.5504999
-53.902107 -106.61422 9.4370098 10.778167
-53.787788 -106.36422 9.4461832 10.1245
-53.623417 -107.31434 9.7207003 9.1049995
-53.70562 -106.87267 9.6580038 9.1049995
-53.984676 -106.67193 9.9068727 12.1095
-53.766766 -106.22301 9.6971693 12.102999
-53.669853 -114.20379 10.091147 11.088
-53.871891 -107.61654 10.329578 10.107
-53.967674 -107.27061 10.031896 12
-53.613361 -106.86967 10.15238 10.0985
-53.830605 -106.57561 10.208978 10.9028
-53.754036 -106.36743 10.311439 12
-53.78067 -107.38494 10.77393 9.0555
-53.917789 -107.01534 10.600461 9
