# .PCD v0.7 - Point Cloud Data file format
VERSION 0.7
FIELDS x y z intensity
SIZE 4 4 4 4
TYPE F F F F
COUNT 1 1 1 1
WIDTH 1275
HEIGHT 1
VIEWPOINT 0 0 0 1 0 0 0
POINTS 1275
DATA ascii
-65.835739 -82.608437 1.5860091 2.5
-65.739487 -82.100571 1.5641406 1
-65.770035 -81.809044 1.5590864 0.5
-65.823471 -81.410072 1.5575004 0.33333334
-65.757484 -81.006645 1.521274 2
-65.669151 -80.579552 1.5359771 2.3333333
-65.90596 -80.197769 1.5497391 4
-65.810631 -79.755516 1.4785845 5
-65.870239 -79.496254 1.3622251 5
-65.748093 -78.615555 1.2868201 1.5
-65.868706 -78.193359 1.2672907 3.3333333
-65.906143 -77.832619 1.2534982 3
-65.89399 -77.405296 1.2122722 4.5
-65.673622 -77.003609 1.200266 5
-65.628685 -76.171577 1.2351434 3
-65.731163 -75.95182 1.2391276 3
-65.863228 -75.484535 1.2155163 3
-65.754395 -72.825584 1.2062223 2
-65.778801 -87.557625 1.7308439 3
-65.808167 -86.928406 1.7310307 3
-65.723648 -85.290268 1.6538613 2
-65.794052 -84.892395 1.6649356 2
-65.600754 -84.604515 1.6555334 2
-65.766006 -84.156952 1.6326903 2
-65.961868 -83.694771 1.682763 2
-65.994781 -83.503006 1.7184447 3
-65.812454 -83.028976 1.6393182 1.1428572
-65.978729 -82.503365 1.6839471 1.5
-65.984978 -81.709389 1.6044691 1
-65.75132 -80.020203 1.9321513 1
-65.635201 -79.972954 1.8974206 0.5
-65.789101 -87.864731 2.1274211 4
-65.755333 -80.025085 2.2441807 3.3333335
-65.663536 -79.972359 2.2775691 3.3333333
-65.737236 -87.865295 2.589834 5
-65.842995 -80.058609 2.5890858 4.431746
-65.758919 -79.984436 2.5870621 3.95
-65.85144 -87.865814 3.0473068 6
-65.845757 -80.054306 3.0162599 6.4961538
-65.792923 -79.957642 3.0543919 6.8464632
-65.862442 -87.787613 3.519119 7
-65.877556 -84.492615 3.3415356 7
-65.771919 -83.808441 3.3653426 7.2693748
-65.861351 -80.049095 3.4189219 8.25
-65.759834 -79.947662 3.4505179 8.3049469
-65.708931 -87.74411 3.9507618 8.0434999
-65.885101 -83.904358 3.641623 8.1265001
-65.688568 -80.042534 3.72668 9.0177498
-65.749519 -79.935074 3.7993851 9.8097029
-65.736961 -80.188065 4.1520967 10.319167
-65.716949 -79.863922 4.1228809 11.453851
-65.750298 -87.940948 4.4315352 9
-65.926392 -83.795525 5.149312 12.1495
-65.7882 -75.832298 5.1675191 7
-65.678894 -75.447189 5.1239829 7
-65.892189 -60.269657 5.0609612 8.0655003
-65.957565 -77.792709 5.3256741 7
-65.769119 -77.3162 5.2505531 7
-65.727013 -77.092117 5.2824707 7
-65.646515 -60.418991 5.4222178 8.0799999
-65.72937 -60.219734 5.5710425 8.0949993
-65.90136 -82.333389 5.728066 7
-65.93441 -81.768021 5.7399926 7
-65.825706 -60.205551 5.754385 8.0739994
-65.901863 -84.947472 6.3798285 7
-65.819305 -60.002922 6.7668371 9.1265001
-65.825005 -88.285576 6.9579434 8.0950003
-65.807686 -80.794312 7.3099809 8.1525002
-65.730812 -83.821129 7.9671388 8.1615
-65.804131 -60.224987 7.9378147 9.0397501
-65.802872 -66.175591 8.2922096 14.010833
-65.765457 -64.991417 8.3703318 13.507
-65.90564 -60.123257 8.187726 10.371833
-65.914825 -89.261032 8.7282925 9.0959997
-65.922035 -84.275421 8.5008488 8.1689997
-65.694138 -66.1577 8.6008625 14.010334
-65.633003 -88.965645 9.1398306 9.0760002
-65.87648 -66.142265 9.0496845 15.01125
-65.776649 -60.075645 9.9390841 10
-65.983322 -87.994858 10.361704 9.1630001
-65.7537 -66.087364 10.304969 13.0035
-65.992142 -88.412552 10.679451 10.0945
-65.816208 -88.28154 10.771783 9.165
-65.856529 -88.684662 10.988085 10.094
-65.936356 -66.11985 11.679279 14.0035
-65.673897 -65.604858 11.961698 13
-65.818085 -66.536873 12.173001 13.143
-65.811165 -66.366417 12.236104 12.64975
-65.707054 -65.442619 12.15798 12.64925
-65.744759 -66.552711 13.131222 14.1265
-65.91449 -66.650543 14.670878 12.083
-65.89978 -66.644386 15.559999 13.083
-65.889771 -66.432388 15.831768 14.0935
-65.317963 -66.661888 0.72590894 6
-65.485435 -66.372726 0.78782028 5
-65.433701 -65.371773 0.76373595 5.1999998
-65.417717 -64.705467 0.72722489 5
-65.291153 -63.761204 0.75387543 5
-65.482346 -63.489056 0.76162618 4.5
-65.215309 -62.891613 0.73667437 5
-65.522476 -62.782238 0.74181074 5
-65.421661 -61.812016 0.68073392 5.3333335
-65.439659 -61.266418 0.77039886 5
-65.538971 -60.924404 0.71944702 5
-65.486565 -60.533253 0.61171782 5.1999998
-65.331985 -60.186089 0.59311885 5
-65.289948 -77.914062 1.1419926 6
-65.260925 -77.328865 1.1630899 4
-65.38195 -76.902977 1.1572114 4
-65.406395 -76.640465 1.1603805 4.8000002
-65.556175 -76.391693 1.1758862 6
-65.53186 -75.957787 1.1592594 2.5
-65.360016 -75.386208 1.159971 2.3333333
-65.269417 -75.132965 1.1832459 2
-65.328224 -74.618202 1.1278448 1.7142857
-65.361763 -74.217796 1.1049687 2.375
-65.402351 -73.848953 1.0575472 2
-65.482727 -73.430458 1.0559111 1.5555556
-65.33535 -72.965851 1.1413562 3
-65.418556 -72.670425 1.1363019 3.1428571
-65.454453 -72.257195 1.1063902 3.5
-65.423996 -71.838478 1.1002107 2.8571429
-65.312805 -71.473953 1.1158677 2.8
-65.366402 -71.046173 1.0611433 3.375
-65.41964 -70.618973 1.0236624 3.6666667
-65.326866 -70.313858 1.006853 4
-65.557816 -69.754723 0.99873793 4.5
-65.428665 -69.406349 1.0328276 2.5
-65.402237 -68.956238 1.0132036 1.875
-65.27578 -68.652573 0.99370551 2.3333333
-65.391235 -68.140526 0.96351409 3
-65.335983 -67.750603 0.94258833 3.2857144
-65.401627 -67.392723 0.92212301 3.25
-65.438011 -67.058838 0.94439065 3
-65.427155 -66.650909 0.89240313 4.3333335
-65.37117 -66.224792 0.95558351 3.4166667
-65.389359 -65.83046 0.88462406 4
-65.260994 -65.350433 0.89083558 4
-65.376602 -64.909798 0.899912 4
-65.272652 -64.68293 0.85703969 4
-65.396156 -64.170647 0.84119093 4
-65.430992 -63.814266 0.82759845 4
-65.432083 -83.370346 1.5806323 1
-65.412277 -83.031166 1.5863191 1.5
-65.376236 -82.690483 1.560706 1
-65.459396 -82.275124 1.5618623 1
-65.383369 -81.802063 1.5611455 0.66666669
-65.316895 -81.301422 1.5446726 1.6666666
-65.401642 -81.064903 1.5230451 2
-65.345924 -80.150955 1.4670255 6
-65.429741 -79.640335 1.4399309 6
-65.404739 -79.407326 1.437979 3
-65.311874 -79.018677 1.307907 1.3333334
-65.298218 -78.622604 1.2594769 4
-65.558418 -78.324745 1.2371662 5.5
-65.256729 -77.765587 1.2246257 5
-65.400368 -77.427567 1.2394623 4.3333335
-65.409531 -77.145584 1.2806721 3
-65.344307 -76.684784 1.2374095 1.25
-65.39241 -76.157494 1.2102011 0.5
-65.259369 -75.730888 1.2074287 1
-65.274658 -72.960548 1.2056239 0
-65.360779 -72.68499 1.2409207 3
-65.337463 -87.636459 1.7184674 3
-65.49144 -86.938576 1.7321091 3
-65.426857 -85.285408 1.6310443 2
-65.346977 -84.872566 1.676109 2
-65.243202 -84.484085 1.6781795 2
-65.418793 -84.194069 1.6907934 2
-65.378288 -83.908577 1.7071633 2
-65.380013 -83.393112 1.60097 2
-65.291779 -82.995285 1.6265612 1.5
-65.214973 -82.456886 1.6016917 1
-65.402054 -81.798584 1.6706975 4
-65.373718 -80.066597 1.8198514 5
-65.593987 -79.939217 1.8854777 1
-65.302765 -87.788277 2.1267438 4
-65.361542 -80.030312 2.2944503 6
-65.373268 -87.836632 2.5840664 5
-65.398392 -80.027512 2.766808 7
-65.595436 -79.94593 2.6223772 4.5
-65.481674 -87.841461 3.0370328 6
-65.545403 -84.429581 3.0207798 6
-65.434784 -87.830605 3.4959762 7
-65.547234 -83.820976 3.3271961 7
-65.508675 -80.054596 3.2445037 8
-65.383339 -87.73188 3.948029 8
-65.519737 -80.033958 3.7229705 9
-65.585098 -79.905922 3.8800728 10.75
-65.208931 -82.392273 4.0448937 8.1715002
-65.252945 -81.985603 4.0291548 8.1715002
-65.552139 -79.806778 4.1626601 12.28125
-65.304482 -73.994865 4.7925029 7
-65.458153 -78.687279 5.1989875 7
-65.406425 -77.923607 5.1609478 7
-65.297012 -77.15712 5.1224856 7
-65.391937 -76.439217 5.1370125 7
-65.53376 -75.440201 5.0740423 7
-65.5009 -74.1222 4.8866105 7
-65.397697 -67.770844 4.8382964 7
-65.433632 -76.717857 5.2300773 7
-65.271393 -88.298927 6.9573727 8.0952492
-65.593811 -60.046104 6.8680992 9.1120005
-65.471924 -60.133575 7.5093064 9.0804996
-65.453125 -84.421074 7.9630737 8.1619997
-65.344627 -84.227905 7.9761143 8.1619997
-65.494255 -83.766563 7.8585091 8.1619997
-65.544952 -84.652031 8.0764647 8.1619997
-65.325256 -83.808617 8.0602827 8.1619997
-65.353279 -66.299797 8.3104248 11.012
-65.398636 -65.307129 8.2992907 11
-65.562729 -65.175255 8.3698416 12
-65.396797 -60.044441 8.0220041 9
-65.475471 -66.212746 8.7110319 12.00375
-65.445847 -65.222725 8.4008293 12.006
-65.470688 -65.003586 8.43402 14.512751
-65.510048 -60.418198 8.4887991 14.0165
-65.406128 -66.152451 9.0326738 13.6755
-65.511787 -66.196854 9.2163658 13.0065
-65.300781 -60.064392 9.8930426 10
-65.469055 -60.237385 10.231896 10
-65.503181 -60.006638 10.495795 10.0745
-65.368629 -66.181808 11.618606 13.012
-65.220329 -65.962646 11.726134 15.0065
-65.380348 -66.897827 12.181603 13
-65.375 -66.670502 12.152973 13.048
-65.236443 -66.315674 12.266068 12.1545
-65.243942 -62.053005 12.041766 13.147
-65.364143 -66.06118 15.006049 15.012
-65.599724 -66.149986 18.380949 15.0885
-65.50898 -66.280121 18.752108 15.086
-65.266403 -66.36631 18.885672 15.084
-65.502487 -65.597954 23.243061 15
-64.876678 -60.161095 0.38052347 6
-64.815331 -67.865646 0.72607768 5
-65.091415 -66.515373 0.76021028 6
-65.054817 -65.849953 0.78588206 5
-64.924515 -64.894554 0.75457114 5
-64.958954 -64.78508 0.66734451 5
-65.006004 -63.918472 0.7532872 5
-64.857384 -62.94957 0.72105008 5
-64.917587 -61.905525 0.70420665 5
-65.033089 -60.947624 0.72868437 5
-65.068283 -60.582401 0.62089056 5.25
-65.09935 -60.129128 0.61541772 5
-64.846931 -78.810547 1.1812081 4
-64.981972 -78.325691 1.1597462 5
-65.08802 -77.799194 1.1840929 4
-64.90786 -76.864128 1.1735783 5.5
-64.974686 -75.934296 1.1602243 2.5
-65.073837 -75.47316 1.1447634 2.6666667
-65.047066 -75.003044 1.1639509 2.3333333
-65.110413 -74.683586 1.1195892 3
-65.089813 -74.028809 1.0303613 5
-64.808365 -73.402939 0.95054388 4
-64.944244 -73.000862 1.1003467 2.6666667
-65.044838 -72.69632 1.0934242 4.6666665
-64.920914 -71.782829 1.100605 3
-64.987167 -71.413551 1.0846426 3.2
-64.984528 -71.04705 1.035763 4.4000001
-65.136467 -70.573967 1.0625656 3.5
-64.950996 -70.098824 1.0576062 3
-65.050179 -69.821579 1.0050933 3.5999999
-64.958702 -69.297523 0.99438304 1.8333334
-64.99852 -69.04232 0.97852618 2.75
-64.936295 -68.596184 0.97354758 2.6363637
-64.987305 -68.23465 0.92946875 3.1666667
-65.013489 -67.719612 0.91526276 3.3333333
-65.013451 -67.428551 0.94873875 2.8
-64.972916 -66.933823 0.93768317 3.8571429
-64.957275 -66.631195 1.0311482 3.8181818
-64.886955 -66.169044 0.93238503 3.3333333
-65.096611 -65.673637 0.88310146 3.5
-65.022324 -65.429314 0.86191374 4
-64.998405 -65.061501 0.85664684 4
-64.979073 -64.648972 0.87887883 4
-64.988846 -64.130112 0.82504851 4
-65.051048 -63.817307 0.81051677 4
-65.042313 -63.578423 0.8141008 4
-65.022415 -83.223541 1.580253 1
-65.077484 -82.962257 1.5721821 1.4
-64.959686 -82.441978 1.5972842 1.5
-64.957291 -81.785255 1.5720831 1.5
-64.998276 -81.428513 1.5460294 2.1428571
-65.045273 -81.104126 1.5198632 1
-64.990623 -80.614822 1.4640728 3.3333333
-64.943909 -80.148514 1.4347751 4.6666665
-65.030952 -79.827744 1.4573832 4.3333335
-64.99456 -79.403191 1.3862827 4.25
-65.113205 -79.194893 1.2813809 5
-64.926247 -78.512215 1.2761891 4
-65.087593 -78.113823 1.2692369 4
-65.014236 -77.804764 1.2695894 2.1428571
-64.894356 -77.303001 1.2430269 2
-65.028 -77.003716 1.2344656 2.1666667
-64.968201 -76.670525 1.2335272 1.25
-65.074417 -76.291527 1.220574 1.6
-65.049873 -75.892937 1.2125816 2
-65.17717 -75.523003 1.2031635 2
-64.807747 -66.702606 1.237924 6
-65.01194 -87.549355 1.7215335 3
-64.837921 -87.136299 1.7635595 3
-65.065598 -84.909111 1.6693239 2
-65.075417 -84.452454 1.7010795 2
-65.061508 -84.069305 1.774074 2
-65.031052 -83.719872 1.8159409 2.75
-64.932205 -83.288834 1.9872241 5
-64.896317 -82.995689 1.9224472 5
-64.933243 -82.669548 1.8475702 3.5
-64.900581 -82.237724 1.6909379 1.75
-64.950912 -81.85363 1.6668795 2.25
-64.902451 -66.708458 1.9144254 6
-65.078308 -66.288528 1.6666501 7
-64.817902 -83.822037 2.0202916 5
-64.969467 -83.44368 2.0192189 4.5
-64.861122 -81.913261 2.2996447 5.8000002
-64.86071 -87.778557 2.6006522 5
-64.901573 -84.240898 2.6362131 6
-64.927818 -83.32029 2.6233392 6
-64.940529 -83.00631 2.6168664 6
-64.950111 -82.627327 2.6082201 5.75
-64.980003 -82.144096 2.5455923 5.5
-64.953575 -81.898796 2.6104133 6.0625
-64.989922 -87.780464 3.0523319 6
-64.838112 -82.204346 3.0274148 6.5555553
-64.920128 -81.823097 3.0630298 7.3697944
-65.075279 -87.778511 3.5163243 7
-64.804459 -86.121498 3.3683989 7
-64.817337 -83.645134 3.3599226 7
-64.942604 -83.311287 3.2321091 7
-64.962486 -83.06456 3.2925107 7
-64.980057 -82.527214 3.2771885 7
-64.853477 -82.118179 3.5353158 8.1389999
-64.92205 -81.787498 3.3624034 8.0167694
-64.882088 -87.726601 3.9488256 8
-64.852379 -86.035736 3.8148129 8.1330004
-64.85466 -83.341484 3.8253658 8
-64.910789 -83.013321 3.8493619 8.0541668
-65.041359 -82.521339 3.8444076 8.3894997
-64.873482 -82.282898 3.6972339 8.7096663
-64.947609 -81.759506 3.8180656 9.1255713
-64.874626 -85.709702 4.2257257 8.1660004
-64.851807 -85.553635 4.2916231 8.1669998
-64.877022 -85.033928 4.2155952 8.1672497
-64.90303 -84.613663 4.0183353 8.1665001
-64.888756 -83.004852 4.1528254 8.2922869
-64.96653 -82.56385 4.1708336 8.2830839
-64.962189 -82.151024 4.2323594 9.7580881
-64.94088 -81.835373 4.2105732 9.7369699
-64.835152 -85.681915 4.5503511 10.133
-64.827354 -85.039719 4.5807462 9.1619997
-64.893776 -84.559715 4.6271548 9.1653328
-64.879852 -84.092941 4.7868366 11.1445
-64.871201 -83.774353 4.723743 10.487
-64.984985 -83.372803 4.6946211 10.559501
-64.959778 -83.021416 4.5808115 10.233767
-65.008492 -82.651939 4.5769868 9.8523569
-64.99353 -82.1623 4.5270247 11.141038
-64.977196 -81.809181 4.5804086 11.108253
-64.832207 -86.077072 4.8323674 9.1645002
-64.902946 -85.656311 4.9656162 9.1660004
-64.851379 -85.38401 5.0447936 10.487166
-64.838272 -85.108337 4.979166 9.8275003
-64.81218 -84.51059 4.939754 10.1565
-64.839561 -84.15377 4.9068575 10.357749
-64.842285 -83.730225 4.927 10.492084
-64.890587 -83.431046 4.9830699 10.577499
-64.824265 -83.182327 4.8772602 11
-64.92453 -82.606613 4.9713326 11.765306
-64.914543 -82.198021 4.9671946 11.855536
-64.92382 -81.823631 4.8888893 11.64798
-64.884583 -78.517296 5.1436768 7
-64.977737 -77.736389 5.1888142 7
-65.028282 -76.971413 5.1088333 7
-64.983772 -76.200935 5.0701556 7
-65.170883 -78.477188 5.2257752 7
-65.063164 -60.174892 5.7702932 8.0589008
-64.81649 -88.077782 6.776329 8.0924997
-65.112457 -87.363625 6.6567683 8.0889997
-64.98349 -87.158089 6.4443603 8.0865002
-65.083069 -86.050743 6.6109138 7
-65.154999 -80.48761 7.1471057 8.1455002
-64.974754 -80.604408 7.2878308 8.1520004
-64.994171 -89.859596 7.7582407 13.6045
-65.034691 -83.462776 7.8553977 8.1615
-65.012459 -60.13839 7.9259448 9.04
-64.802078 -89.921333 8.0597706 13.0805
-64.822243 -66.001289 8.1783504 15.0125
-64.890038 -65.961281 8.3095951 15.072
-64.929672 -64.955666 8.2281532 11.008
-64.939247 -60.660114 8.3196831 11.015
-65.151779 -66.507378 8.5461178 11.016
-64.946304 -66.161858 8.5372572 13.675667
-64.933823 -65.11425 8.4838028 13.5105
-64.877693 -60.593094 8.619565 13.013
-64.95192 -66.138939 8.9923267 14.005625
-64.8647 -64.782936 8.9694948 10.0605
-65.172729 -89.6045 9.9414701 13.079
-64.823303 -60.035263 9.8466282 10
-64.923279 -89.90641 10.238128 14.106
-64.894402 -89.45652 10.096045 13.4115
-65.022957 -65.955208 10.255819 15
-65.112976 -61.735191 10.587256 10.074
-65.071236 -60.403404 10.551978 10.0735
-64.956078 -89.849434 11.048584 13.373751
-65.027992 -89.752357 11.304412 14.106999
-65.194542 -66.383331 11.973523 13.016
-64.92617 -65.913879 11.624714 14
-64.866112 -60.044979 11.969552 13.1095
-64.82814 -66.631393 12.38525 11
-64.9058 -66.193283 12.268661 12.50175
-65.021233 -63.981239 12.033484 11.081
-64.999603 -63.581696 12.389363 13.107
-65.036964 -62.961079 12.252364 12.445499
-65.055466 -62.432465 12.241467 13.149
-65.070938 -61.816208 12.225336 13.14925
-64.907722 -66.84819 12.53464 11
-64.909042 -66.60746 12.507257 11
-64.944099 -66.230446 12.486979 11
-64.910896 -65.902992 12.733257 14.568251
-64.914314 -65.17466 12.788486 14.1345
-64.931854 -64.647507 12.726003 14.044666
-64.949532 -64.22641 12.699286 14.044499
-64.958717 -63.885342 12.577515 13.4808
-64.955002 -63.444576 12.617595 13.825687
-64.996994 -62.987572 12.607691 13.850278
-65.002533 -62.562584 12.587178 13.706375
-65.000015 -62.252811 12.578208 13.909643
-64.993767 -61.814468 12.570222 13.887409
-65.018906 -61.389145 12.532269 14.0136
-65.078117 -61.083645 12.513308 14.086833
-64.826576 -66.596092 13.160988 11
-64.933456 -66.222046 13.020806 11
-64.954163 -65.809021 13.082267 11
-64.904274 -64.349556 12.811109 14.1245
-64.881493 -66.834938 13.314065 14
-64.876251 -66.583847 13.406913 11
-64.895355 -66.27829 13.335146 11
-64.930138 -65.924629 13.256058 11
-64.952995 -65.529114 13.250481 11
-64.988899 -66.80172 13.630479 11.09
-64.997253 -66.718987 13.89732 12.0825
-64.873749 -66.385262 13.899872 12
-64.849831 -66.050842 14.365926 15.1195
-64.817787 -65.481331 14.358089 12
-64.916374 -66.727142 14.693701 12.75
-64.953224 -66.135384 14.60601 13.041
-64.908363 -65.889 14.603521 11.54175
-65.136017 -66.70089 14.890008 12
-64.830513 -66.001213 14.805597 12
-64.912407 -66.12188 15.410636 12
-64.835571 -65.969711 15.586932 14.093
-64.978134 -66.59903 15.883554 13.0825
-64.874481 -66.046463 15.844284 12
-64.880814 -65.890953 15.746615 12
-64.883835 -65.524345 15.838209 12
-64.816574 -66.469337 16.203949 12
-64.865479 -66.255745 16.161695 12.52275
-64.903625 -65.864281 16.185257 12.033751
-64.969513 -66.563919 16.779097 12.09
-64.844551 -66.017372 17.517607 13
-64.88559 -65.647156 17.524752 13
-64.905762 -65.281075 17.528093 13
-64.995697 -66.100304 17.929491 12.695834
-64.911591 -66.492378 18.255793 14
-64.898201 -65.845261 18.181721 12.6945
-64.854965 -66.48291 18.593029 14
-64.806313 -66.140038 18.663454 13
-64.832458 -65.917274 18.455795 13
-64.838058 -66.191452 18.875969 13
-64.859917 -65.792015 18.948557 13
-64.825928 -66.483727 19.348299 14
-64.952164 -66.421127 19.849119 13.09
-64.862885 -65.746223 19.954683 14
-64.869576 -65.263641 19.959383 14
-64.898109 -66.616852 20.078049 13.0895
-64.872147 -65.845482 20.264727 14
-64.835419 -65.332527 20.260571 14.04
-64.854622 -65.126221 20.185862 14
-64.974777 -66.308716 20.789654 15
-64.957031 -65.842033 20.608082 14
-64.82885 -65.765221 21.11025 14
-64.840233 -66.098999 21.559872 14
-64.814529 -66.1903 21.77667 15
-64.842422 -65.682198 21.860258 14
-64.973679 -65.481865 21.729488 13.0835
-64.805214 -65.723869 22.548712 15
-64.845955 -65.361343 22.429094 15
-64.825775 -65.817795 22.881863 15
-64.889183 -66.387245 23.393465 14.0895
-64.822083 -65.611725 23.808325 15
-64.814857 -65.931404 24.325874 15
-64.899696 -65.787453 24.599329 15
-64.897377 -65.448372 24.616114 15
-64.920982 -65.19973 24.685186 15
-65.04171 -65.764587 24.875254 14.0875
-65.064934 -65.582748 25.248806 14.082
-64.880547 -65.909172 25.844433 15.0895
-64.905769 -66.168121 26.766092 15.0895
-65.062927 -65.352745 28.902679 15.082
-64.655861 -68.204636 0.74698836 5
-64.780777 -67.097649 0.7832011 6
-64.495888 -66.163231 0.79299521 5
-64.509209 -65.352425 0.7748571 5
-64.673935 -65.123047 0.73689944 5
-64.701889 -64.074097 0.75061655 5
-64.627251 -63.782719 0.72731304 5
-64.564796 -63.212818 0.73775882 4
-64.57486 -63.106441 0.72275966 5
-64.585312 -61.979328 0.69424021 5
-64.67347 -60.672672 0.60360277 5.25
-64.650208 -60.138332 0.58042866 5.25
-64.732109 -79.175644 1.1862948 4
-64.641121 -78.732048 1.1508961 6
-64.48716 -77.656998 1.1764129 5
-64.595909 -77.307838 1.183659 5.5
-64.799538 -77.082649 1.1631296 5
-64.603584 -76.281174 1.1411233 5
-64.666679 -75.369324 1.0707343 5.5
-64.448563 -75.162422 1.1593324 0
-64.54303 -74.52417 1.0646312 5
-64.541504 -74.137939 1.0524743 3.5
-64.613281 -73.705673 1.0235653 3
-64.582481 -73.375099 1.0262423 1.6
-64.66169 -72.994583 1.1004735 2.1666667
-64.564705 -72.509819 1.1304563 2.8
-64.638054 -72.211395 1.1185668 2.5
-64.565453 -71.810364 1.1094564 2
-64.479263 -71.357697 1.1125374 2.25
-64.402367 -70.880081 1.0707829 3
-64.507988 -70.207916 0.9939785 3.3333333
-64.646088 -69.870613 0.94959503 4.25
-64.597122 -69.372253 0.9634183 3.4000001
-64.648102 -68.963814 0.9539988 2.5
-64.573021 -68.58831 0.96536529 2.3333333
-64.605667 -68.171974 0.95035303 2.5555556
-64.614685 -67.780151 0.92367268 3.4285715
-64.588646 -67.401527 0.92534572 2.8
-64.596153 -67.056503 0.96906936 3.4545455
-64.748581 -66.727806 1.0472522 4.0999999
-64.596352 -66.165337 0.96756339 3.4000001
-64.508011 -65.854172 0.90094543 3
-64.583931 -65.465004 0.85297889 4
-64.610222 -64.941666 0.84039116 4
-64.646553 -64.575508 0.86443269 4
-64.587646 -64.141823 0.8343159 4
-64.598579 -63.827496 0.80067289 4
-64.645386 -63.54414 0.8009575 4
-64.558754 -81.731445 1.5379509 3.3333333
-64.60907 -81.322273 1.5213591 0.75
-64.521576 -80.987114 1.4966203 1.8
-64.615578 -80.624947 1.4736732 3.375
-64.720886 -80.204826 1.4937211 3
-64.526329 -79.750603 1.4333184 4
-64.543045 -79.289619 1.3829961 3
-64.711433 -79.016312 1.2872612 3
-64.611687 -78.679611 1.2788805 2
-64.683563 -78.230103 1.2643461 2
-64.611977 -77.779205 1.2424767 3
-64.725647 -77.440521 1.241462 3.3333333
-64.604759 -76.971504 1.2492478 2.5
-64.493179 -76.678238 1.2403717 3
-64.615189 -76.297073 1.2263451 3
-64.723099 -75.910561 1.2122004 3
-64.723068 -66.702667 1.3759658 4.2083335
-64.796112 -85.995499 1.8648114 3
-64.67527 -84.526314 1.7377218 3.3333333
-64.785767 -83.737129 1.8666977 3
-64.626274 -82.074501 1.8194661 2.1071429
-64.586945 -81.941673 1.7737125 3.50525
-64.487381 -81.553352 1.7313079 6.0469999
-64.711609 -66.80703 1.9690164 6
-64.712234 -66.701202 1.7811785 5.623189
-64.779869 -87.872322 2.1427212 4
-64.563599 -85.039955 2.272471 5
-64.471039 -84.009811 2.1738026 5
-64.477036 -83.85199 2.1695783 5
-64.631203 -82.079552 2.1858721 4.7352943
-64.554085 -81.894737 2.2394037 5.102778
-64.710197 -66.626503 2.182946 7
-64.771805 -85.932472 2.6819501 6
-64.662422 -84.597618 2.7135193 5
-64.628525 -84.221817 2.6985853 5.5
-64.43811 -83.903938 2.7575564 6
-64.645844 -83.422119 2.7351439 6
-64.564255 -82.991386 2.4896505 6
-64.64576 -82.069717 2.572082 4.6666665
-64.6064 -81.890694 2.6107457 5.4595747
-64.756653 -87.851868 3.0500264 6
-64.412209 -85.825798 2.8247061 6
-64.616264 -85.333107 2.9572237 6
-64.467735 -85.036293 2.8724911 6
-64.553833 -84.498184 2.9479346 6
-64.628891 -82.063957 3.0927949 6.7199998
-64.60041 -81.859535 3.0848999 7.2161894
-64.785461 -85.602608 3.512248 7
-64.476402 -84.870659 3.389394 7
-64.585373 -84.598846 3.3917215 7
-64.5839 -83.818298 3.3111937 7
-64.669739 -83.465263 3.3221262 7
-64.59771 -81.833893 3.3505921 7.821909
-64.690346 -85.406395 3.9617152 8.1630001
-64.526695 -84.831589 3.9087174 8
-64.70224 -84.594727 3.8401129 8.10425
-64.565239 -84.207329 3.8860328 8.0332508
-64.561302 -83.806679 3.8701148 8
-64.528534 -83.459053 3.8025827 8
-64.578773 -81.762665 3.811996 9.1613636
-64.562653 -81.575157 3.8170638 9
-64.639076 -87.695457 4.1280169 8.1547499
-64.701195 -85.377365 4.2031384 8.1665001
-64.651474 -84.569992 4.082098 8.8257504
-64.562912 -84.337646 4.1648493 9
-64.61142 -83.785942 4.3913813 9
-64.637444 -83.519768 4.1383243 8.5137501
-64.686386 -82.817101 4.1693115 8.1715002
-64.615097 -81.800018 4.2298307 10.282135
-64.648415 -86.091545 4.6553526 9.1619997
-64.734634 -85.969643 4.7741504 9.1634998
-64.698509 -84.589668 4.5852633 10
-64.699455 -84.159431 4.6242218 10.07825
-64.607491 -83.862389 4.5031567 9.5353756
-64.683746 -83.384781 4.5267835 9.7191668
-64.777512 -82.008614 4.77108 12.62325
-64.606705 -81.744316 4.5937195 11.106673
-64.648308 -81.598587 4.7751069 10
-64.740532 -86.342476 4.8056393 9.1630001
-64.749077 -85.840752 4.9595098 9.1657505
-64.749489 -85.393089 5.034811 10.65275
-64.752373 -84.970917 5.0066886 10.528999
-64.677269 -84.612221 4.9978037 9.9693747
-64.682266 -84.158165 5.035646 10.3286
-64.670074 -83.789452 5.0044036 10.822785
-64.690514 -83.45507 4.946435 9.6662502
-64.66555 -82.43483 5.1305752 9.1724997
-64.616539 -82.087936 5.1036458 12.28873
-64.563652 -81.812668 4.9415426 12.413249
-64.783585 -77.743538 5.1053381 7
-64.596069 -86.084366 5.2366323 11.1485
-64.627968 -85.708549 5.2650709 11.1515
-64.662399 -85.277725 5.3234329 11.1545
-64.679482 -85.035767 5.2225156 12.137
-64.569977 -84.098022 5.2537203 12.1485
-64.585426 -83.394173 5.2036533 9.1715002
-64.675346 -82.558052 5.2754264 11.8265
-64.704002 -82.238365 5.2632265 13.395437
-64.404472 -60.305798 5.5858607 8
-64.70533 -60.226818 5.7871027 8.0615005
-64.796265 -85.249924 6.1176109 8.0539999
-64.745338 -81.960472 6.0403337 8.0544996
-64.527473 -60.170849 6.7465396 9.0514994
-64.694313 -80.466454 6.8069906 7
-64.445229 -80.347832 6.8572679 8.1035004
-64.459152 -60.098167 6.9215646 9.1040001
-64.574585 -89.781387 7.8372903 13.410251
-64.556129 -89.288391 7.8423657 13.0755
-64.535789 -89.067673 7.936245 13.766
-64.523415 -60.170574 7.8790894 9.3730841
-64.503143 -89.662163 8.1346722 13.653749
-64.509094 -89.335419 8.1677742 13.093813
-64.50988 -89.074074 8.2102385 13.810499
-64.586189 -66.158363 8.2193174 12.839583
-64.620461 -65.957443 8.225359 13
-64.45459 -89.728065 8.4556313 15.1115
-64.405792 -89.3993 8.598877 13.0815
-64.406174 -88.976997 8.4458361 15.1065
-64.604408 -66.1754 8.5628557 12.673833
-64.514603 -65.687035 8.5930519 11.019
-64.731438 -62.994629 8.7940769 15.015
-64.429527 -61.92664 8.7954683 14.014
-64.442009 -61.30537 8.7309561 15
-64.613686 -61.100773 8.7239523 15
-64.470963 -60.526489 8.4931297 14.01575
-64.51445 -89.46299 9.0671902 13
-64.56852 -66.094582 8.9244709 13.50875
-64.472336 -63.325584 8.8109474 15.0145
-64.562927 -89.722168 9.4552507 12.79025
-64.652992 -89.796776 9.866375 13.605875
-64.612808 -89.415482 9.8412552 11.50725
-64.621391 -89.782349 10.277091 13.0025
-64.512459 -89.410484 10.191325 14.290375
-64.585991 -66.03698 10.27508 13
-64.642014 -89.684914 10.483679 14.1205
-64.760117 -66.368248 10.679476 10
-64.596947 -89.848274 11.033377 12.5415
-64.621246 -89.736015 11.385622 13.6821
-64.411369 -66.110786 11.539276 13.0085
-64.594337 -89.862434 11.667799 14.1665
-64.489594 -66.234413 11.898593 12.58125
-64.79541 -65.869133 11.633044 15.007
-64.534355 -60.566891 11.835319 11
-64.464745 -60.122082 11.814069 11.704
-64.777275 -66.486946 12.07587 13.146
-64.758186 -66.296944 12.209076 12.1545
-64.599373 -65.812752 12.239652 14.056999
-64.492073 -65.338829 12.368164 12.156
-64.429001 -61.022148 12.358297 14.1275
-64.612854 -60.567223 12.366593 14.133375
-64.645592 -60.24754 12.314797 13.791833
-64.568245 -65.872604 12.763849 14.128
-64.528206 -65.01461 12.602427 12.157
-64.568748 -64.525764 12.740642 14.0695
-64.591995 -64.304337 12.670516 13.717334
-64.632278 -63.791698 12.663949 13.7635
-64.476433 -63.25668 12.6122 14
-64.697044 -63.016956 12.58618 13.57575
-64.611877 -62.59462 12.573149 14.046666
-64.637604 -62.168922 12.520317 13.82275
-64.741013 -61.372978 12.618444 14.124
-64.543106 -60.225395 12.529546 14.123001
-64.792427 -66.202835 13.160829 11
-64.747765 -65.856163 13.08807 15
-64.642342 -65.584641 13.154911 15.0035
-64.57502 -65.812706 13.459204 14.012
-64.765137 -66.547607 14.195168 12
-64.776291 -66.223221 14.192512 12.521417
-64.786568 -65.71167 14.192728 12
-64.726547 -66.614128 14.598734 13.5
-64.778183 -66.185402 14.61152 13.5195
-64.73658 -65.752686 14.715527 14
-64.768539 -66.640701 14.959098 12.875
-64.752266 -66.237617 15.006634 13
-64.755997 -65.781075 15.030133 13
-64.780525 -65.587318 14.915692 13
-64.740349 -66.58239 15.356181 13
-64.744438 -66.087936 15.360319 13
-64.740868 -65.704559 15.362694 13
-64.601021 -66.467506 15.976352 12
-64.471817 -66.233315 15.856914 13.046
-64.568626 -65.462006 15.832688 12.697166
-64.531708 -65.079056 15.837298 12
-64.737358 -66.549576 16.356503 13.8
-64.618561 -66.206047 16.104887 12.6
-64.746857 -65.775429 16.164301 12.5
-64.732208 -66.513222 16.641058 13.6
-64.722656 -66.170265 16.603243 13.735953
-64.75457 -65.756027 16.626698 14
-64.645164 -66.551041 17.02145 13.333333
-64.663055 -66.3498 16.967005 14
-64.736084 -65.79525 16.918268 14.2735
-64.592926 -65.560616 17.077101 14
-64.680389 -66.479027 17.28713 14
-64.691414 -66.099724 17.363462 14.546
-64.77887 -65.877754 17.214853 15.093
-64.738052 -65.530815 17.463594 15.0915
-64.688805 -65.533226 17.695675 15.0905
-64.678452 -66.534599 18.191938 15
-64.546234 -66.296913 18.193369 14.5
-64.655266 -65.82901 18.189981 14.333333
-64.640305 -65.551216 18.372519 15
-64.626602 -66.538399 18.63623 15
-64.732574 -66.201225 18.685841 13.75
-64.598099 -65.023972 18.743059 13
-64.58316 -64.74234 18.727522 13
-64.721672 -66.549652 19.028162 15
-64.739815 -66.165329 19.066811 13.666667
-64.754669 -65.837151 19.031183 13.25
-64.671982 -65.415771 18.978243 13
-64.603317 -65.073402 18.828779 13
-64.734459 -66.444962 19.451292 14
-64.692642 -66.232849 19.32468 14.5
-64.762741 -65.936775 19.393312 13.5
-64.672897 -66.216476 19.713223 14.333333
-64.674049 -65.630569 19.893688 15.082
-64.685165 -66.306778 20.185719 15
-64.597893 -65.924683 20.170759 15
-64.667587 -65.596344 20.198095 15
-64.602272 -66.153465 20.403088 15
-64.616432 -65.79583 20.605549 15
-64.679779 -65.340317 20.538559 14.693001
-64.667023 -66.112823 21.040255 15
-64.790588 -65.753792 20.835665 14
-64.702301 -66.156364 21.366507 14.271875
-64.61087 -65.86203 21.489004 14.5
-64.667763 -66.146996 21.721083 14.5
-64.556358 -65.728508 21.76387 14
-64.541229 -64.97506 21.725683 14
-64.558479 -64.683884 21.727051 14
-64.67337 -66.255806 22.035635 15
-64.746605 -65.773979 22.246294 14
-64.649834 -65.531166 22.163445 14
-64.639275 -65.392052 22.643806 15
-64.776848 -65.61647 23.492901 15
-64.706863 -65.598259 23.292135 15.078
-64.765678 -66.080887 24.08835 15
-64.73806 -65.45031 24.681694 15
-64.659828 -64.989159 24.703424 15
-64.567253 -64.637527 24.679798 15
-64.64521 -64.320732 24.652285 15
-64.628571 -65.073494 25.099945 15
-64.582977 -64.690117 24.939846 15
-64.730049 -65.336319 25.314861 15
-64.383698 -81.917587 0.15333393 8.0795002
-64.350616 -60.628384 0.38859984 6
-64.182899 -68.378082 0.72125977 5
-64.391991 -67.730202 0.74407595 6
-64.219139 -67.386345 0.78598571 5
-64.107582 -65.686012 0.78189379 5
-64.257027 -65.479111 0.74265057 5
-64.18428 -64.316635 0.73859501 5
-64.300201 -63.858501 0.79564458 4
-64.294563 -63.444397 0.7633186 4.3333335
-64.266647 -63.161678 0.7257722 4
-64.258392 -62.068226 0.68608958 5
-64.237679 -60.866749 0.57407582 5.5
-64.350372 -60.675301 0.66198725 5
-64.119614 -60.193241 0.58951247 5.25
-64.286324 -79.084198 1.1560614 6
-64.078384 -78.482246 1.1890049 5
-64.211861 -78.199989 1.1856022 5
-64.362404 -77.93576 1.1801742 5
-64.185204 -76.710777 1.1760921 2.5
-64.151192 -76.345512 1.1964556 0
-64.145538 -75.761711 1.1484069 2.75
-64.240265 -75.42952 1.1510514 2.5
-64.200974 -74.934631 1.1338544 1.8
-64.196312 -74.543655 1.0785245 2.8
-64.151375 -74.120277 1.034995 2.5714285
-64.190567 -73.727104 1.0310044 1.7142857
-64.213272 -73.389046 0.99483138 2.3333333
-64.236626 -73.040588 0.98162538 3.2
-64.182274 -72.594658 1.131428 3.25
-64.117218 -72.100685 1.0608413 3
-64.299019 -71.843781 1.0944748 2
-64.12426 -71.430634 1.0566984 3.3333333
-64.134689 -70.965744 1.0228649 2.5
-64.236954 -70.610146 1.0326737 2.7142856
-64.137497 -70.1371 0.98634946 4
-64.226074 -69.778915 0.95471734 4
-64.256447 -69.385269 0.92933178 3.6666667
-64.234207 -69.005295 0.95020545 1.5454545
-64.275467 -68.580635 0.90741718 3.5999999
-64.168053 -68.246078 0.92355233 2.7142856
-64.156425 -67.754005 0.94859552 3
-64.216568 -67.439812 0.93002301 3
-64.246162 -66.952751 0.94748759 3.8076923
-64.144142 -66.703667 1.0370506 4
-64.284866 -66.108139 0.99735391 3.6666667
-64.153748 -65.743889 0.86656737 3.4000001
-64.259712 -65.23288 0.85004336 4
-64.207481 -65.024544 0.82942313 4
-64.270477 -64.227592 0.85531288 4
-64.248199 -81.788879 1.551545 1.5
-64.144791 -81.344551 1.5247808 1.1111112
-64.190514 -81.005234 1.4832118 3.6666667
-64.167046 -80.581215 1.4617635 3.25
-64.176575 -80.280426 1.5002633 3.5
-64.070114 -79.909988 1.3652474 6
-64.278313 -79.203629 1.3456702 3.5
-64.174095 -79.100365 1.3286251 3.2
-64.272278 -78.494194 1.2543434 1
-64.159363 -78.116966 1.2150841 6
-64.152634 -77.802162 1.2642304 3
-64.277489 -77.520088 1.2283071 4.5
-64.370735 -77.110306 1.2507732 3
-64.235832 -82.051544 1.8329668 3.0833333
-64.166985 -81.941528 1.8386837 2.842262
-64.007904 -66.802551 1.9502327 6
-64.026497 -66.690796 1.7462193 6
-64.108124 -66.171761 1.8372428 7
-64.396393 -85.911613 2.352473 5
-64.227982 -82.037399 2.1847134 4.3694444
-64.194855 -81.910576 2.236692 4.9749999
-64.053551 -66.632782 2.0390673 7
-64.072014 -85.346428 2.7008545 7
-64.191322 -82.019768 2.5854959 5
-64.200279 -81.914284 2.5730996 5.7709222
-64.341858 -86.112617 2.8573449 6
-64.01857 -85.444397 3.0206194 7
-64.184082 -82.012955 3.0700634 7
-64.207832 -81.857079 3.0462191 7.1220484
-64.231415 -85.644836 3.3656523 8.0734997
-64.279274 -85.422173 3.5068457 8.0941248
-64.310081 -85.146187 3.534903 8.0944996
-64.398842 -84.048203 3.3328936 7
-64.292976 -82.01651 3.2580988 7
-64.195877 -81.860672 3.3673232 7.8503237
-64.030609 -82.001717 3.7297635 9
-64.217377 -81.76783 3.813632 9.126852
-64.283333 -87.722633 4.1245093 8.1534996
-64.209778 -81.792 4.2196779 10.312842
-64.120949 -81.582222 4.0297351 8.1735001
-64.216301 -81.741005 4.6072569 11.402945
-64.29187 -81.597191 4.5233493 11
-64.216789 -82.048965 5.0881424 11.728208
-64.223717 -81.810753 4.9677982 12.304419
-64.161423 -81.556923 4.8824763 12.5
-64.058182 -80.262131 4.879961 8.0860004
-64.053871 -68.940018 4.843061 7
-64.360802 -85.657669 5.2783642 11.152
-64.125359 -81.797951 5.2333689 13
-64.194847 -60.233906 5.5446682 8.0495005
-64.210251 -60.134762 5.7557244 8.0806665
-64.123405 -81.839073 6.0329475 8.0550003
-64.116081 -80.780373 6.38167 8.0880003
-64.239403 -80.374649 6.294817 8.0860004
-64.097969 -80.550369 6.6082096 8.0907497
-64.060867 -80.614372 6.8843307 8.0979996
-64.334831 -80.242661 7.0481286 8.1433334
-64.259323 -60.271793 6.9919753 9.0955
-64.254738 -89.847473 7.5844426 14.125
-64.223679 -89.359795 7.5869946 13.0945
-64.314407 -80.460098 7.2259784 8.1539993
-64.171974 -80.243042 7.5214667 8.1610003
-64.025467 -60.038383 7.4905887 9.0810003
-64.148209 -89.705833 7.9407053 13.27
-64.266251 -89.379784 7.8298402 13.202499
-64.142799 -89.090874 7.8490534 13.907598
-64.209991 -60.189842 7.7919426 9.3863335
-64.256241 -89.817741 8.1936598 12.5
-64.160934 -89.464912 8.1744814 12.625389
-64.271172 -88.993324 8.1712704 12.7565
-64.383675 -80.56707 8.1333008 9.11625
-64.236626 -66.189796 8.3116436 12.508
-64.178551 -65.092316 8.3892851 15.013
-64.396233 -64.747337 8.3854923 14.012
-64.111549 -60.712059 8.311471 11.0115
-64.311234 -60.155895 8.2793999 12.250299
-64.302673 -89.912842 8.4505787 12.717167
-64.221672 -89.354431 8.5860491 14.270667
-64.181892 -89.172234 8.4604959 13.0755
-64.17569 -66.094193 8.6264277 15.0115
-64.000351 -65.02092 8.444602 14.0115
-64.07756 -61.776058 8.7441616 15
-64.25798 -61.520351 8.7396488 15
-64.279427 -60.86776 8.6957273 13.0125
-64.217339 -60.233219 8.4144869 11.0525
-64.127296 -89.80336 8.9073963 13.517301
-64.184723 -89.389046 8.9970865 13.386277
-64.186188 -66.111855 9.0316439 13.014999
-64.131546 -65.769615 8.8398924 11.0245
-64.183167 -62.354641 8.8101482 14.0135
-64.28376 -60.160221 8.9713354 11
-64.136063 -89.875366 9.3842039 13.191787
-64.234161 -60.047516 9.3450441 10
-64.144966 -89.802528 9.8337107 13.026082
-64.195381 -89.507568 9.7687969 11.337667
-64.247231 -60.02187 9.8736649 11.0955
-64.172539 -89.750305 10.149454 13.790375
-64.317276 -89.531097 10.135124 13.008166
-64.189552 -89.196709 10.285194 11.0245
-64.258308 -89.70887 10.523957 13.6235
-64.294365 -89.587608 10.428514 14
-64.320435 -89.192368 10.525764 13.166
-64.095901 -66.993378 10.724402 10
-64.11721 -89.810295 11.028248 14.201072
-64.035652 -89.552788 10.992747 13
-64.182083 -89.72094 11.272389 14.541375
-64.040459 -89.502869 11.23511 13.1655
-64.010887 -66.173851 11.528604 13.007
-64.08297 -60.849186 12.190633 14.1365
-64.305656 -65.265297 12.737767 14
-64.386055 -65.033661 12.728517 14
-64.055397 -64.592331 12.673886 14
-64.191017 -64.210503 12.658327 14
-64.292152 -63.734924 12.629666 14.0282
-64.379837 -63.462261 12.6026 14
-64.340988 -63.087074 12.579793 14.1405
-64.232559 -62.52684 12.501092 14.141
-64.090836 -60.954384 12.478766 14.122499
-64.15789 -66.513123 12.886539 14.122
-64.38195 -66.628822 14.621054 12
-64.092705 -65.771492 14.558948 14.046249
-64.284767 -66.680481 14.825985 12
-64.265572 -65.938225 14.905443 15.0085
-64.355087 -65.824875 15.978922 12
-64.337311 -66.178612 16.64201 13
-64.348244 -65.929558 16.734024 13
-64.351646 -66.232529 16.959759 13
-64.351936 -65.922188 16.985388 13
-64.323059 -65.233116 17.111609 15.0925
-64.293335 -66.185776 17.685686 13.5
-64.270332 -65.981956 17.799351 15.0895
-64.198479 -66.460495 18.162186 14.75
-64.264175 -66.063622 18.055134 15
-64.138878 -65.714935 18.159323 14.082
-64.126419 -66.538353 18.553621 15
-64.087898 -65.762833 18.554598 15
-64.215889 -66.518173 18.89329 15
-64.216614 -66.100517 18.907225 13
-64.371193 -65.710518 21.677292 14
-64.388725 -65.337227 21.984655 14
-64.388794 -65.249016 22.77721 15.08
-64.343559 -65.205704 22.948204 15.079
-63.700302 -61.023312 0.38261303 6
-63.652012 -68.975975 0.73231733 5
-63.786312 -68.544258 0.79375106 5
-63.78693 -68.221428 0.73956603 6
-63.790085 -67.736313 0.78377408 5
-63.759178 -66.148491 0.75385952 5.5
-63.647217 -65.905846 0.78229094 4.5
-63.72319 -64.857399 0.67986733 6
-63.832619 -64.571159 0.74657476 5
-63.71645 -63.798958 0.76967466 4
-63.82164 -63.458813 0.75038379 4.3333335
-63.962124 -63.109631 0.71268916 4
-63.807537 -62.26115 0.68308002 5
-63.906544 -61.005959 0.61991411 5
-63.823898 -60.603062 0.63574374 5
-63.812588 -60.133698 0.61236763 5
-63.761368 -78.937263 1.1848419 5.5
-63.866318 -77.572914 1.1704593 5
-63.704876 -76.887283 1.1876339 1.3333334
-63.739418 -76.538559 1.1813414 1.75
-63.797722 -76.162781 1.1484567 3
-63.849827 -75.775665 1.1604022 2
-63.829109 -75.359741 1.1236397 2.625
-63.914219 -75.063072 1.1122056 2.5
-63.810226 -74.474556 1.0604618 2.3333333
-63.810711 -74.068382 1.0174781 3.5
-63.832455 -73.817421 1.0206152 5
-63.668056 -73.433296 0.98515332 3.25
-63.783581 -72.988159 0.99215996 3.1428571
-63.849667 -72.641655 1.0999887 2.0999999
-63.813469 -72.211815 1.094413 2.4000001
-63.851242 -71.819283 1.0664388 3.5
-63.760185 -71.410599 1.0417963 3.4000001
-63.79538 -71.016289 1.0139905 3.25
-63.79052 -70.674171 1.0294676 2.5
-63.854855 -70.241661 0.96326727 4.75
-63.678459 -69.315773 0.96431506 2.6666667
-63.791321 -68.921906 0.92170745 1.2222222
-63.782753 -68.556297 0.93531656 2.875
-63.846821 -68.185745 0.91991657 2
-63.846817 -67.80381 0.9230262 3
-63.846497 -67.324417 0.90113914 3.3333333
-63.849464 -66.966232 0.90891165 3.0476189
-63.825558 -66.661438 1.0083463 3.6785715
-63.850628 -66.216667 0.87395155 3.8
-63.773731 -65.834137 0.87675917 3.5
-63.813847 -65.48909 0.84168768 3.6666667
-63.655304 -65.102448 0.83091295 4
-63.853207 -64.157295 0.85118055 4
-63.936966 -63.961639 0.81583357 4
-63.764496 -81.817802 1.5352515 1.3333334
-63.733776 -81.334122 1.5246836 0.85714287
-63.736004 -81.037735 1.4931148 3.875
-63.8717 -80.740143 1.4752141 0
-63.609879 -79.960396 1.3784509 6
-63.694733 -79.081993 1.3475457 3.5999999
-63.859642 -78.54155 1.2424653 3.3333333
-63.829369 -78.273849 1.2325428 3.3333333
-63.895813 -77.843575 1.2095417 3.5
-63.799198 -77.358635 1.208702 1
-63.624146 -76.99472 1.2280451 1.5
-63.789833 -76.424034 1.2213631 2
-63.790489 -76.207954 1.2050841 1.5
-63.923843 -66.673576 1.4014429 4.3947368
-63.831944 -82.05426 1.802537 2.574074
-63.76371 -81.941895 1.8207514 3.8630748
-63.890621 -66.850441 1.9640268 7
-63.912651 -66.686409 1.8029532 5.69697
-63.836754 -82.048096 2.2222629 4.4166665
-63.794052 -81.915497 2.2291129 4.6717954
-63.908127 -66.63295 2.1800621 7
-63.662449 -85.757172 2.6419072 6
-63.724106 -82.026764 2.5315433 4.9285712
-63.832943 -81.918938 2.6366522 5.6899228
-63.833595 -85.62545 3.0273254 7
-63.75721 -85.255318 2.9788926 7
-63.728687 -85.101318 2.9660563 7
-63.799515 -84.67186 2.9979305 7
-63.880043 -82.011803 3.0770409 7
-63.793526 -81.85981 3.0611677 7.1283174
-63.642555 -87.609146 3.5007424 7
-63.833294 -85.691223 3.5127792 8.1061993
-63.774693 -85.555847 3.3968439 8.0851669
-63.760529 -84.979996 3.4074292 8.0916672
-63.90144 -82.008301 3.2395284 7
-63.788654 -81.882729 3.3583553 7.7671599
-63.67725 -82.00824 3.7252715 9
-63.814587 -81.821083 3.8230157 9.2125597
-63.881413 -81.586937 3.9631991 9
-63.909302 -80.880531 3.6940854 7
-63.872242 -87.663948 4.115067 8.1604996
-63.819706 -81.809769 4.2061157 10.205654
-63.804279 -81.751366 4.6060944 11.395077
-63.978226 -81.588036 4.5936155 10
-63.902611 -80.856979 4.423594 7
-63.99527 -68.341858 4.7993488 7
-63.727444 -82.094215 5.0646591 11.0565
-63.807877 -81.794601 4.9395099 12.304688
-63.96191 -80.846069 5.1074858 8.0939999
-63.898277 -80.588722 4.9255247 8.0830002
-63.796349 -60.174793 5.5448217 8.0050001
-63.951191 -80.746376 5.7952094 8.073
-63.734516 -60.204571 5.7620196 8.0198755
-63.984715 -80.528488 6.7011199 8.0895004
-63.756069 -60.152615 6.6958089 9
-63.771755 -60.12859 6.9519138 9
-63.628784 -89.926552 7.2280374 11
-63.70504 -60.138512 7.5427475 9
-63.72633 -89.413612 7.8822794 14.111
-63.910202 -89.168694 7.7989759 15.129749
-63.720928 -60.100983 7.8552752 9.909091
-63.750427 -89.875282 8.1377029 13.428
-63.756584 -89.4599 8.3154535 12.219
-63.907768 -89.03154 8.219717 12.58625
-63.607052 -81.892525 8.3272133 8.0129995
-63.947025 -66.121559 8.188735 13.008499
-63.969742 -64.771873 8.3661757 13.01
-63.685856 -60.669918 8.3812866 13.014
-63.659454 -89.604042 8.5424805 12
-63.891705 -89.422188 8.4691162 10.5525
-63.914375 -89.046829 8.5139647 14.157
-63.817036 -66.128319 8.5281467 14.51075
-63.794907 -62.156628 8.7554274 15
-63.762653 -60.583073 8.5607147 13.51325
-63.734852 -89.6772 9.0951557 11
-63.792706 -66.173393 8.8387985 12.00175
-63.739307 -65.691513 8.9741392 10.686501
-63.7024 -63.207142 8.8434639 14.0125
-63.929745 -62.769794 8.8288479 14.013
-63.793316 -60.103729 8.9824133 11
-63.801224 -89.897003 9.503828 14.079834
-63.699814 -89.593559 9.2188358 11
-63.924881 -65.958672 9.3466482 15.0105
-63.881031 -60.043304 9.3169632 10
-63.809845 -89.787277 9.755331 13.83089
-63.889935 -89.342018 9.9049177 12.091499
-63.686947 -65.00174 9.7946167 14.009
-63.621738 -60.02631 9.7917509 11
-63.838535 -89.916267 10.198792 13.53825
-63.678272 -64.949089 10.052837 14.0085
-63.744167 -89.715721 10.751917 12.083
-63.93401 -89.380989 10.455091 13.166
-63.625923 -65.365807 10.663453 14.007
-63.669651 -64.916954 10.520474 14.50875
-63.820946 -89.903961 11.056768 15
-63.646088 -65.384155 10.800197 14
-63.651268 -65.013779 10.934919 14.338333
-63.700851 -65.977699 11.568803 14
-63.770435 -64.89225 11.425366 15.00825
-63.711945 -66.320992 12.036777 11.16
-63.855816 -65.937248 12.147471 15.003
-63.955269 -60.816193 12.300941 14.1255
-63.748772 -65.83371 12.618371 15
-63.765305 -65.292336 12.54192 12.1575
-63.987007 -64.757385 12.694892 14
-63.791161 -66.545021 13.0835 14.1145
-63.719318 -65.85141 12.963948 15
-63.685272 -65.305046 13.21997 14
-63.832886 -66.615921 14.526738 12
-63.661121 -65.670219 14.582876 15
-63.665646 -65.319359 14.498046 14
-63.846859 -66.021828 14.864186 15.007
-63.698441 -66.62291 15.653008 13
-63.870518 -64.90551 15.935625 15
-63.725933 -65.006447 16.437164 15
-63.665371 -66.511559 18.369392 15
-63.656307 -66.508018 18.616287 15
-63.97847 -65.764603 18.477333 15
-63.669792 -66.223251 20.664631 15
-63.85305 -65.920929 20.469383 14.078
-63.418182 -60.119946 0.39357325 6
-63.211044 -70.041336 0.79476213 5
-63.456463 -69.308311 0.74687636 5
-63.216339 -68.739212 0.73869705 6
-63.455688 -68.158638 0.79656988 5
-63.341114 -67.016792 0.78928524 4
-63.344334 -66.461655 0.78975612 4
-63.203262 -65.765503 0.77733517 6
-63.244652 -65.427345 0.70406526 6
-63.303242 -64.976952 0.75434315 5
-63.588692 -64.791138 0.75439215 5
-63.496067 -64.380089 0.78390205 4
-63.393646 -63.795982 0.72792345 4.5
-63.382381 -63.467831 0.76200026 4
-63.335468 -63.099766 0.73288834 4
-63.340481 -62.437923 0.67599732 5
-63.398273 -61.106255 0.60418725 5
-63.348804 -60.628899 0.58154136 4.6666665
-63.343014 -60.203838 0.57985657 4.8000002
-63.205986 -78.666519 1.1891018 5
-63.50161 -78.245293 1.1801578 5
-63.44878 -77.043587 1.1534812 3.5
-63.467697 -76.591499 1.1250305 4.1999998
-63.415199 -76.260223 1.088999 5
-63.380791 -75.76194 1.1138349 4.5
-63.500942 -75.441437 1.07505 4.75
-63.566677 -74.837715 1.0087906 5.5
-63.274342 -74.702942 1.1219739 2
-63.318657 -74.219406 1.0559661 2.5
-63.319176 -73.800735 1.0337063 2.4000001
-63.485783 -73.42939 0.9768098 2.6666667
-63.434196 -72.92852 0.97726375 2
-63.434441 -72.647278 1.040911 4.1999998
-63.439873 -71.721947 1.0388508 2.8
-63.365673 -71.429489 1.041811 2.3333333
-63.388908 -71.061531 1.0398898 3
-63.366638 -70.600143 0.97104931 4.6666665
-63.391102 -70.178848 0.9529615 4.1999998
-63.470318 -69.826637 0.97101879 3
-63.444221 -69.457817 0.9347837 3.5
-63.371906 -68.973091 0.90943259 2.2222223
-63.395504 -68.57914 0.92847276 2.5
-63.419971 -68.134193 0.92458242 2.090909
-63.34856 -67.757721 0.92057663 2.75
-63.425903 -67.409233 0.90231645 2.8888888
-63.396374 -67.000336 0.8493818 3.3636363
-63.394875 -66.67379 0.8148284 4
-63.373455 -66.193184 0.86293912 3.25
-63.362709 -65.815498 0.98558861 4.4545455
-63.333431 -65.434196 0.93996251 5.125
-63.480671 -63.888126 0.80066144 4
-63.407101 -81.678337 1.5706166 2
-63.348797 -81.380936 1.5483321 1.7142857
-63.333637 -80.989548 1.5185328 2.4000001
-63.272427 -80.519745 1.4420904 1.5
-63.57803 -80.366249 1.4795104 3
-63.21933 -79.836502 1.4654242 3
-63.423908 -79.338356 1.3884282 3.5
-63.402473 -78.976746 1.3114089 3.5555556
-63.374329 -78.554703 1.2362497 2.3333333
-63.352196 -78.057632 1.2173173 2.6666667
-63.383835 -77.773094 1.227284 2
-63.492683 -77.361313 1.2114673 2.6666667
-63.530109 -76.830154 1.2046289 2
-63.546986 -76.729485 1.2106081 1
-63.381065 -65.849869 1.3894556 5.8235292
-63.378201 -65.363571 1.3523957 5.8333335
-63.399368 -65.120811 1.4783206 7
-63.399345 -64.742622 1.4900025 7
-63.296745 -60.089443 1.3697729 7
-63.45816 -82.051529 1.7890505 2.7420635
-63.415749 -81.885269 1.8060756 3.5599251
-63.261997 -80.983772 1.6057143 2
-63.287949 -66.105896 1.7153149 7
-63.309277 -65.733002 1.8002043 6.6363635
-63.294437 -65.332115 1.8501891 6.7058825
-63.277824 -65.098442 1.8435826 7
-63.379135 -61.306995 1.6152904 7
-63.337513 -60.072369 1.6053833 7
-63.41967 -82.041214 2.1673367 5.0277777
-63.429653 -81.922836 2.2483528 5.2909093
-63.382008 -65.810532 2.1366994 7
-63.396877 -65.329796 2.1048212 7.0416665
-63.221508 -65.135727 2.2889724 7.678
-63.494156 -85.75103 2.6261673 6
-63.531097 -85.168198 2.6064789 6
-63.365635 -84.422646 2.6085551 6
-63.41151 -82.010361 2.62571 5
-63.406834 -81.895416 2.5801666 5.73
-63.396774 -65.770348 2.7474749 8.0026999
-63.442799 -65.340698 2.7368472 8.0019636
-63.420704 -65.155357 2.7457888 8
-63.317135 -87.62149 2.9501455 6
-63.222713 -85.853851 3.100955 7
-63.324055 -85.557304 2.9916439 7
-63.356762 -84.612282 2.8898542 7
-63.281433 -82.010139 3.008595 7.25
-63.412357 -81.878998 3.0537946 7.0750685
-63.351547 -65.756859 2.8263066 8
-63.409275 -65.383377 2.9032977 8
-63.222561 -65.141556 2.8352401 9
-63.449799 -85.722992 3.3779631 8.0850744
-63.310883 -82.004242 3.2457571 7
-63.407436 -81.849228 3.3884358 7.8497519
-63.430431 -81.597618 3.5524487 8.1529999
-63.218342 -66.022972 3.4503527 8
-63.341179 -65.763275 3.4118311 8.7777777
-63.332169 -65.407097 3.4077513 8.565217
-63.302792 -65.086731 3.4195564 8.5263157
-63.329445 -64.725815 3.3148029 8
-63.232605 -60.054672 3.2511015 8
-63.341484 -85.792061 3.6567106 8.1219997
-63.27663 -82.050797 3.7260101 7.7073331
-63.401001 -81.825752 3.8041184 9.1154737
-63.38221 -65.749168 3.8305998 9.75
-63.452969 -65.37426 3.8246825 9.75
-63.35194 -65.123726 3.7257051 10
-63.374149 -87.759766 4.1303644 8.1545
-63.410492 -81.804848 4.2109327 10.161657
-63.345085 -65.714119 4.2060485 10.444445
-63.398529 -65.346451 4.1919031 10.142858
