# .PCD v0.7 - Point Cloud Data file format
VERSION 0.7
FIELDS x y z intensity
SIZE 4 4 4 4
TYPE F F F F
COUNT 1 1 1 1
WIDTH 1235
HEIGHT 1
VIEWPOINT 0 0 0 1 0 0 0
POINTS 1235
DATA ascii
-72.619995 195.55598 3.7362831 13.047
-72.743034 197.97879 3.6427319 12.0325
-72.753769 194.56572 4.2413859 13.037167
-72.490944 194.97383 4.2494349 13.0525
-72.518524 200.63843 4.4493384 13.0455
-72.111931 190.70346 -5.754169 6
-72.306282 190.92731 -5.3651834 7
-72.169289 181.18614 -5.02672 7
-72.255638 188.24596 -4.8813529 8.0784998
-72.145676 188.45627 -5.0040598 7
-72.107391 189.4057 -5.1156654 7
-72.266319 190.0594 -5.0881147 7
-72.202507 190.73587 -5.098237 7
-72.071297 191.09177 -5.1161947 7
-72.015968 188.28217 -4.6249175 7
-72.0756 188.54523 -4.4876213 7
-72.198112 189.2312 -4.6461921 7
-72.121086 190.73938 -4.661726 7
-72.246361 190.93481 -4.6594181 8.1090002
-72.393036 181.78404 -4.3428621 7
-72.120445 188.30473 -4.3309755 7
-72.160873 188.66823 -4.1436186 7
-72.105026 190.92044 -4.3245873 7
-72.255234 188.94066 -3.6101003 8.0664997
-72.122032 188.58231 -3.4660659 8.0340004
-72.168152 187.91002 -2.8942668 8.0161247
-72.055382 188.08467 -2.8765445 8
-72.156654 188.21783 -2.6211138 8.1239338
-72.105927 188.62773 -2.5951276 8.4514999
-72.331451 189.16216 -2.6838441 8.0430002
-72.197792 187.84978 -2.1746774 8.991065
-72.18779 188.13762 -2.265986 8.1072855
-72.033356 188.41922 -2.1642678 9.0340004
-72.272377 188.88892 -2.0656059 9.0445004
-72.152992 189.26848 -2.2375774 8.0295
-72.374596 187.35518 -1.6916119 9.0172501
-72.142944 187.68085 -1.9998058 8.0209999
-72.236748 188.15808 -1.9101382 9.0244999
-72.115112 188.53932 -1.7361796 9.0190001
-72.146935 187.06268 -1.264645 9.08325
-72.160057 187.35591 -1.308993 9.1588573
-72.148689 187.66243 -1.4818739 9
-72.264465 188.14885 -1.4185554 9.0295
-72.148941 188.47427 -1.2364813 10.0455
-72.135345 187.06784 -0.98693162 9.163167
-72.21463 187.30318 -0.95307595 9.0442142
-72.342644 187.71565 -1.1501023 10.042
-72.211876 188.4639 -0.86990333 10
-72.06588 186.91876 -0.78631598 9.1604996
-72.229797 187.37875 -0.75582075 9.4672995
-72.341049 188.09006 -0.56372321 10.0245
-72.140297 187.39185 -0.18439068 10.0305
-72.083496 187.8828 -0.13864976 9.1209993
-72.062828 188.10095 -0.13802317 10
-72.25518 187.92358 0.1582624 10.2544
-72.217331 188.04103 0.096862406 9.7244997
-72.278671 188.12045 0.66006869 10
-72.319122 191.38072 1.0018629 10.154
-72.218391 192.01262 1.2436054 10.033
-72.220932 192.60245 1.778111 11.012501
-72.143265 194.88446 1.8201647 11.015249
-72.028992 192.58635 2.3183556 12.064
-72.087357 194.23682 2.0562103 11.00875
-72.186378 194.69199 2.0770485 12.047
-72.269577 196.24844 2.376327 10.158
-72.013832 198.7383 2.0576093 10.1535
-72.29892 192.81068 2.7411973 11.043
-72.268616 194.21233 2.4329839 11
-72.148125 194.83385 2.7536085 12.0645
-72.194122 196.72737 2.7486365 12.0625
-72.2826 194.567 2.8487601 12.0655
-72.287598 195.45941 3.1709952 12.066
-72.019485 196.84485 3.0380356 12.0645
-72.194443 199.92299 3.1869767 11.164
-72.349777 194.60112 3.3758614 12.098249
-72.195908 194.81914 3.2109339 11.034
-72.190247 195.37009 3.2762315 12.0665
-72.203842 196.70042 3.3399875 11.04225
-72.201462 198.38147 3.4900239 12.062
-72.18219 198.69647 3.4682078 12.06175
-72.316132 194.78275 3.6933126 11.00875
-72.314529 195.01089 3.7281919 13.0395
-72.156425 195.40222 3.7527752 12.533
-72.09108 195.69281 3.6377506 13.043
-72.044441 199.53635 3.6244843 12.0215
-72.069763 195.2265 4.1880035 13.063001
-72.240723 195.68826 4.2174602 12.0265
-72.007874 199.11774 4.1199393 13.042
-72.162292 198.79468 4.6519599 12.026
-72.086296 198.9735 4.8047733 13.0625
-71.915497 188.03284 -5.6071072 6
-71.745712 180.64954 -5.2150974 6
-71.881035 191.12262 -5.3654704 7
-71.84169 181.24799 -5.0547976 7
-71.995132 188.34256 -4.9654965 7
-71.746346 188.48039 -5.0251923 7
-71.806885 189.4465 -4.9107542 7
-71.722023 191.15198 -5.0403733 7
-71.819214 191.29277 -5.1138306 7
-71.76387 181.50989 -4.7408352 7
-71.680527 187.69397 -4.4197216 7
-71.896561 188.29285 -4.6454577 7
-71.748909 188.58519 -4.6117272 7
-71.914322 189.16895 -4.5494099 7
-71.641647 189.20149 -4.5946636 8.059
-71.719193 191.04553 -4.4019356 7
-71.989807 182.08138 -4.1608596 7
-71.925064 187.88953 -4.3703704 7
-71.820114 188.17511 -4.2278934 7
-71.902611 188.4505 -4.1756248 7
-71.898438 191.05222 -4.2182813 7
-71.774948 187.80962 -3.9857507 7
-71.791885 188.33762 -3.6883059 8.1169996
-71.722878 188.13998 -3.4379971 8.0687504
-71.638481 188.66019 -3.4142146 8.0670004
-71.680183 189.26259 -3.3373396 8.0644999
-71.635742 187.12238 -3.0101933 8
-71.82843 188.32384 -2.8787167 8.0299997
-71.795502 188.50279 -2.9987476 8
-71.829575 188.14249 -2.608279 8.0528755
-71.706726 188.42921 -2.7045951 8.0284996
-71.828667 188.83759 -2.5673478 8.099
-71.612701 189.41238 -2.6143444 8.1540003
-71.996559 189.97592 -2.433629 9.0485001
-71.781647 187.96307 -2.3082404 8.5165005
-71.941246 188.09351 -2.298893 8.0384998
-71.675713 186.83345 -1.7426002 9.0349998
-71.661438 187.5061 -1.8777311 9.1094999
-71.654289 187.67744 -1.6248797 9
-71.755318 187.11566 -1.3581258 9.0947495
-71.839233 187.44734 -1.4785804 8.6786251
-71.726768 187.63394 -1.3144275 8.0185003
-71.747604 186.84598 -0.86921203 10.045
-71.816216 187.38428 -0.98680264 9.2372999
-71.71936 187.94521 -0.89351374 9.7104998
-71.735779 187.21266 -0.43318114 10
-71.737892 187.68553 -0.40494284 10.019
-71.635956 186.7932 -0.23818323 10
-71.779976 187.38527 -0.12393442 9.6493998
-71.62928 187.83647 -0.090878211 9.6975002
-71.875801 188.15871 -0.12478244 9.7228327
-71.752892 186.90871 0.3912853 11.045
-71.848061 187.4081 0.18315458 10
-71.659035 187.77423 0.25225389 10.0005
-71.715248 188.99028 0.38584274 10.175
-71.673225 188.03661 0.53511125 10.563
-71.617241 189.17276 0.56305057 11.044
-71.997246 189.15276 1.0858572 10.1575
-71.839569 189.43921 1.0296363 10.0965
-71.955688 189.61575 0.87981141 10.04
-71.88044 193.83423 1.0730786 10.0435
-71.730827 189.35529 1.281828 11.0685
-71.710403 198.62891 1.3733729 9.0185003
-71.969055 192.60571 1.9144095 12.04
-71.799026 198.58932 1.6191074 9.0185003
-71.633263 194.15007 2.5296168 12.058666
-71.966057 196.73334 2.4224305 12.0525
-71.870667 199.10431 2.6036658 11.0055
-71.864494 194.17038 2.9583006 11.0435
-71.815018 197.97745 3.1691163 10.175
-71.904152 198.73088 3.1180167 12.047251
-71.928139 198.82104 2.9067082 11.179
-71.834381 197.89743 3.5863209 12.032
-71.662903 198.08502 3.4403915 11.61525
-71.822609 198.61981 3.5354252 11.6085
-71.836411 198.978 3.511586 11.0415
-71.834503 195.7402 3.7996545 13.039
-71.829315 198.68495 3.6360235 11.092751
-71.879387 198.84341 3.8512962 11.037
-71.914612 195.60867 4.2806149 11.155
-71.719467 198.19533 4.2975755 12.0265
-71.820297 197.70648 4.6134095 13.039751
-71.606758 198.06641 4.612298 13.051
-71.702438 199.01447 4.6815357 11.155
-71.410828 188.53983 -5.3247452 7
-71.215515 188.80423 -5.2101016 7
-71.539917 191.24828 -5.4091372 7
-71.427353 188.37967 -4.8648853 7
-71.4356 188.57018 -5.0115318 7
-71.255806 189.02008 -5.0291548 7
-71.334808 191.19353 -5.1219287 7
-71.293564 191.28017 -5.1017313 7
-71.20565 188.08847 -4.5508075 8.1094999
-71.210724 188.78714 -4.4037547 7
-71.232803 189.17632 -4.7641292 7
-71.441444 190.94957 -4.7786069 7
-71.297127 191.34523 -4.7480907 7
-71.513939 183.43611 -4.2046256 7
-71.266731 187.91888 -4.1174912 7
-71.363411 188.29683 -4.1273217 7
-71.213905 188.51579 -4.3238063 7
-71.472801 188.93338 -4.1651368 8.1083336
-71.379303 189.35893 -4.150115 8.1091661
-71.435089 191.10335 -4.2741137 7
-71.352646 191.25676 -4.25735 7
-71.524529 188.29515 -3.8102398 7.7119999
-71.407227 188.98022 -3.6715767 8.0667496
-71.336395 189.21545 -3.7023029 8.0670004
-71.253906 187.61522 -3.3183882 8.066
-71.401604 188.90738 -3.3843505 8.0586662
-71.460297 187.18518 -3.0099437 8
-71.327995 187.37105 -2.8664565 8.0649996
-71.531273 188.30099 -2.9503887 8.0120001
-71.575378 188.7077 -2.9590852 8
-71.325188 188.97035 -2.92136 8.0310001
-71.388672 187.13904 -2.7747796 8.0010004
-71.282425 187.32333 -2.7385106 8.0480003
-71.289429 187.61298 -2.5325081 8
-71.465012 188.229 -2.4794664 8.5402498
-71.525688 188.71129 -2.678561 8.0424995
-71.247742 189.38698 -2.6054692 8.0404997
-71.485916 189.94321 -2.7366033 8.1534996
-71.348526 187.85355 -2.1277459 8.5499992
-71.356056 188.26926 -2.3184285 8
-71.377129 188.4801 -2.2116833 8.5393744
-71.511528 186.89108 -1.7379751 9
-71.326935 187.98204 -1.6186789 9
-71.379814 188.59695 -1.7429782 9.0185003
-71.383629 187.06837 -1.5081307 9.0221243
-71.366776 187.30717 -1.3066412 8.8410006
-71.371506 187.76039 -1.3294598 9.0663004
-71.462906 188.11664 -1.4843873 9.0144997
-71.393188 187.09669 -0.9208551 9.0634165
-71.39193 187.37955 -0.94597584 9.1230001
-71.505272 187.64517 -1.1122996 9.6805
-71.460556 187.10721 -0.77801877 9.5457497
-71.388885 187.33794 -0.66087854 9.5512505
-71.416733 188.013 -0.50901431 9.1169996
-71.470032 187.01099 -0.055995103 10.01425
-71.310471 187.33701 -0.027681779 10
-71.336349 187.70911 -0.18394417 10
-71.33934 188.58266 -0.27357632 9.1114998
-71.576927 187.59877 0.16673551 10.0275
-71.453087 187.80803 0.16494553 9.7794285
-71.242409 188.16635 0.29412442 10
-71.433311 189.01462 0.17898826 9.1789999
-71.276031 189.36093 0.14407898 10.012
-71.277061 189.7588 0.22718646 11.0405
-71.449867 187.11679 0.47820333 11.055
-71.43718 187.91637 0.68566477 10.038876
-71.320549 188.09665 0.65012443 10.524977
-71.467514 189.14104 0.65973806 11.04725
-71.264557 189.30225 0.53028768 10.64257
-71.355133 188.16463 0.87762791 10.4331
-71.54567 189.44191 0.88804144 10.153666
-71.495689 189.62617 0.87136877 11.0455
-71.250923 188.8345 1.2801695 11.0295
-71.552277 194.02571 2.3984878 10.1615
-71.523705 199.036 2.2280879 10.154
-71.496048 197.1819 3.0009992 12.038
-71.357414 198.14377 2.9884503 12.048667
-71.310089 198.59164 2.961792 11.171
-71.254692 199.35583 3.1249747 12.0305
-71.463791 198.22736 3.3441515 10.6615
-71.442307 198.72339 3.5621998 11.1515
-71.513496 198.98079 3.396415 11.758834
-71.323639 197.9958 3.9423652 12.0275
-71.44294 198.09232 3.6743166 11.114166
-71.341911 200.09671 3.718889 11.099
-71.552567 197.83618 4.1845112 12.026501
-71.418564 198.15451 4.1510239 12.524
-71.235458 198.79184 4.6136637 12.0255
-71.319069 198.68633 4.9002781 12.171
-71.406189 199.05779 5.4285893 13.0315
-71.028351 209.15674 -5.6531196 7
-71.184967 188.6524 -5.3215375 7
-70.849892 191.5107 -5.3266659 7
-71.013817 205.62915 -5.2105465 7
-71.038727 188.38313 -4.8059311 7
-71.124771 188.63939 -4.8893433 7
-71.151459 188.96184 -5.0270433 7
-71.076813 189.20451 -5.0275426 7
-70.934807 191.53374 -5.061409 7
-70.873535 187.5007 -4.5758848 7
-70.927795 187.75653 -4.5489826 7
-71.047966 188.14932 -4.6053791 7
-71.096764 188.67827 -4.5728383 7
-71.069992 188.9272 -4.5510898 7.5545001
-71.171783 180.34384 -4.0025039 7
-71.046646 182.78368 -4.0224714 7
-70.938904 187.8123 -4.1303854 7.7399998
-70.983238 188.125 -4.1454191 7.4756427
-71.097122 188.40123 -4.3192205 7
-70.992691 189.33528 -4.1570516 8.1098747
-71.02066 191.1778 -4.3952174 7
-70.901848 191.47227 -4.3074727 7
-70.878555 180.23358 -3.9084542 7
-71.184258 182.77477 -3.9907827 7
-70.883186 187.8647 -3.6880329 7.9136429
-70.837128 188.20972 -3.7872088 8.0690002
-71.049461 189.12805 -3.6820104 8.0657854
-70.845802 189.34908 -3.7603393 8.0609999
-71.040222 187.67281 -3.5224254 8.0680599
-70.952049 189.02344 -3.4206698 8.0664997
-70.968147 187.40002 -2.8017154 8
-71.031303 187.71179 -3.1287665 8.0185003
-71.064423 188.99588 -2.8233123 8.0970001
-70.986877 189.44739 -3.0657938 8.0157499
-71.01033 187.54198 -2.6440935 8
-70.890221 187.69766 -2.6218405 8.3994999
-71.027473 188.71791 -2.5906157 8.3986664
-70.876305 189.03632 -2.7968295 8.0270004
-71.138397 189.33852 -2.5710053 8.0413332
-71.038887 190.10788 -2.5047712 8.0432501
-70.986046 187.4043 -2.2511175 8.2188997
-71.139977 188.28612 -2.3176112 8.0365
-70.89476 188.61963 -2.1944799 8.0299997
-70.902763 187.44377 -1.7470887 8.2666254
-70.807838 187.60754 -1.6723735 8.0170002
-70.99736 186.51543 -1.2717135 9.1136665
-71.008484 187.43378 -1.4022582 9.2097998
-70.988358 187.84384 -1.2520633 9.3483334
-71.071671 188.48659 -1.2103574 10.0485
-70.819107 185.80882 -0.99044764 9.1695004
-71.110718 187.09828 -0.94939554 9.5922222
-71.045746 187.35268 -0.9827112 9.0231876
-70.973228 187.76825 -1.0848254 9.5275002
-70.884995 185.37411 -0.60570019 10.051001
-70.818253 186.64052 -0.75998104 9
-71.039894 186.96132 -0.70529908 9.0369997
-71.11171 187.53816 -0.74308467 9.5345001
-71.016602 187.66843 -0.64407521 9.3395004
-70.932671 188.35455 -0.67324477 10.0685
-70.983437 188.49527 -0.40746412 9.1175003
-71.102936 188.90628 -0.71523654 9.1582499
-71.06987 189.36862 -0.4648411 9.1555004
-71.082771 187.42975 -0.11900099 9.7059994
-71.132057 187.86459 -0.19473875 10
-71.006767 188.20317 -0.15218182 9.4089994
-71.008141 188.40265 -0.20591509 9.1175003
-71.017372 189.50639 -0.091520309 9.5280704
-71.017387 187.23277 0.087871656 9.0249996
-71.114677 187.85114 0.080835558 10.5
-71.045502 188.28937 0.22724563 10.027
-70.990372 188.56241 0.23821279 10.408334
-70.942085 189.38661 0.20813055 10.0275
-71.01989 189.72086 0.14785443 11.048
-70.971481 187.21193 0.55380744 10
-71.133644 187.92656 0.60047787 10
-71.142815 188.09018 0.53290683 10.665937
-70.932465 188.64455 0.58850205 10.914166
-71.09359 187.97531 0.91577744 10.039
-71.11908 188.13672 0.97178197 10.037
-70.953896 188.55652 0.87377495 10.1595
-70.939087 188.64014 1.3742733 11.0285
-70.920448 198.23875 1.4268885 10.041
-71.072594 199.40555 1.5697417 10.042
-70.926117 197.79576 2.6909628 11.0255
-70.986458 198.46335 3.0885484 11.575166
-70.925369 199.16281 3.0626907 11.1635
-70.880974 198.26495 3.3608792 11.550751
-70.911079 198.5204 3.4077079 11.405499
-71.012131 199.09975 3.4926181 10.909875
-70.942146 200.48434 3.5888436 11.151
-70.976555 198.36038 3.7594652 12.362999
-70.902069 199.04794 3.7544525 11.039
-70.89312 199.32303 3.736331 11.15325
-70.869972 201.62714 3.8664758 11.042
-70.909035 198.24507 4.0986781 12.102
-71.178757 197.93375 4.4925447 13.041
-70.897995 198.13779 4.6368842 13.044001
-70.99292 199.49725 4.7161889 13.0405
-70.890396 198.59531 5.1348233 12.61125
-70.803452 198.8631 4.9999552 12.1635
-71.044205 200.3829 5.084125 13.037
-70.88324 198.09477 5.3868222 12.152
-70.898155 198.68149 5.482985 12.153
-70.935989 199.3262 5.5085521 12.0425
-70.463348 184.91469 -5.5906291 6
-70.700195 209.14478 -5.334033 7
-70.561798 191.55704 -5.0979576 7
-70.627266 188.55504 -4.5128574 7
-70.665237 191.06473 -4.669888 7
-70.418663 191.20123 -4.5206928 7
-70.609665 180.30006 -4.0650387 7
-70.68544 187.98724 -4.0388699 8.1064997
-70.665573 188.38753 -4.3919783 7
-70.545959 189.34654 -4.0759411 8.1102505
-70.463623 191.20207 -4.1097898 7
-70.46814 191.63867 -4.2477794 7
-70.433983 180.30083 -3.982352 7
-70.60405 187.86586 -3.611336 8.1175003
-70.625519 189.25462 -3.6142862 8.0658445
-70.703232 187.93286 -3.2504389 8.0235004
-70.75116 189.12631 -3.3347819 8.0649996
-70.627792 189.26025 -3.2980921 8.0434999
-70.408524 191.27933 -3.3720286 8.0524998
-70.677879 187.41045 -2.8036716 8
-70.537056 187.81863 -2.9706922 8.0023003
-70.626266 189.06047 -2.9227552 8.0304995
-70.739639 190.15712 -2.9412565 8.0065002
-70.660828 187.55948 -2.6216252 8.0319166
-70.632462 187.70206 -2.638907 8.0734997
-70.621117 189.01529 -2.64273 8.2817001
-70.428215 189.74176 -2.7061527 8.0275002
-70.786964 190.25949 -2.4332306 8.0375004
-70.500633 185.54938 -2.3713932 8.1575003
-70.717262 187.43195 -2.157836 8.0317497
-70.587341 187.68004 -2.370728 8.0334997
-70.562317 188.73911 -2.1622868 8.0295
-70.635612 188.80215 -2.286046 8.0349998
-70.591835 187.33514 -1.849389 8.02425
-70.653519 187.73573 -1.6339231 8.6741667
-70.612991 188.17303 -1.7744098 9.0117502
-70.48526 188.40799 -1.7759699 9
-70.712303 186.51595 -1.308543 9.1730003
-70.624611 187.7074 -1.4575139 9
-70.465172 188.30469 -1.5193881 9
-70.768532 188.61926 -1.5252767 9
-70.487953 185.6929 -0.87709206 10.069
-70.706963 186.02913 -0.97877789 9.1555004
-70.603729 186.66772 -0.82251048 9.0352497
-70.585526 186.96559 -0.94558001 9.0413332
-70.493965 187.66826 -1.0291361 9
-70.585701 188.16119 -1.0177871 9
-70.646194 185.53107 -0.47248307 10.07025
-70.644699 185.88545 -0.63861078 9.7648344
-70.54557 186.26245 -0.66939962 9.5517502
-70.63343 186.52731 -0.67075121 9.0342503
-70.503685 188.46518 -0.40438625 10
-70.614487 189.51453 -0.51643169 10.023
-70.575027 185.39458 -0.33526012 10.029667
-70.754585 187.54631 -0.20991807 10
-70.717224 187.83861 -0.15008354 9.4445
-70.736488 188.18591 -0.23794033 9.1584997
-70.660095 188.54137 -0.11626472 9.836834
-70.574142 188.96207 -0.12258153 10.029
-70.772743 187.54373 0.098254137 11
-70.677818 187.62369 0.097860865 11
-70.655136 188.56711 0.32643637 10.1725
-70.557121 189.76395 0.19335553 11.04
-70.595192 188.54709 0.51514655 10.57125
-70.484108 188.85367 0.79045111 11.023
-70.668297 188.67758 0.94681352 10.510099
-70.750053 189.59305 0.93840665 10.0335
-70.480843 188.83101 1.3283306 12.048
-70.651772 197.91435 2.358448 10.157
-70.505104 198.09703 2.2851422 11.52825
-70.590614 199.22421 2.2901452 10.1545
-70.429558 198.16557 2.4701447 12.0375
-70.708305 198.35068 2.9839327 12.0625
-70.679146 201.07327 2.827188 12.037
-70.756554 201.45412 2.8486836 11.0255
-70.673409 201.64806 2.8328609 11.0045
-70.451622 198.63013 3.3101094 11.151
-70.688225 199.063 3.4439561 12.0645
-70.597633 199.3532 3.5652056 11.151
-70.605743 198.24557 3.8023326 12.098249
-70.457291 198.74117 3.6840079 11.037251
-70.720314 200.97762 3.6919451 11.151751
-70.590744 201.31711 3.9240882 11.1545
-70.788246 198.06958 4.279346 12.0255
-70.600929 198.51538 4.1312537 12.057125
-70.448669 199.34979 4.1795201 10.018
-70.656624 198.4819 4.7793922 13.063
-70.443306 199.133 4.5893936 11.1545
-70.43541 199.34464 4.661747 12.025
-70.63884 198.30325 5.0933328 13.06325
-70.432159 198.50243 4.8961511 11.159
-70.401405 198.91763 4.9858203 13.0635
-70.496918 199.21695 4.9399247 12.1705
-70.461082 200.7485 4.9343925 12.025
-70.643944 198.24649 5.558589 12.033
-70.753021 198.58757 5.5256157 12.1575
-70.512299 198.80948 5.3467574 12.607
-70.654564 198.71304 5.7600307 13.027
-70.787712 199.12044 5.6175489 12.041
-70.508011 198.42714 6.1593308 14.0405
-70.332573 191.61081 -5.4234362 7
-70.090164 191.40051 -4.9632721 7
-70.171509 191.8243 -5.1724582 7
-70.094864 191.36969 -4.6264286 7
-70.042984 180.06892 -4.3259621 7
-70.229706 180.52415 -4.1324844 7
-70.224449 180.89911 -4.0082622 7
-70.164932 191.46378 -4.2197089 7.2214994
-70.153481 191.92154 -4.3772774 8.1090002
-70.175011 180.24428 -3.9060466 7
-70.034729 191.35867 -3.8100634 8.0662498
-70.340538 191.8439 -3.858994 8.0430002
-70.082916 185.56374 -3.2689555 8.1145
-70.256401 189.4814 -3.4512703 8.0325003
-70.104324 190.03819 -3.2498755 8.0225
-70.383469 191.16611 -3.4207327 8.0424995
-70.253143 191.31586 -3.4410942 8.0647497
-70.269012 187.9433 -3.0194201 8
-70.316673 189.15189 -2.9476192 8.0109997
-70.292427 189.59955 -3.1249073 8.0174999
-70.318336 190.08337 -3.0029454 8.033
-70.262642 190.55443 -2.8064907 8.1529999
-70.364449 185.25452 -2.7628913 8.177
-70.094002 185.71114 -2.5278728 8.0275002
-70.113853 186.17213 -2.5779147 8.1094999
-70.39489 187.8848 -2.5610127 9.0445004
-70.356796 188.83601 -2.5001311 8.0404997
-70.185677 189.79538 -2.5856612 8.0334997
-70.239876 192.19806 -2.7897265 8.026
-70.227814 185.51201 -2.0935054 9.0595007
-70.143456 185.80913 -2.0717437 8.5471249
-70.089958 186.11353 -2.0598581 8.7936249
-70.002602 186.4458 -2.1623747 8.0045004
-70.377571 187.53284 -2.0045352 8.0314999
-70.298439 187.75504 -2.3311145 8.0384998
-70.380592 189.03442 -2.2588367 8.0365
-70.3395 190.41084 -2.2284391 8.0290003
-70.11274 185.74611 -1.8068359 9.0493755
-70.072647 186.21696 -1.7503816 9.0377502
-70.117889 187.15826 -1.6490095 9.0135002
-70.102142 185.98631 -1.5225893 9.0690002
-70.216713 186.20334 -1.363537 9.0827503
-70.187469 186.70328 -1.3948635 9.1178331
-70.098991 188.0316 -1.5127186 9
-70.282745 185.39384 -0.83807081 10.0695
-70.120583 185.87895 -0.90679777 10.0685
-70.270653 186.11975 -0.929425 9.8945627
-70.118721 186.52153 -0.99373758 9.4533329
-70.371414 186.93872 -1.1702294 9.0284996
-70.330765 187.69632 -1.026351 9
-70.159447 188.92963 -1.1649024 10.04
-70.240562 185.85745 -0.65846479 10.06775
-70.188034 186.20184 -0.59213948 10.051126
-70.238503 186.53632 -0.75026792 9.0375004
-70.352524 188.45042 -0.40879202 10
-70.397171 186.17485 -0.29810745 9.0284996
-70.162956 188.71274 -0.095776327 9.5295
-70.191658 188.93228 -0.061254248 10.046124
-70.159492 189.27687 -0.33728647 10.0175
-70.035767 186.62581 0.26072231 11
-70.140343 188.07877 0.21001627 10
-70.322807 189.05002 0.024179963 10.0065
-70.145195 188.6609 0.68630886 10.105
-70.278511 188.90504 0.69897467 10.153
-70.302452 189.00514 0.90722919 10.0618
-70.267815 189.29463 0.84782016 10.041
-70.035057 188.12219 1.2848207 11.028
-70.364571 188.43347 1.2032311 11.029
-70.307541 188.18501 1.6839545 12.0435
-70.086357 199.0284 1.848869 10.152
-70.357849 200.20395 2.5736034 11.026
-70.28035 199.0426 3.0480263 12.03
-70.170273 199.41388 2.9152024 11.178
-70.100456 200.36354 3.1468692 12.0495
-70.199219 198.77705 3.4315259 10.60625
-70.172707 198.82729 3.3692658 11.1515
-70.179329 199.5123 3.5621011 11.58875
-70.214973 201.03671 3.4133513 11.088751
-70.294334 202.09993 3.3247473 12.0395
-70.169075 201.18814 3.710299 11.1505
-70.217613 201.77534 3.6528189 11.15075
-70.214012 198.39383 4.0831113 13.051
-70.317688 199.18073 4.0105872 13.041
-70.216393 199.4039 4.2410326 11.6513
-70.216522 199.85028 4.3356967 12.523
-70.274086 199.06137 4.5988088 12.78875
-70.193832 199.30507 4.6596951 11.1555
-70.319107 198.94954 5.1317854 12.428833
-70.03508 199.26068 4.9249582 13.063
-70.159058 199.17726 5.2231278 13.0205
-70.208 199.11137 5.6917 12.704666
-69.711197 191.31305 -5.7357221 6
-69.744888 184.97916 -5.5780706 6
-69.695892 191.5482 -5.2867141 7
-69.878311 209.78976 -5.4579134 7
-69.649063 191.55748 -5.0947847 7
-69.957962 191.70911 -4.9338284 7
-69.6408 180.37119 -4.4350982 7
-69.670166 191.14642 -4.4547267 7
-69.822495 191.55862 -4.6874871 7
-69.737709 191.68941 -4.4979734 7
-69.844322 180.13062 -4.2347488 7
-69.963364 191.37469 -4.1184425 8.1064997
-69.761009 191.619 -4.3723035 7
-69.748421 180.33197 -3.9842565 7
-69.887917 180.66251 -3.7380385 7
-69.803658 191.50302 -3.704994 8.0605001
-69.90332 191.83351 -3.7916944 8.0593328
-69.943436 191.46976 -3.3587961 8.0635004
-69.806412 191.60046 -3.3798006 8.052
-69.929314 186.34305 -2.8002307 8
-69.984276 185.42273 -2.6344194 8.0229998
-69.889336 185.66495 -2.4527435 9.0555
-69.905533 186.24606 -2.6262791 8.0362148
-69.699577 186.57045 -2.7752433 8
-69.704063 187.47301 -2.4385149 8.0365
-69.605865 191.10503 -2.6633384 8.0415001
-69.60379 191.37607 -2.4241264 8.0369997
-69.781967 191.84671 -2.5266805 8.0410004
-69.908829 192.57149 -2.5030892 9.0424995
-69.866585 185.54013 -2.2557278 8.0297499
-69.822067 185.79457 -2.278666 8.5522861
-69.750687 186.20363 -2.2360003 8.7313509
-69.750191 186.5351 -2.2082238 8.7817001
-69.922951 186.84074 -2.2838018 8.8930006
-69.865906 189.37761 -2.2796814 8.0345001
-69.807831 189.75867 -2.2839532 8.0345001
-69.685219 192.39433 -2.2212648 8.0360003
-69.861519 185.88556 -1.814909 8.5464993
-69.852814 186.18817 -1.8907399 8.8218002
-69.726189 186.59331 -1.8792959 8.7408581
-69.927795 186.94287 -1.815286 8.0231247
-69.983147 185.89529 -1.3295872 9
-69.809525 186.09782 -1.3609668 9.0090837
-69.763802 186.6125 -1.4025301 9.3940001
-69.80909 186.91847 -1.2748699 10.0405
-69.976669 187.85956 -1.5567676 8.0220003
-69.888512 185.88545 -0.88361037 10.0405
-69.821724 186.28825 -0.93102139 9.9589281
-69.863678 186.63393 -0.94041383 9.7573996
-69.876434 187.08505 -0.9495731 9.7088327
-69.817741 185.83752 -0.67677397 10.01175
-69.870079 186.54453 -0.73485041 9.2757492
-69.941017 185.96928 -0.25722572 11.045
-69.65844 188.85434 -0.24008045 9.0295
-69.696846 185.88806 0.27787817 10
-69.85453 188.18112 0.011409665 10.0265
-69.679489 185.79985 0.63109648 11
-69.732224 188.22511 0.74854666 10.0395
-69.896004 188.52902 0.41246209 10.028
-69.802689 188.27603 0.89044791 10.420667
-69.640007 188.51634 1.1487406 10.154
-69.848442 188.95473 0.93216199 10.033751
-69.886856 188.37552 1.4512807 11.0265
-69.73896 188.46475 1.4296184 11.027
-69.982941 198.84041 1.3774555 10.042
-69.759193 199.01462 2.3463471 12
-69.982819 199.99687 2.3994362 11.0265
-69.971878 198.82944 2.4164453 11.009
-69.835922 202.44797 2.6622851 11.0105
-69.770424 198.55338 3.0336411 11.1615
-69.910316 199.04858 3.1028373 12.063
-69.9039 199.00638 3.4424686 11.151
-69.91629 200.46399 3.2235191 12.0295
-69.611626 198.68283 3.9673784 12.0265
-69.778008 199.3999 3.6999948 12.0305
-69.683411 200.62721 3.8355393 11.041
-69.908142 199.55862 4.2295341 13.0505
-69.710358 199.77325 4.0580964 13.0405
-69.696518 201.50539 4.0975595 11.038
-69.701767 197.769 4.5625372 12.178
-69.719711 198.50014 4.4699893 13.04
-69.767097 199.12424 4.7236309 11.1575
-69.993179 199.22806 5.1047316 11.165
-69.783684 201.15143 5.1014276 13.062
-69.820328 199.07695 5.5896196 14
-69.869576 198.7876 5.8554802 12.036
-69.818878 198.93979 5.6761465 13.360833
-69.766678 199.32343 5.8211484 14.0505
-69.252571 180.00217 -4.8462815 7
-69.449013 191.7639 -5.0574608 7
-69.37236 180.22499 -4.7004991 7
-69.278999 180.57686 -4.6939974 7
-69.317513 180.8768 -4.517477 7.5555
-69.252861 181.64888 -4.6180453 7
-69.498215 191.12245 -4.5123863 7
-69.384323 191.8353 -4.6615286 7
-69.315773 197.25179 -4.755805 7
-69.366867 180.35876 -4.24124 7
-69.423515 180.51303 -4.233047 7.1517143
-69.383263 180.89651 -4.0940499 7
-69.362762 191.57825 -4.3221674 7
-69.236328 191.65671 -4.31599 7
-69.274605 180.17111 -3.8972108 7
-69.505585 180.43211 -3.7255654 7
-69.357819 191.806 -3.7081366 8.0524998
-69.368164 192.03613 -3.7989521 8.0459995
-69.20063 186.89902 -3.2977498 8.1125002
-69.358536 197.12863 -3.4534094 8.0545006
-69.202705 197.25586 -3.4847984 8.0614996
-69.406891 186.26465 -2.8539126 8.0053005
-69.363388 186.49283 -2.8995769 8
-69.412819 186.32356 -2.5690742 8.026
-69.381897 186.55794 -2.659646 8.0162916
-69.50602 187.50139 -2.537163 8.0404997
-69.303566 191.10718 -2.5877759 8.0407505
-69.495544 185.9845 -2.0816271 9
-69.500252 186.20239 -2.2397306 8.6773176
-69.418312 186.63342 -2.238297 8.6945591
-69.280678 186.88475 -2.1360528 8.5135002
-69.426048 187.52995 -2.2286825 8.0354996
-69.41095 186.18188 -1.7425189 8.6504993
-69.427544 186.69229 -1.828765 8.8948336
-69.277084 186.83189 -1.7984363 9.00875
-69.452164 187.80243 -1.6746114 8.0235004
-69.415375 186.20062 -1.316524 8.7925625
-69.392052 186.64735 -1.4200698 8.9446087
-69.307495 187.03323 -1.5639634 9
-69.398598 187.2999 -1.5389049 9
-69.513794 185.99753 -0.88828242 10
-69.390808 186.22197 -0.96896517 9.2880459
-69.289093 186.55266 -0.97466367 9.0264997
-69.343193 187.30168 -0.89011353 10.0535
-69.442772 185.93217 -0.68387359 9.800375
-69.317978 186.11539 -0.68707424 9.7395906
-69.339249 186.51845 -0.63583016 9.517333
-69.353119 187.0594 -0.73208088 10
-69.388802 187.24983 -0.71180749 9.5179996
-69.516159 188.52893 -0.68574131 9.0380001
-69.4459 186.94211 -0.24071871 10.0045
-69.500404 186.19173 0.21254514 10.285714
-69.325417 186.56871 0.20771959 10
-69.335556 186.11446 0.6856584 10.6
-69.259201 186.60489 0.71121711 10
-69.232079 186.20612 0.84432578 10
-69.421417 188.98813 0.98324227 10.037
-69.406593 189.24966 0.92080927 10.039
-69.590706 188.46234 1.6235867 11.026
-69.246727 198.9899 2.5482278 11.02475
-69.553642 200.67035 2.6554608 11.52925
-69.321938 198.44727 2.8857045 11.17
-69.488892 200.4382 2.962158 11.0245
-69.379608 199.23375 3.2461941 10.169
-69.569099 201.09906 3.3884652 12.036
-69.595512 198.65186 3.8866389 13
-69.316406 199.56087 3.7144578 11.0395
-69.353424 202.55113 3.9145591 11.0415
-69.273094 197.96593 4.5798731 13.0365
-69.328384 198.40126 4.4876943 12.0245
-69.456718 199.06616 4.6710458 13.0295
-69.301895 197.86224 4.9613152 13.062
-69.575821 198.08556 4.8384337 12.163
-69.35862 200.7619 4.8251276 13.049
-69.5215 201.95323 5.1563659 13.029
-69.080231 197.32539 -5.320868 7
-69.05233 180.18353 -4.8729391 7
-68.99157 180.64932 -4.8336759 7
-68.913719 180.84532 -4.9196811 7
-68.89344 191.99344 -5.124783 7
-68.899338 197.39059 -4.9593782 7
-69.027092 180.18518 -4.5521178 7
-69.079384 180.68967 -4.6784639 7
-68.927422 180.94543 -4.6094699 7
-68.975296 191.85841 -4.6344376 7
-69.056503 197.35486 -4.6514549 7
-69.02449 198.26875 -4.4160109 7
-69.005272 180.00342 -4.3266673 7
-69.143501 180.44254 -4.0699859 7
-68.923065 181.08824 -4.2753463 7
-68.838776 189.16641 -4.3456945 7
-69.106743 191.58578 -4.245348 7
-68.833969 191.80835 -4.2351675 7
-68.886963 197.31693 -4.2086058 7
-69.092918 180.86505 -3.9095416 7
-69.048508 191.71738 -3.9401302 7
-69.014069 192.08568 -3.8471303 8.0578337
-69.04335 197.36026 -3.7843468 8.0607777
-68.93866 186.75587 -3.3771095 8.1102505
-69.010521 186.82155 -3.3492906 8.1158333
-69.067505 191.85365 -3.4429359 8.0310001
-68.814232 198.38518 -3.4994221 8.0395002
-69.02272 186.29192 -2.889092 8.0043335
-69.067703 186.61374 -2.8544447 8
-68.954239 186.96027 -2.827117 8
-69.004974 187.75789 -2.8275816 8
-69.078049 186.29323 -2.6025202 8.0096426
-69.002281 186.64993 -2.6145573 8.1192255
-68.993217 186.86598 -2.6303186 8.1501255
-69.129166 188.30469 -2.6329627 8.1540003
-69.091431 191.1196 -2.5101964 8.0392494
-68.943291 191.20786 -2.4703102 8.0375004
-69.096893 186.38481 -2.3384464 8.1789999
-69.042648 186.64075 -2.2601049 8.6670361
-69.018745 187.00444 -2.2726669 8.3670835
-68.969398 189.50415 -2.1346462 8.0299997
-69.094894 191.14348 -2.3403223 8.0325003
-69.195374 186.3596 -1.9023154 9.1094999
-69.190033 186.69293 -1.6357753 8.5627499
-68.971115 186.96475 -1.835489 8.4018326
-69.056358 188.23587 -1.6228361 9.0124998
-69.094986 186.32462 -1.5206796 9.1099997
-69.04808 186.55537 -1.3696766 8.5138998
-69.020515 186.96078 -1.3642352 9.0098333
-69.008873 187.40977 -1.3425283 9.1341877
-69.097717 187.79117 -1.5621254 9.0105
-69.013985 186.24957 -0.98530769 9.9161348
-68.949127 186.60072 -0.99503291 9.5001354
-69.104233 186.33783 -0.6692152 10
-68.943947 186.57405 -0.67175364 9.6615582
-68.828972 186.95569 -0.59013641 9.5552502
-69.103706 187.43936 -0.68344605 10.0225
-68.845436 188.31485 -0.59109974 10.0665
-69.028244 186.58957 -0.29238844 10
-68.894081 187.03955 -0.39512402 9.1569996
-68.845757 186.20044 0.28669438 10.574607
-69.054001 186.5708 0.22784635 10
-69.0261 186.83583 0.24229336 10.702334
-69.070976 185.99225 0.7286393 11
-68.987534 186.23802 0.63538051 10.314438
-69.027916 186.55298 0.68680757 10.5
-69.188644 187.02991 0.67679721 10
-68.843323 186.15224 0.85534811 11
-69.089302 186.71362 1.042495 11
-68.885201 187.73772 0.88586396 10.037
-69.116554 188.88571 1.1343364 9.0155001
-68.900322 186.71574 1.4887654 12.0535
-68.881554 186.81831 1.4228489 12.043
-68.870026 198.05124 2.7322421 11.1775
-68.9804 198.97539 2.9483702 12.062
-69.043991 198.71936 3.4995 11.04125
-69.168472 198.82266 3.2609982 12.061
-68.884277 197.93173 3.9971507 12.0255
-69.089195 198.91151 3.7917724 12.033166
-68.937492 199.91359 3.9634466 11.0355
-68.925415 197.81885 4.2479424 12.537125
-68.813652 198.30756 4.3766875 13.0395
-68.994499 198.5867 4.1447167 12.0085
-69.038307 198.9736 4.1063962 13.0365
-68.877892 198.29878 4.7191076 12.426834
-68.867523 198.50812 4.5348525 12.913729
-69.047058 198.29033 4.8881769 13.0605
-68.907677 198.47008 4.8680711 12.11025
-68.853157 200.20273 4.9730382 12.0255
-69.062965 200.61513 5.0631485 12.1735
-69.050011 197.99042 5.3579187 12.0415
-68.628166 181.43233 -5.3206425 6
-68.566055 180.17754 -4.9475808 7
-68.597839 192.26778 -4.8273454 7
-68.723137 180.13766 -4.5100808 7
-68.67968 180.54916 -4.5402789 7
-68.624458 180.92058 -4.6581645 7
-68.779663 191.68646 -4.5587664 7
-68.647728 198.09131 -4.5579047 7
-68.73597 188.62369 -4.0464334 8.1070004
-68.665314 191.54016 -4.3070784 7
-68.55632 191.73569 -4.028018 7
-68.568123 182.18942 -3.7835062 7
-68.519287 188.09253 -3.7038805 8.0722504
-68.423706 191.22447 -3.7240207 8.0380001
-68.435585 181.44647 -3.3360305 8.0450001
-68.538849 186.7179 -3.2348146 8.1169996
-68.450577 188.48145 -3.4328296 8.0314999
-68.622894 189.06725 -3.4123797 8.0419998
-68.451164 198.80344 -3.4457915 8.0489998
-68.586548 186.78159 -3.0122464 8.0124998
-68.556915 187.02002 -2.9275043 8
-68.692619 186.35446 -2.4557922 8
-68.538551 186.57033 -2.6114929 8.0153008
-68.674149 186.90958 -2.6424723 8.3232269
-68.49839 187.29655 -2.5679452 8.333333
-68.596596 186.33672 -2.2624466 9.0071774
-68.62262 186.54836 -2.2787671 8.6460581
-68.744514 186.8436 -2.2959569 8.0780001
-68.437798 185.67503 -1.8301376 9.033
-68.522385 186.63625 -1.8732187 8.6975002
-68.629112 186.97568 -1.8774022 8.0223331
-68.55677 187.72133 -1.7613107 9.0436668
-68.573273 186.63922 -1.4291925 8.4119005
-68.609512 186.9305 -1.3171289 9.0302696
-68.590996 187.45081 -1.3390461 10.009875
-68.528084 187.79498 -1.2777311 9.75
-68.599701 186.26721 -0.90670031 10
-68.609077 186.67223 -1.0043049 9.8336697
-68.585938 186.93182 -0.97964132 9.2250004
-68.694313 187.39847 -1.0244207 9.1540003
-68.568947 187.87747 -1.0314623 9.8874989
-68.60202 188.76413 -0.87838906 10.0665
-68.433037 186.38475 -0.58318156 10
-68.646523 186.64931 -0.63094103 9.6920834
-68.586586 186.90518 -0.62829536 9.3899088
-68.510956 187.32516 -0.67844439 9.725667
-68.647545 188.29657 -0.66572881 10.065
-68.659019 186.57639 -0.16730069 9.8360004
-68.534615 187.05371 -0.25709075 9.8642998
-68.697937 187.59268 -0.19762284 11
-68.516487 187.62708 -0.20400101 11
-68.623077 186.36311 0.28411138 10.947369
-68.551521 186.6214 0.232361 10.574478
-68.594101 186.96039 0.27014089 10.689094
-68.493233 187.69453 0.36324403 10
-68.766937 186.29771 0.61236757 11
-68.641678 186.55708 0.63115698 10.368421
-68.565079 186.88477 0.61479342 10.461389
-68.656746 187.82281 0.50252008 9.0235004
-68.624657 188.05923 0.64351708 9.5235004
-68.67421 186.26941 0.81431651 10.0355
-68.516792 186.68874 1.0047925 10.76725
-68.587364 186.90337 0.94679832 10.8284
-68.443504 187.28369 1.0066581 10
-68.477249 186.50571 1.5070224 12
-68.589622 186.91016 1.2252165 11.0265
-68.535255 188.32756 1.2719005 11.01
-68.445595 190.11128 1.7741759 12.0415
-68.590553 199.09134 2.7411602 11.024
-68.588966 199.52177 2.4012685 12.0435
-68.557297 199.83759 2.6145236 11.0245
-68.484932 200.16742 2.5218983 11.008
-68.76619 200.52826 2.6760244 12.036
-68.715286 198.58261 2.9617231 11.165166
-68.599586 199.32263 2.9590621 11.1695
-68.782936 201.40944 2.8028231 11.024
-68.5672 197.98935 3.3435798 11.591
-68.599533 198.11075 3.4280763 11.128876
-68.743851 198.93991 3.4654186 11.09525
-68.479248 199.94052 3.3805671 11.15
-68.531593 200.27534 3.4072299 11.1505
-68.600731 197.9413 3.8474078 12.020833
-68.427246 198.19588 3.9151418 13.05
-68.658806 198.8392 3.8782065 11.0945
-68.555443 198.5022 4.2535691 11.153
-68.580582 200.50586 4.3107581 12.537251
-68.544525 202.09103 4.1115499 11.0385
-68.73632 198.71133 4.5509315 12.1085
-68.750504 198.81247 4.683084 13.036
-68.590492 199.94431 4.7653742 13.0615
-68.468628 200.12482 4.7855701 12.024
-68.665306 200.42966 4.5003552 12.0245
-68.591591 198.50259 5.1124525 11.166
-68.558891 200.08612 4.9375057 11.159
-68.060425 182.14149 -5.2043023 6
-68.010368 207.08536 -5.3616724 7
-68.174294 192.18373 -5.1367803 7
-68.086128 188.60002 -4.6529031 7
-68.257965 191.60789 -4.573761 7
-68.12738 198.43246 -4.7666478 7
-68.064377 181.57674 -4.0743928 7
-68.242241 181.88478 -4.2445793 7.4382005
-68.320145 182.30418 -4.0230327 7
-68.028267 188.99344 -4.3571105 7
-68.275696 191.0137 -4.2613263 7
-68.279808 191.42844 -4.233634 7.553
-68.359261 191.69669 -4.2298822 7.5535002
-68.206841 181.93175 -3.7799909 7.5227499
-68.017769 182.61481 -3.9484406 7
-68.081856 192.55714 -3.8174493 8.0644999
-68.116211 198.90277 -3.8165183 8.0360003
-68.383224 181.93169 -3.3083079 8.0555
-68.04818 182.09364 -3.5851128 8.0559998
-68.341736 185.91307 -3.2766645 8
-68.123482 186.21907 -3.2817583 8.0389996
-68.365166 187.15279 -3.5752089 8.1094999
-68.138794 187.65846 -3.2893171 8.0384998
-68.03437 188.95177 -3.2965043 8.0380001
-68.32402 191.57147 -3.4591167 8.0531254
-68.261116 192.39038 -3.5109761 8.0655003
-68.258499 185.93231 -3.0128598 8
-68.202019 186.26677 -3.0113626 8
-68.206459 186.95111 -2.9228771 8.0082865
-68.138626 187.24649 -3.038681 8.0132504
-68.119598 187.66406 -2.9622767 8
-68.294258 186.27115 -2.6619308 8.0085001
-68.208733 186.57904 -2.5454996 8.0273123
-68.132103 187.11462 -2.5290639 8.3472223
-68.229385 187.29163 -2.6084888 8.1549997
-68.034195 189.28139 -2.7183189 8.026
-68.208443 185.83745 -2.1151557 8.8964167
-68.186462 186.62711 -2.2808983 8.8572254
-68.125336 186.88126 -2.2771263 8.541625
-68.356392 187.25653 -2.234972 9
-68.375938 190.73448 -2.1797903 8.0295
-68.182716 186.27141 -1.866757 8.7244997
-68.094116 187.27876 -1.603775 9
-68.23877 185.55107 -1.5079745 9.0264997
-68.029907 185.99174 -1.5700146 9.0270004
-68.06649 186.68127 -1.5743567 9.0054998
-68.204521 187.08676 -1.410169 9.0274
-68.16922 187.26736 -1.4456705 9.5117502
-68.082413 188.0498 -1.2871923 9.1709995
-68.118332 185.28209 -1.1035781 10.043
-68.263924 186.66896 -1.0400786 9.4204998
-68.247131 187.01408 -1.0173968 9.7390099
-68.240211 187.28635 -0.94798791 9.333333
-68.063454 188.19305 -1.0650449 9.1529999
-68.298943 186.76303 -0.60324085 9.2585001
-68.246239 186.93672 -0.70827562 9.6065998
-68.395653 187.20134 -0.63560814 9
-68.117081 186.68623 -0.21029161 9.5911255
-68.156128 186.99765 -0.25584918 9.5197144
-68.252403 187.32153 -0.25168005 10.032
-68.042885 187.93439 -0.31185144 9.1127501
-68.20726 186.72353 0.17398064 10.544658
-68.125237 186.91144 0.28281426 10.853735
-68.211189 186.39587 0.58881027 10
-68.234451 186.66223 0.60050029 10.496412
-68.175613 186.94029 0.62826288 10.42
-68.213486 186.65601 0.84614801 10.290929
-68.216888 187.00125 1.0659857 11.0054
-68.046005 188.55322 0.80187994 11.066
-68.315254 190.29535 0.87872404 11.067
-68.193512 186.87151 1.3338212 11.7035
-68.263145 188.25983 1.5451941 12.042
-68.038322 199.72629 2.3417923 12.0395
-68.34536 200.20612 2.3911626 11.01
-68.226158 199.53108 2.5479386 11.0035
-68.186241 198.38457 3.1423914 11.15
-68.003067 198.46918 3.0563409 10.11
-68.053909 199.44403 3.1040926 11.026
-68.309738 199.60553 2.8855717 11.177
-68.127983 198.21811 3.3849776 11.403333
-68.195053 198.24612 3.6935215 11.706
-68.348831 198.9501 3.9044847 13.0435
-68.293045 199.0824 4.2081318 12.530001
-68.191147 199.27994 4.1409993 12.009001
-68.062195 199.08379 4.6869888 12.749333
-68.236298 199.64447 4.4064384 12.0035
-68.259941 200.2722 4.583931 11.1545
-68.01358 199.35541 5.1130085 12.159
-68.294556 201.09985 5.6749334 12.029
-68.196121 198.96887 6.0688748 14.039
-67.61953 180.04068 -5.2334118 6
-67.612419 190.96625 -5.2694397 7
-67.748177 180.32568 -5.1992378 6
-67.820862 191.29916 -4.9233809 7
-67.836212 192.16144 -4.8068314 7
-67.708519 182.18137 -4.6572762 7
-67.947006 188.96523 -4.434895 7
-67.722313 189.27823 -4.6780643 7
-67.752037 191.03334 -4.4992719 7
-67.869209 191.82196 -4.4732409 7
-67.709763 181.98755 -4.0586681 7
-67.750885 182.15996 -4.2803502 7
-67.75515 188.9825 -4.2060871 7
-67.908752 190.69185 -4.3373294 7
-67.75872 191.64157 -4.3290977 7.5542498
-67.743767 181.8465 -3.7043128 7.5244999
-67.770386 182.112 -3.6992545 8.0450001
-67.763756 183.18271 -3.996279 8.1140003
-67.698311 188.09662 -3.7250865 8.066
-67.668404 190.43051 -3.7950654 8.0734997
-67.794151 191.45572 -3.770071 8.0605001
-67.961212 192.64886 -3.68204 8.0625
-67.907875 181.56326 -3.3417003 8.0445004
-67.71022 186.25885 -3.4294212 8
-67.635162 186.44608 -3.3489664 8
-67.744736 189.01625 -3.3967433 8.0465002
-67.961609 189.53665 -3.4389846 8.0640001
-67.771736 191.7122 -3.3114209 8.0369997
-67.667839 186.17331 -2.8189852 8.0762501
-67.787689 186.51295 -2.9074275 8
-67.75824 186.95016 -2.8026576 8.1709995
-67.822182 187.3282 -2.8809016 8.0506668
-67.982811 187.62148 -2.9578433 8
-67.959267 189.48518 -3.0022168 8.0314999
-67.673592 185.82019 -2.6857877 8.0319996
-67.754219 186.26933 -2.6295128 8.1529999
-67.70266 186.60031 -2.6266918 8.4034996
-67.730049 186.90173 -2.4839153 9
-67.894989 187.24249 -2.539345 8.5194998
-67.803619 189.46309 -2.7810051 8.0220003
-67.655273 191.38138 -2.7537298 8.1514997
-67.677635 185.47296 -2.1923289 9.0407495
-67.908096 185.92955 -2.1720026 8.5412493
-67.773056 186.11855 -2.2959111 8.7218494
-67.842468 186.6799 -2.2684116 8.7677393
-67.889664 186.92418 -2.2734184 8.9403467
-67.947227 190.75354 -2.0541828 8.0272503
-67.854942 185.8557 -1.8681637 8.0229998
-67.744743 186.34312 -1.8554425 9.0165005
-67.831635 186.65158 -1.6259711 9
-67.804886 186.91672 -1.7606249 8.6743326
-67.78244 185.85202 -1.4967637 9.0168333
-67.701355 186.15976 -1.468738 9.0124998
-67.820229 186.68301 -1.4535784 9
-67.740326 186.91383 -1.4184484 8.7551432
-67.748085 187.38002 -1.5964209 9.0545006
-67.95266 188.15527 -1.4514868 8.0194998
-67.705307 188.84796 -1.5475181 9.0270004
-67.789032 189.79349 -1.3338352 9.0947495
-67.656456 186.20921 -1.0032147 8.1549997
-67.868401 186.79648 -1.001255 10
-67.793083 186.97182 -1.0215267 9.9102859
-67.735321 187.30956 -1.0885534 9.4609003
-67.808273 188.34506 -0.9767648 9.7519999
-67.843307 186.74657 -0.66007978 9.8835001
-67.840897 186.96104 -0.65635657 9.5864544
-67.737869 186.20055 -0.3018055 10.004333
-67.829002 186.7301 -0.24577108 10
-67.803276 186.92519 -0.1551259 10.666667
-67.811943 187.20218 -0.21427263 9.5804996
-67.714157 187.97421 -0.077890873 9.1160002
-67.622894 185.59862 0.038813464 11.0425
-67.796013 186.73099 0.17212181 11
-67.764374 186.97205 0.21522826 10.81876
-67.701927 187.37248 0.22607809 11
-67.928764 187.9415 0.24866816 9.0035
-67.706024 188.032 0.33971977 10.907334
-67.926468 186.74155 0.62518531 10.833333
-67.868462 186.94077 0.59568572 9.9465723
-67.795959 187.47417 0.58551937 10.5187
-67.789566 187.89989 0.57576042 10.630714
-67.730125 188.0945 0.59624541 10.615
-67.779465 188.69145 0.59668732 9.6998339
-67.61203 188.8555 0.72129357 10.1575
-67.858894 186.63045 0.86972517 10.75
-67.931679 187.1506 0.90995353 12.043
-67.81974 187.44055 1.033076 11.282001
-67.760277 187.89676 0.92516357 11.555
-67.656891 188.75723 1.1238402 12.046
-67.749336 186.99728 1.3646517 11.51275
-67.681236 187.47845 1.2162285 10
-67.854958 190.60715 1.3421082 12.0455
-67.67144 199.75259 2.5370603 12.0355
-67.614471 197.7662 2.9519684 11.159
-67.92057 198.21112 3.5284953 11.1505
-67.823631 198.36176 3.8580861 12.0255
-67.735374 198.92694 3.8119214 13.0395
-67.633583 199.54448 3.6639817 11.0395
-67.656937 201.68997 3.6939375 11.165
-67.943558 198.18607 4.2994876 13.039
-67.845322 199.52673 4.2889152 11.1525
-67.854927 202.20786 4.2031603 11.1505
-67.810715 199.26318 4.4769049 12.318501
-67.838417 201.76173 4.7293878 12.514787
-67.781441 202.51849 4.794179 13.0585
-67.773605 199.15945 4.8000221 12.025
-67.699112 199.33134 4.8514514 13.059
-67.761215 198.80745 5.3536892 12.156
-67.755341 199.20561 5.5561767 12.1535
-67.237968 191.62102 -5.7060761 6
-67.553719 206.1573 -5.848803 7
-67.531715 180.6142 -5.2570424 6
-67.424225 181.1955 -5.3248105 6
-67.350166 181.36456 -5.3050351 6
-67.286903 182.4758 -5.3795972 6
-67.347763 184.13153 -5.4724202 6
-67.221573 188.95882 -5.296401 7
-67.298965 190.09802 -5.3458877 7
-67.506386 190.85666 -5.3283567 7
-67.454414 180.13721 -5.0519414 6
-67.588768 182.30122 -4.9890776 7
-67.490288 182.64018 -4.9954758 7
-67.457993 189.06563 -5.0002279 7
-67.287086 189.38974 -4.9801168 7.3693333
-67.273514 189.97884 -4.9253449 7
-67.364502 190.2263 -4.8506289 7
-67.283272 190.64723 -4.9256802 7
-67.49585 191.04135 -5.0147018 7.1845832
-67.419838 181.91014 -4.5965352 7
-67.502205 182.29872 -4.6969829 7
-67.46402 182.45685 -4.6680703 7
-67.403137 182.97105 -4.7096701 7
-67.207039 189.00482 -4.4668403 7
-67.293846 189.35619 -4.5229778 7
-67.437683 190.39616 -4.6033072 7
-67.449142 190.46666 -4.6373382 7
-67.451538 191.02277 -4.4905353 7
-67.248184 191.39812 -4.7626605 7
-67.257675 191.77666 -4.6114554 7
-67.405067 181.87573 -4.0910087 7
-67.43103 182.22746 -4.15341 7
-67.377403 182.47342 -4.302773 7.2728748
-67.436951 186.65747 -4.1414156 8.1089993
-67.244606 187.32906 -4.0356259 8.1094999
-67.493446 188.27431 -4.0303864 8.1075001
-67.491669 188.6205 -4.0377717 8.1105003
-67.31456 189.28647 -4.2417874 7
-67.287743 189.92619 -4.2228155 7
-67.466141 190.34442 -4.1612659 7
-67.537453 190.43684 -4.2878737 7
-67.512627 191.23114 -4.1354756 7
-67.523468 181.42294 -3.912432 7
-67.234917 181.814 -3.9926143 7
-67.360832 182.13612 -3.7494528 7.6963334
-67.501282 182.6756 -3.7096512 8.0445004
-67.252487 188.3338 -3.6384687 8.0648069
-67.324356 189.38449 -3.6678824 8.0592861
-67.328033 190.5027 -3.7885149 8.0649996
-67.417938 191.48006 -3.8366024 8.0655003
-67.544777 181.95335 -3.3487365 8.0439997
-67.409096 182.08058 -3.5887597 8.0555
-67.498711 186.32759 -3.5920107 8
-67.505554 186.64955 -3.502876 8.050806
-67.589767 187.96408 -3.4584904 8.066
-67.388222 188.20145 -3.4062452 8.0644999
-67.206116 188.57892 -3.2982674 8.0375004
-67.574043 189.72803 -3.4254568 8.0305004
-67.435287 190.36972 -3.4965513 8.066
-67.44664 190.59302 -3.5551696 8.1149998
-67.416145 191.05875 -3.4393075 8.0404997
-67.374374 191.35364 -3.4632049 8.06425
-67.441086 191.88828 -3.4316039 8.0550003
-67.501839 186.0878 -2.8568769 8.1639996
-67.566673 186.63794 -2.8409407 8.0264997
-67.239304 187.05325 -2.8975711 8.0435009
-67.416603 187.37286 -2.9878483 8.0762501
-67.400787 185.55203 -2.7468886 8.0229998
-67.389008 185.71643 -2.5541358 8.2873001
-67.290192 186.18573 -2.5246758 8.0389996
-67.461876 186.51457 -2.7695363 8.0762501
-67.311752 186.99648 -2.6251907 8.0552502
-67.48465 187.53122 -2.4690912 8.1669998
-67.547234 190.9635 -2.5428183 8.1534996
-67.307533 193.27832 -2.7107842 8.1505003
-67.372955 185.76981 -2.2521875 8.0332508
-67.357132 186.27603 -2.1865113 8.5395002
-67.395584 186.54364 -2.2800486 8.8704824
-67.464249 186.94057 -2.1509991 8.2327499
-67.282959 187.37405 -2.3413348 8.7143335
-67.265099 189.74219 -2.3577263 9.0625
-67.400345 185.73376 -1.9449183 8.5645008
-67.577675 186.31165 -1.9361117 8.0089998
-67.39254 186.65247 -1.801217 8.0970001
-67.41275 187.06972 -1.6705583 8.5109997
-67.365799 187.22716 -1.6524332 8.0132504
-67.586784 185.58702 -1.5156726 9.026
-67.373436 185.78967 -1.3638678 9.5397501
-67.43306 186.05052 -1.5131528 10.043
-67.266563 186.49615 -1.3984843 9.1094999
-67.432396 187.04575 -1.3678942 8.8657141
-67.407944 187.31056 -1.3698493 9.3696661
-67.525352 188.61137 -1.243751 10.0525
-67.404984 188.9834 -1.4353771 9.5232506
-67.557831 185.60471 -1.0589776 10.053
-67.483925 186.50931 -0.93118423 10
-67.378166 186.98033 -0.94944471 9.5431004
-67.31443 187.37662 -0.9597702 9.6793337
-67.436676 187.8196 -0.99590051 10.0415
-67.398773 188.18391 -0.9832775 9.0279999
-67.425308 186.26567 -0.61601818 10
-67.444649 186.77612 -0.58344263 9.0167503
-67.254448 186.92935 -0.74391508 9.0349998
-67.327797 185.873 -0.3194747 10.0265
-67.397743 186.31444 -0.18214054 10.0125
-67.2938 186.66754 -0.28630537 11.0465
-67.250816 186.98781 -0.35733759 10.0115
-67.462273 187.41257 -0.13860242 10.542125
-67.351532 186.19479 0.14293538 11.04025
-67.522446 187.02229 0.25439787 10.542875
-67.593834 187.54337 0.061266571 10
-67.43148 187.8132 0.30126959 10.5149
-67.43959 188.14536 0.22513106 9.392333
-67.376923 188.57382 0.2402261 10.819209
-67.223457 185.99301 0.43297496 10.1535
-67.571732 186.82704 0.59148186 10.1525
-67.259132 187.76355 0.74774694 10.53475
-67.328697 188.10449 0.60481501 10.667786
-67.315964 188.40544 0.50406671 10.1515
-67.562714 187.19958 0.90870899 9.0105
-67.455696 187.39272 1.0359098 10.815901
-67.466286 187.74112 0.95669585 10.784625
-67.452187 188.04846 1.0598456 11.027
-67.363281 189.01962 0.92061585 10.077666
-67.583603 189.32121 0.85687679 10.155
-67.501999 187.16049 1.424746 12
-67.470474 197.83759 2.7708583 11.173
-67.503952 199.38469 2.4081883 11.0245
-67.558731 197.74139 2.9762428 11.15675
