# .PCD v0.7 - Point Cloud Data file format
VERSION 0.7
FIELDS x y z intensity
SIZE 4 4 4 4
TYPE F F F F
COUNT 1 1 1 1
WIDTH 1226
HEIGHT 1
VIEWPOINT 0 0 0 1 0 0 0
POINTS 1226
DATA ascii
-140.49185 -106.67413 14.507185 10
-140.54245 -107.5198 15.016726 12.656
-140.5329 -106.89587 14.808249 13.152
-140.60205 -106.63197 14.894719 12.65575
-140.76959 -110.78469 15.56033 13.152
-140.71826 -108.09323 15.240895 13
-140.75427 -107.08237 15.316543 13.154
-140.51407 -106.80519 15.61287 12.164
-140.53731 -107.68105 16.04529 14.1485
-140.49361 -107.48949 16.322979 14.151
-140.51863 -108.94148 16.647785 11.178
-140.59407 -107.55099 16.40568 14.1515
-140.69028 -108.88317 16.875715 11.036
-140.25894 -106.11045 7.5949702 8
-140.11557 -107.52173 7.6361847 8.1700001
-140.11273 -107.29278 8.1801338 8.1025
-140.27664 -107.12671 8.3287621 8.1789999
-140.2388 -107.00057 8.6888981 9.1195002
-140.10254 -105.63093 8.7695837 9.1520004
-140.05548 -105.50521 8.4654198 8.1767502
-140.33841 -104.85743 8.7066431 9.0500002
-140.18831 -104.72301 8.5452318 8.17875
-140.21953 -105.72803 8.9840288 9.0513334
-140.31412 -105.45905 9.0774269 9.1044998
-140.06078 -104.41503 9.0372448 9
-140.05998 -104.04443 9.0529575 9
-140.29622 -105.25393 9.3788624 9.1674995
-140.34549 -104.32432 9.2213202 9.1639996
-140.21976 -106.17902 9.7752447 9
-140.10651 -105.92869 9.8173485 9
-140.2428 -104.29495 9.9741592 10.149333
-140.37534 -105.84786 10.355546 10.154
-140.08176 -105.55256 10.20826 10.1535
-140.17218 -104.50922 10.043097 10
-140.34894 -104.37988 10.021331 10.075251
-140.36606 -108.08688 10.478199 10.1525
-140.26996 -104.85275 10.673086 10.15625
-140.24484 -104.6616 10.576116 9.5957499
-140.01949 -105.38 10.946062 10
-140.14343 -104.98815 10.853224 10
-140.22804 -104.66698 10.968501 9.6254292
-140.34071 -104.33732 10.919065 11.13
-140.24095 -105.011 11.408728 10.822333
-140.19455 -104.61584 11.382921 10.866375
-140.13066 -107.66167 11.910389 11.153
-140.03947 -107.15562 11.622017 11.1025
-140.0089 -105.30765 11.988133 10
-140.19711 -104.85838 11.871584 10
-140.02032 -104.90995 12.15337 11.155
-140.36528 -105.84332 12.445888 11.1555
-140.14435 -105.22746 12.682486 11
-140.24678 -105.0122 12.629204 11.0629
-140.19147 -106.22559 13.179621 12.1525
-140.24013 -105.85579 13.069352 12.151501
-140.09424 -105.10995 12.811846 11
-140.01151 -108.09624 13.380781 12.1515
-140.03957 -107.87637 13.23392 11.1595
-140.30228 -106.01115 13.580787 10.1785
-140.25632 -105.72767 13.356944 11.118
-140.39352 -106.04003 13.622993 11.1675
-140.05148 -106.67255 14.279202 11
-140.12674 -106.06798 14.308077 13.149
-140.16342 -105.98161 14.386258 12
-140.13983 -107.68313 14.958227 13.15275
-140.09718 -107.47993 15.070769 13.051333
-140.38109 -106.55524 14.985093 12.16
-140.07933 -107.34697 15.433165 12.16675
-140.21448 -106.93616 15.366252 12.1625
-140.37619 -107.95259 15.737493 13.155
-140.1481 -107.32069 15.883383 13.1555
-140.10657 -107.6824 16.215837 14.1505
-140.1851 -107.32284 16.174986 12.664
-140.25095 -108.68607 16.574829 12.17
-140.22383 -107.63551 16.680983 14
-140.22211 -107.57551 16.608797 14.0765
-139.91953 -106.09071 7.5855331 8
-139.93596 -107.37366 8.225647 8.1789999
-139.91299 -110.80652 8.7932243 8.1785002
-139.66733 -105.74105 8.5424805 8.1785002
-139.82547 -105.53067 8.4765892 8.1777496
-139.7899 -104.74216 8.412941 8.0172501
-139.85954 -104.0193 8.6124353 8.1785002
-139.94012 -106.90998 8.8418856 9.1540003
-139.72623 -104.11125 8.9762983 9
-139.74713 -105.23121 9.5594864 10.1225
-139.74734 -104.33725 9.4962349 9.1700001
-139.86174 -103.82499 9.5065393 10.125667
-139.71854 -105.3754 9.7069588 10.12875
-139.72256 -104.54023 9.9452171 10.148999
-139.85612 -104.33276 9.8329821 9.6637497
-139.66933 -103.83221 9.8885326 10.12425
-139.73422 -115.57816 10.09436 9.1029997
-139.86749 -104.88264 10.325114 9.6665001
-139.86307 -104.76025 10.022995 10.1495
-139.76131 -104.96387 10.638783 10
-139.75198 -104.74586 10.695016 10.157
-139.72725 -112.07607 10.909678 10.1545
-139.80872 -105.70499 10.926292 10
-139.72234 -104.77834 10.863606 10
-139.75488 -104.21852 10.901096 9.4140711
-139.60075 -105.38599 11.378649 11.149
-139.85115 -104.58712 11.348392 10.7255
-139.98822 -105.83213 11.915743 10
-139.73329 -108.9939 12.016754 11.1525
-139.83293 -105.64326 12.028194 10.1775
-139.70177 -104.76873 12.359451 11
-139.73712 -106.2173 12.590906 11.158
-139.90169 -105.46768 12.59293 11
-139.85786 -105.07376 12.796471 11
-139.90508 -108.02209 13.045074 10.179
-139.77597 -107.95114 13.212531 12.15
-139.72989 -106.05022 13.420783 10.672501
-139.99057 -105.7515 13.268652 11.163
-139.97369 -106.53182 13.859221 10.6735
-139.76268 -105.88566 13.677174 10.1775
-139.82434 -107.24828 14.374984 11.1745
-139.79607 -106.93544 14.101463 10.1765
-139.95517 -106.75945 14.39617 10.1785
-139.65495 -106.27883 14.393392 10.0155
-139.88881 -105.97602 14.345737 12.575
-139.9892 -107.39019 14.568836 11.1775
-139.9489 -106.49355 14.55797 13.1515
-139.69447 -106.24466 14.421975 11.444833
-139.95189 -107.18777 15.176407 11.1785
-139.8194 -106.79436 14.963531 12.1595
-139.79028 -107.28333 15.340204 11.179
-139.8683 -107.17846 15.994549 11.179
-139.79759 -108.71114 16.772375 11.177
-139.84286 -107.68305 16.60087 11.1775
-139.97365 -107.35799 16.537441 13.158
-139.73883 -109.07606 17.226589 13.159
-139.45486 -107.07023 8.6167307 8.1782494
-139.49532 -105.63229 8.5584717 8.1225004
-139.21806 -105.31479 8.4720011 9.1190004
-139.34633 -105.15894 8.4677324 9.1329994
-139.40085 -108.893 8.8482103 9.1370001
-139.24162 -107.32211 8.8292284 9.1540003
-139.31439 -106.15621 9.1037951 9
-139.42542 -105.72509 9.0430498 9.0802498
-139.45877 -105.39545 9.0271235 9.0787506
-139.33981 -104.56196 9.019598 8.8161249
-139.51289 -104.27929 8.9481335 8.8318996
-139.44392 -103.86308 9.0371885 9
-139.35477 -104.90854 9.4379272 9.0970001
-139.41704 -104.21911 9.20399 9.1660004
-139.46214 -105.86631 9.7220116 10.127
-139.27094 -105.54398 9.7103758 10.1125
-139.24692 -105.17942 9.7954168 10.105
-139.45522 -104.50434 9.8061438 9.6625004
-139.43919 -103.85641 9.7263784 10.10625
-139.55096 -114.79084 10.276612 9.1009998
-139.54848 -105.06236 10.048875 10.1525
-139.31149 -109.85985 10.585084 10.151
-139.371 -104.81797 10.603156 10
-139.20474 -104.49574 10.611533 10.157249
-139.21352 -103.97083 10.727959 9.0299997
-139.39162 -113.80672 11.140134 10.156
-139.20303 -106.14384 11.036184 10
-139.23288 -105.33686 11.079114 10.1
-139.3954 -105.15685 10.902434 10.08
-139.36714 -104.11115 10.857365 9.3423996
-139.22459 -103.97407 11.098297 10
-139.32164 -106.20302 11.594841 11.1525
-139.422 -105.8166 11.502124 11.151
-139.59506 -105.27926 11.480764 11.152
-139.39946 -105.12993 11.233019 11.148
-139.33589 -104.57075 11.327089 10.7274
-139.39973 -104.18484 11.431214 11.1535
-139.52155 -104.49223 11.753758 9.5885
-139.50328 -106.45495 12.079536 10.1725
-139.29868 -104.90598 12.226771 11.07775
-139.58592 -105.5751 12.707912 11
-139.39993 -105.04056 12.726782 11.383
-139.40834 -106.1677 13.398292 11.1645
-139.44864 -105.81374 13.525607 10.672833
-139.46609 -105.82618 13.861201 11.166
-139.41902 -107.21916 14.349807 11.1765
-139.56197 -107.13756 14.373541 11.1725
-139.38132 -106.14967 14.153111 13.149
-139.49922 -105.82133 14.004186 12.156
-139.47664 -106.82746 14.517982 11.58125
-139.55623 -106.25997 14.766011 10.0025
-139.44435 -107.37685 14.877421 10.0085
-139.41112 -106.9158 14.949451 12.160333
-139.20879 -106.51687 15.100892 12.1625
-139.41008 -106.18559 15.452037 12.1645
-139.5195 -107.0384 15.819419 12.167
-139.50545 -107.25615 16.105444 11.179
-139.54616 -107.11173 16.252647 11.1785
-139.30914 -106.79247 16.021776 14.152
-139.27023 -109.21001 17.122149 11.1765
-139.28244 -108.37958 16.872969 12.1765
-139.22456 -107.43642 16.855877 14.155
-139.22713 -109.31602 17.302481 11.1775
-139.13489 -110.55576 7.5891232 8.165
-138.89383 -104.22677 7.40063 8.0349998
-138.92456 -104.4329 8.3195486 9.0625
-138.96719 -104.12335 8.2092199 8.6549997
-139.19667 -106.15755 8.7567625 8.0004997
-138.85176 -104.44809 8.5648527 9.1497498
-138.91963 -104.30307 8.5850945 9.1141243
-138.912 -103.94253 8.4635725 9.1459999
-139.17059 -110.84024 9.1419268 9.1545
-139.11554 -105.9432 9.1615782 9.0795002
-138.88597 -104.59068 9.1953287 9
-138.96397 -104.31245 9.0805349 9.0812502
-139.12459 -103.87453 9.1551046 9
-139.09837 -110.78822 9.2058516 9.1560001
-138.81334 -106.32616 9.219883 9.1599998
-138.95462 -104.48591 9.3499098 9.4266663
-138.90559 -104.11419 9.3314638 9.0974998
-139.15707 -103.6428 9.5496817 10.118
-138.85396 -111.57912 9.8163986 9.1009998
-138.94452 -106.11419 9.7426214 10.113
-138.88412 -104.86251 9.9720354 10
-138.94621 -104.58161 9.930006 10.1005
-139.14758 -104.19203 9.7759829 10.067249
-138.88419 -103.88156 9.6785851 10.101
-138.80463 -109.7443 10.105622 10.1295
-138.80862 -104.28269 10.358236 9.0349998
-139.03912 -104.90767 10.598818 10
-139.05801 -104.63968 10.615954 10.561251
-138.80023 -104.37081 10.603779 10.1575
-138.85226 -103.97234 10.407113 10.1555
-138.82816 -111.72651 10.810002 10.1545
-138.92285 -106.98592 11.155122 10.16
-139.086 -106.11625 11.070288 10.08125
-138.88068 -105.27901 10.970065 11.13575
-138.95607 -104.24129 10.987756 9.8591995
-138.99719 -103.55033 10.853548 11.1435
-138.98535 -109.89677 11.415095 10.1595
-139.02411 -106.4854 11.564415 11.1515
-139.14076 -106.26966 11.52306 11.1345
-138.96414 -104.65803 11.359324 11
-138.99283 -104.20126 11.330335 11
-138.96091 -103.89873 11.332874 9.0004997
-139.12282 -107.43964 11.717206 11
-139.12099 -107.10921 11.879117 11.1545
-138.87523 -104.30991 11.728908 11.155
-139.07785 -104.87437 12.164749 11.15625
-139.16731 -105.20918 12.771146 12.1515
-138.98866 -104.93773 12.706939 11.682501
-138.92607 -107.35796 13.1251 12.076
-138.82401 -105.3145 12.821652 10.1795
-138.90941 -104.84446 12.880404 11.772166
-138.90834 -104.75203 13.084496 12.1545
-138.98566 -108.62448 13.56784 12.1545
-139.00816 -107.06232 13.206742 12.1535
-138.88332 -106.50863 13.569279 10.179
-139.08878 -106.36113 13.33462 11.1635
-138.91776 -105.87279 13.519032 10.035
-138.96944 -106.40464 13.921131 12.156
-139.04358 -105.92551 13.958694 10.1775
-139.04843 -107.68304 14.132352 11.1705
-139.13734 -107.68824 14.657563 12.1585
-139.08289 -106.58906 14.426625 11.576
-138.87624 -108.97213 14.912892 13.1525
-139.00862 -108.70746 15.041124 13.153749
-139.09543 -106.87951 15.360513 13.1555
-138.9283 -106.52411 15.479421 12.167749
-139.05101 -106.09679 15.303294 12.1635
-139.19556 -106.9787 15.646989 14.149
-139.02803 -106.64509 15.793224 13.819333
-139.01811 -107.07126 16.254417 13.161901
-138.82626 -106.79266 16.122501 11.179
-139.01976 -107.22211 16.561401 14.1545
-138.98566 -107.07301 16.58485 12.09675
-139.00325 -109.75156 17.335987 12.178
-138.86023 -109.57417 17.614582 13.162
-138.47755 -104.64052 7.2481537 8.1665001
-138.50044 -106.00628 7.6662865 8.033
-138.52386 -104.25109 7.9956183 8.1794996
-138.58469 -104.54922 8.5295725 8.8000002
-138.54025 -104.18817 8.5045633 9.1243334
-138.44034 -106.81546 8.8027468 9.1520004
-138.533 -106.73441 9.1312933 9
-138.59412 -105.67831 9.0561934 9.1595001
-138.51695 -105.39687 9.0716238 9
-138.50258 -105.00838 8.8330231 9.1569996
-138.61748 -104.30244 9.0537148 9.0482502
-138.6192 -104.44201 9.5571957 10.103
-138.50095 -104.06278 9.5824757 9.1750002
-138.45822 -106.1229 9.8561172 10.1025
-138.61319 -105.34922 9.9912605 10.152
-138.54187 -104.93979 9.8827209 10.0539
-138.72231 -104.65577 9.8831024 10.099167
-138.73604 -104.18906 9.8605556 10.049333
-138.51677 -111.1281 10.270721 10.116
-138.45518 -108.87254 10.07144 10.1215
-138.46634 -106.0745 10.090418 10.153
-138.52472 -105.87821 10.068254 10.1525
-138.65208 -104.98588 10.012671 10
-138.55284 -104.68711 10.162205 10.0985
-138.55807 -111.41975 10.735678 10.1535
-138.5451 -106.99133 10.755695 9.033
-138.4646 -104.46252 10.782873 10
-138.7095 -111.8313 10.82475 10.1555
-138.40634 -106.55804 11.020284 9
-138.48508 -105.17192 10.955702 10
-138.45238 -104.48742 11.188919 10.1665
-138.61713 -104.15741 10.925085 9.6460714
-138.54893 -103.98554 11.082051 10
-138.65298 -105.35383 11.406093 11
-138.68529 -104.9154 11.334522 11
-138.5838 -104.55315 11.336315 10.54475
-138.68871 -104.31303 11.386816 11.154
-138.64224 -110.83594 11.873787 10.164
-138.78648 -105.0396 11.612978 10.1705
-138.58276 -104.70995 11.825544 10.1765
-138.54143 -104.8185 12.243393 12.1445
-138.43883 -104.43887 12.2465 11.1585
-138.71341 -105.23821 12.785549 12
-138.5804 -104.95874 12.607131 11.277
-138.46037 -104.76622 12.682476 11.08
-138.6149 -104.28775 12.624535 11
-138.75569 -107.3523 13.113256 12
-138.44341 -106.02578 12.907145 12.153
-138.79257 -105.90598 12.855614 12.152
-138.52753 -104.93063 12.877438 11.75
-138.68314 -106.53827 13.452085 10.673
-138.52711 -105.9444 13.591183 10
-138.53548 -105.4506 13.419334 12.1555
-138.79556 -106.0497 13.618546 10
-138.48689 -105.89217 13.609285 10.178
-138.55531 -106.57357 14.335302 12.3325
-138.72044 -106.19111 14.173473 11.503166
-138.43324 -108.10638 14.708727 13.153
-138.59821 -107.07553 14.498659 13
-138.67709 -106.44849 14.50695 13.15325
-138.70914 -106.16459 14.689823 12.822833
-138.50255 -107.63216 15.034073 13.155001
-138.48521 -107.42071 14.849535 12.1595
-138.47554 -106.90199 14.992599 12.162
-138.61212 -106.62199 14.970913 11.67
-138.73047 -106.23856 14.903057 13.155
-138.52042 -106.99647 15.384794 12.664499
-138.42297 -106.35633 15.450907 12.165
-138.59515 -106.96586 15.863547 12.91275
-138.50417 -106.76163 15.807225 13.388833
-138.46751 -106.79079 16.374931 11.178
-138.48419 -109.31896 16.799561 11.1775
-138.57971 -107.10741 16.569324 12.174
-138.62253 -107.99263 16.924145 14.1555
-138.70171 -107.40992 17.111084 15.1495
-138.48395 -107.09399 16.938482 13.0805
-138.62769 -111.07341 17.51186 11.177
-138.16832 -106.22892 7.3542056 8.0819998
-138.15948 -90.351341 7.2453847 9.1339998
-138.30103 -110.9616 7.6966152 8.1534996
-138.04637 -106.02238 7.855351 8.0305004
-138.24352 -104.68322 7.6412272 8
-138.32294 -104.24853 7.9635944 8.0270004
-138.03812 -105.60616 8.3225307 8
-138.2401 -104.17451 8.3150549 8.17875
-138.13861 -106.90651 8.7949772 9.1514997
-138.18788 -106.78989 8.7218208 9.1545
-138.07805 -105.69227 8.4020023 8
-138.10429 -105.36231 8.5450315 8.6652498
-138.31305 -104.97865 8.5398502 9.109375
-138.26193 -104.64878 8.5624762 9.0758333
-138.23889 -104.28162 8.5086403 8.8266668
-138.14778 -105.65786 9.0854721 9.1630001
-138.25339 -105.469 9.0631332 9.0797501
-138.01848 -115.8541 9.5697203 9.1560001
-138.32881 -115.16702 9.5914745 9.1540003
-138.06253 -105.73885 9.2861671 9.0819998
-138.1955 -105.50358 9.4519672 10.1235
-138.2662 -104.85406 9.4004049 9.0885
-138.10669 -108.03677 9.8468523 10.129
-138.29298 -105.77374 9.9913502 10.15
-138.31165 -104.97861 9.9698906 10
-138.24237 -104.69048 9.8709011 10.098249
-138.09247 -104.26733 9.6804218 9
-138.27841 -103.82607 9.8130016 9.7313337
-138.37775 -110.7487 10.301327 10.1085
-138.31311 -106.17951 10.067519 10.151751
-138.39825 -105.57154 10.051188 10.154
-138.2959 -104.59209 10.517859 10.157125
-138.32846 -103.83971 10.438799 10.1585
-138.17308 -106.52377 11.077399 9.335
-138.39877 -105.89057 10.952124 10
-138.27049 -104.50191 10.893988 10.632999
-138.24799 -104.18735 11.064049 9.2782001
-138.33578 -104.84629 11.426574 11
-138.31671 -104.57987 11.355036 11
-138.17899 -104.35154 11.26963 10.1685
-138.22768 -104.91031 11.844452 10
-138.24458 -104.72837 11.824132 10.829501
-138.2299 -104.55974 12.105972 11.157001
-138.32077 -109.20235 12.457685 11.1565
-138.31656 -106.16571 12.766588 12.151
-138.2321 -104.89368 12.650116 11.720333
-138.06171 -106.43789 13.158398 12.155
-138.1664 -104.976 12.95331 11.692699
-138.32861 -106.10456 13.577765 10.449
-138.28922 -105.66282 13.374457 13.132
-138.22554 -105.40815 13.351357 10.059834
-138.19792 -110.76688 13.674969 12.1535
-138.16586 -105.52072 13.905573 13.15
-138.23331 -106.09654 14.114265 10.792333
-138.14369 -111.28892 14.508269 12.157
-138.30078 -107.36965 14.495735 10.01775
-138.22212 -106.09151 14.687965 10
-138.29572 -106.86434 14.909935 12
-138.0986 -106.41439 15.15268 13.156
-138.2092 -106.2234 15.007065 12.163
-138.10973 -108.82328 15.409882 13.156
-138.16302 -106.66341 15.537399 13.6535
-138.08035 -106.15746 15.279964 12.164
-138.18166 -107.19663 15.787792 14.1515
-138.01852 -106.34813 15.63642 13.157
-138.18454 -109.20078 16.39609 14.153
-138.01965 -108.04718 16.385048 12.171
-138.28992 -107.29182 16.144272 12.6665
-138.26437 -106.94596 16.263182 12.6665
-138.19565 -109.20728 16.46546 14.1535
-138.23911 -107.31321 16.483225 14.155
-138.38864 -107.03701 16.673143 13.1595
-138.24771 -109.74855 17.10228 12.177
-138.18198 -106.82874 16.827604 13
-138.21078 -111.2953 17.641842 13.16
-137.64687 -90.876152 5.8892984 8.092
-137.77524 -108.48019 6.100812 7
-137.9213 -90.935493 6.6951556 8.1765003
-137.79097 -90.573692 7.0172319 8.6502495
-137.73297 -106.43351 7.3292036 8
-137.88927 -90.811401 7.2563691 9.099
-137.71179 -90.652908 7.3565183 8.9183331
-137.72797 -111.2051 7.6105766 8.1689997
-137.62999 -91.244026 7.7516036 9.0930004
-137.60437 -91.05529 7.7784195 8.6704998
-137.71306 -90.645119 7.7919259 9.1277504
-137.80254 -105.32372 8.2579994 8.0890007
-137.72386 -90.960838 8.1840677 9.8943748
-137.73846 -90.492111 8.1076756 9.7727499
-137.71564 -90.372437 8.079792 10
-137.75276 -107.04937 8.7243547 9
-137.81006 -105.74963 8.620285 9.1549997
-137.88438 -105.3485 8.609519 9.1133747
-137.98256 -104.31621 8.4854307 9.1485004
-137.8701 -91.217934 8.7689285 10.089
-137.855 -90.943214 8.6047688 9.7318001
-137.64297 -90.743752 8.7091875 10
-137.81827 -105.519 8.8491087 9.1575003
-137.83641 -91.232605 8.8375511 10.0895
-137.82323 -90.936028 8.9691772 10.863874
-137.66454 -90.367645 8.9486437 11
-137.88087 -116.98771 9.3576765 9.1190004
-137.84035 -115.93642 9.5828543 9.1529999
-137.66403 -106.62969 9.3648748 9.1654997
-137.68251 -105.94799 9.3197565 9
-137.99615 -105.48969 9.2395563 9.0970001
-137.67749 -105.17107 9.513588 10.132
-137.82666 -104.49873 9.4506416 10.1315
-137.6568 -90.633949 9.3659506 10.163
-137.85455 -116.01081 9.6453447 9.1545
-137.69524 -110.58701 9.8349819 9.0994997
-137.69403 -106.43984 9.7970991 9.1785002
-137.61096 -90.42823 9.8367233 12
-137.82945 -106.01409 10.094211 10.099
-137.66896 -90.66851 10.062004 11
-137.82686 -110.03693 10.527232 10.1535
-137.71735 -109.89759 10.667032 10.1565
-137.89041 -106.09309 10.722957 10.158751
-137.95 -106.77247 11.043622 10
-137.68034 -106.13058 10.957925 10
-137.82391 -105.69244 10.93999 9.5802498
-137.78496 -105.47996 10.935975 9.25
-137.73158 -104.956 11.060296 9.1780005
-137.76529 -105.87207 11.346108 10.576
-137.64786 -105.4502 11.533879 11.155251
-137.79889 -105.10571 11.200488 10
-137.76376 -104.76635 11.557473 10.171
-137.83759 -104.21804 11.319465 9.0124998
-137.92726 -109.54203 11.894315 11.1525
-137.94922 -105.97434 11.918731 11.156
-137.88129 -104.84078 11.624054 9.0089998
-137.68735 -106.70264 12.091386 10.1785
-137.70612 -106.0323 12.228412 11.1575
-137.91901 -105.75797 12.131361 11.1565
-137.71298 -105.34778 12.175681 11.157
-137.86044 -104.77949 12.113238 11.1575
-137.62433 -105.75555 12.674098 11.575251
-137.82465 -104.95507 12.68737 11.08025
-137.90126 -104.65282 12.421463 11.1
-137.88507 -111.37223 13.177587 11.1585
-137.61136 -107.57145 12.945165 12.152
-137.66272 -106.80332 12.868836 12.1525
-137.69566 -105.78547 12.9316 11.333333
-137.83865 -105.13247 12.975357 11.082
-137.854 -106.01849 13.22018 12.1555
-137.75159 -105.62125 13.2636 11
-137.79419 -105.35925 13.362086 11.568999
-137.8781 -106.30123 13.883008 11.171
-137.62048 -105.8416 13.861335 12.654
-137.72702 -105.31783 13.679972 12.15675
-137.64624 -106.45727 14.342837 11.1785
-137.95555 -106.96996 14.535624 10.0125
-137.94519 -106.62814 14.719637 10.009
-137.82111 -106.26809 14.771996 12
-137.66576 -106.51795 14.830674 13
-137.72403 -106.23851 14.822288 12
-137.6734 -107.92176 15.973492 13.1575
-137.8885 -107.07992 15.8838 14.153
-137.80486 -106.46133 15.642945 13.1575
-137.73987 -107.86581 16.274754 11.17925
-137.90829 -108.2886 16.616684 14.155251
-137.75272 -109.56014 17.023472 12.1755
-137.85931 -108.19673 16.885872 14.156
-137.28136 -90.827812 6.0604596 8.0915003
-137.4538 -90.666084 6.1387606 8
-137.29129 -90.382965 6.0678 8.0915003
-137.39142 -90.838516 6.6909633 8.1704998
-137.49638 -90.787903 6.7349949 8.1780005
-137.29234 -91.085228 7.153542 9
-137.5201 -90.768738 7.1356897 8.1789999
-137.43115 -105.15646 7.2774234 8
-137.43314 -90.911308 7.323123 9.0297003
-137.47884 -90.704102 7.3548789 8.6969652
-137.32167 -105.2555 7.656354 8.1735001
-137.52635 -90.702362 7.6963458 9.1346674
-137.41365 -105.21028 8.0536261 8.0235004
-137.47974 -91.385933 8.2479401 9.092
-137.38472 -90.946587 8.1969528 9.9007492
-137.47804 -90.697403 8.147131 9.6368628
-137.38536 -105.47041 8.5899563 9.0383749
-137.39449 -105.03277 8.5265074 8.6634998
-137.49496 -90.953873 8.4523277 10.092
-137.44188 -90.632561 8.5773945 9.9175005
-137.47813 -105.44285 9.0358934 9.053833
-137.23988 -104.80624 8.9340553 9.1584997
-137.51112 -104.62712 8.9283457 9.0792503
-137.56352 -104.3931 9.0119104 9.1604996
-137.20689 -91.016609 9.1380711 11
-137.46483 -90.688004 9.0148001 10.580251
-137.37282 -106.6386 9.2173328 9.0325003
-137.33545 -105.33265 9.2600603 9
-137.35768 -104.84936 9.2862091 9
-137.38972 -104.59665 9.46455 9.7720003
-137.2907 -104.30831 9.5212727 10.11
-137.22925 -90.968216 9.3110809 11
-137.45825 -90.68322 9.3269548 10.642876
-137.25397 -106.50359 9.8948975 10.0995
-137.37781 -105.25738 9.8871927 10
-137.31726 -104.81881 9.8082275 10.1265
-137.30872 -104.60393 9.9462852 10.155251
-137.44818 -90.669197 9.8771152 11.2185
-137.2851 -106.92441 10.091768 10.153
-137.47717 -106.50333 10.157079 10.0495
-137.49403 -104.57623 10.248278 9.8306665
-137.21524 -90.980492 10.157675 12
-137.47647 -90.667877 10.032788 11.578
-137.38156 -106.41533 10.928095 11.114
-137.41267 -106.16578 11.094243 11.148
-137.41393 -105.74433 10.892415 10.053333
-137.42142 -105.4185 10.951322 9.5581665
-137.20624 -105.10062 11.085909 11
-137.54279 -104.56775 10.840941 11.145
-137.2932 -106.10633 11.325277 11.101833
-137.43417 -105.68468 11.416533 10.8615
-137.46542 -105.47586 11.34413 10.57725
-137.46089 -105.80717 11.816632 10.449666
-137.50961 -106.49577 12.368251 11.158
-137.28551 -106.24623 12.165501 11.157
-137.50555 -106.80716 12.596967 11.1585
-137.21321 -106.57845 12.48092 11.1585
-137.42461 -106.15931 12.666688 12.051
-137.43239 -105.71613 12.776985 11.3845
-137.47717 -107.83517 13.055492 12.15325
-137.57916 -107.42584 13.102258 12.15425
-137.35786 -106.10509 12.862334 11
-137.30127 -105.94509 12.904472 11.5
-137.46707 -105.43642 12.885821 11
-137.48195 -106.16356 13.27162 11.58275
-137.57787 -105.75889 13.348459 10.726501
-137.33942 -107.33739 13.726275 10.17825
-137.24294 -105.84672 13.925346 13
-137.46634 -106.58707 14.206685 11.1745
-137.38316 -106.1973 14.754415 12
-137.34692 -106.55445 15.109211 13.1565
-137.36914 -106.21238 14.898075 12
-137.28032 -109.66823 15.587988 14.116
-137.22319 -106.89231 15.563255 14.152
-137.34564 -106.56818 15.414349 13.653999
-137.23843 -108.77805 15.937704 13.1575
-137.31352 -108.31482 15.673442 12.1645
-137.57066 -107.84675 15.829553 12.167
-137.51826 -107.40471 15.625178 12.1655
-137.35931 -106.9893 15.960523 14.15425
-137.57945 -106.65385 15.662519 14.1525
-137.56032 -108.87 16.114374 14.1525
-137.53842 -108.50152 16.102297 11
-137.44882 -107.8567 16.004202 12.169
-137.54694 -109.15614 16.590899 14.155
-137.21375 -107.44099 16.413538 11.1785
-137.5993 -110.36417 17.17815 12.1735
-137.09732 -91.203743 6.1964235 8
-136.86029 -106.42149 7.3344264 8
-137.08565 -105.31853 7.3403563 8.0887499
-136.83676 -105.01038 7.4497437 8
-136.85684 -104.67499 7.5391102 8.0334997
-137.09914 -90.843575 7.5378876 8.0159998
-136.92082 -104.99798 7.631762 8
-136.90182 -104.67834 7.9374228 8.0275002
-136.97484 -91.287056 7.6926517 8.0124998
-136.9834 -90.741905 7.8801951 8.0089998
-137.03697 -106.1079 8.2072201 9.1245003
-137.11928 -105.65134 8.3739843 8.0200005
-136.86989 -104.53548 8.28722 8.0897503
-136.95308 -104.29794 8.2774563 8.5679998
-137.0024 -106.23074 8.6290121 9.1540003
-137.0199 -105.75679 8.5745716 9.0774994
-137.00566 -105.39436 8.6764278 9.0782499
-136.90292 -104.89224 8.5229321 9
-136.89253 -106.11663 8.9619818 8.0035
-136.90236 -105.34181 9.0328188 9
-136.99326 -104.96384 9.0642853 9.0397501
-137.07985 -104.72215 9.1012468 9.0533333
-137.19528 -90.998734 9.1457767 11
-137.06349 -106.62133 9.2002525 9
-136.93477 -106.18955 9.4823952 9.6154995
-137.13292 -105.30231 9.2537823 9
-136.99266 -105.0174 9.4295397 9.9312506
-136.96289 -106.56862 9.8515482 10.10125
-136.97726 -104.96942 9.8068438 10.058214
-136.8755 -104.6616 9.6882401 9
-136.85794 -109.27599 10.377957 10.1555
-136.99341 -104.69762 10.022717 10.099
-137.16866 -107.03238 10.704346 10.158
-136.84885 -105.32117 10.545866 9.0334997
-137.03455 -106.50892 11.07246 10.57425
-137.09613 -106.19427 10.995295 10
-137.1942 -105.75101 10.946792 10
-137.07367 -105.3702 10.920124 9.5
-136.97842 -104.99194 11.091618 10.211727
-137.14467 -104.74755 10.851844 11.1475
-136.85704 -105.86636 11.436944 9
-137.03735 -105.45012 11.344818 10.57775
-137.0372 -105.0696 11.279226 10
-136.88818 -107.08355 11.828859 10.1715
-136.9959 -105.62804 11.728871 10.08875
-136.91714 -105.56663 11.893559 10
-136.82521 -105.41161 12.383484 12
-136.82149 -105.07076 12.070127 11.1575
-137.1031 -105.55112 12.765772 11
-136.99551 -106.85137 12.963366 11
-137.19307 -106.4043 12.974594 12.155
-137.08711 -106.01012 12.877511 11.333333
-137.19798 -105.58906 12.901683 11
-136.9346 -105.07662 12.984727 11
-136.98415 -104.7804 13.021725 11
-137.18042 -106.32396 13.215969 12.156
-136.99866 -105.45613 13.436125 11.437833
-136.99719 -107.40928 13.802585 11.16825
-136.97067 -105.63171 13.786559 13
-136.89944 -105.34956 13.7 12.1575
-137.09424 -106.58292 14.122905 12.16475
-136.85779 -105.65723 14.257866 13.155
-136.98567 -106.2634 14.734693 12
-137.05954 -106.22249 14.861175 12
-137.04686 -108.09401 15.431033 13.157
-137.04175 -106.73273 15.641424 13.158
-137.0244 -107.85151 16.154465 13.103333
-137.01151 -107.49064 16.245049 11.509999
-137.04065 -107.53946 16.431448 11.178
-136.88557 -109.06509 17.351177 13.162
-136.65996 -106.44996 7.3145437 8.1674995
-136.50122 -105.01791 7.4598885 8
-136.52162 -104.72028 7.4314122 8.1789999
-136.60527 -104.95719 7.6230679 8
-136.78883 -105.29003 8.3477383 8.0165005
-136.63177 -104.61621 8.3424091 8.0002499
-136.63271 -104.22788 8.2239542 8.566
-136.48186 -107.57243 8.7420101 8.0015001
-136.75397 -105.27716 8.5078096 9
-136.77939 -104.8737 8.472929 9
-136.52734 -104.66836 8.4703608 9.1540003
-136.59903 -105.33716 9.0423727 9.02425
-136.53297 -108.70991 9.3137379 9.1639996
-136.67189 -106.25358 9.3868828 9.6012497
-136.61 -105.36075 9.3820658 9.402667
-136.59476 -104.91128 9.3559275 9.0138569
-136.56401 -110.09206 9.729763 9.1695004
-136.673 -109.22747 9.9928064 9.1759996
-136.70248 -109.05853 9.9981728 9.1789999
-136.62686 -107.55547 9.698946 10.134
-136.62695 -106.30688 9.6252804 10.11925
-136.62814 -105.33923 9.6468163 10.146
-136.66068 -104.99362 9.8057947 10.057375
-136.65863 -104.70982 9.7950478 9.6021252
-136.57941 -109.24252 10.314289 10.15325
-136.58585 -109.15559 10.309791 10.1545
-136.75575 -107.58813 10.126668 10.154
-136.40723 -106.05184 10.304275 10.157
-136.5856 -104.93999 10.266542 9.5782499
-136.77261 -104.6861 10.371417 10.157
-136.7262 -104.7001 10.644058 10.0795
-136.46323 -114.82268 11.034881 10.157
-136.57716 -105.61264 11.145805 11
-136.50467 -105.38285 10.947838 10.383834
-136.68631 -104.89753 11.021834 10.166667
-136.46193 -104.26749 11.066556 10.166
-136.42824 -105.97675 11.431505 9
-136.70471 -105.56967 11.274993 11.15425
-136.56531 -104.93867 11.305389 10
-136.40424 -104.11705 11.254849 9
-136.52705 -106.05343 11.979247 10.179
-136.52852 -105.7927 11.668941 9.0094995
-136.56198 -104.93829 11.8582 10.579
-136.68715 -105.41521 12.367805 12
-136.64247 -105.52431 12.445803 12
-136.75089 -104.98972 12.795016 11
-136.47319 -116.37868 12.812608 11.104
-136.78094 -106.08794 12.823141 11
-136.53015 -105.10091 13.14894 11
-136.78554 -104.70939 13.004866 11
-136.44525 -105.50803 13.29637 11
-136.74277 -105.17188 13.518756 10.0335
-136.57675 -105.81496 13.901098 13.07675
-136.59286 -105.22813 13.751862 11.092751
-136.65479 -106.36268 14.050125 13.153
-136.76154 -105.68627 14.221174 13.154751
-136.73308 -105.58414 14.123497 13.1545
-136.59607 -107.98586 14.55146 11.179
-136.66446 -106.40401 14.410225 10
-136.74063 -107.78262 15.062609 12.162
-136.57219 -108.76649 15.308393 11
-136.46875 -106.90766 15.498256 12.166
-136.62613 -108.58986 15.621786 11.0005
-136.6107 -107.76878 15.862299 13.490167
-136.47597 -107.42587 15.696887 14.1535
-136.48457 -107.11143 15.658829 12.1675
-136.42398 -108.84394 16.130049 14.1545
-136.41353 -107.84325 16.167479 11
-136.60968 -107.37251 16.23686 12.667749
-136.47498 -107.73754 16.688765 11.67675
-136.66933 -107.34052 16.587227 13.6585
-136.56184 -108.07716 16.92864 12.179
-136.47968 -108.31907 17.285278 15.153
-136.25096 -106.55443 7.4052553 8.1715002
-136.28893 -104.96745 7.248992 8.0847502
-136.26601 -104.66774 7.6018467 8.1739998
-136.17587 -106.09058 8.1542702 9.125
-136.06107 -105.14424 8.3918047 9.1485004
-136.27728 -104.62415 8.294425 8.850625
-136.31198 -106.20318 8.5272923 9.1462498
-136.1562 -105.05177 8.4884691 8.5774994
-136.0954 -104.7161 8.4304495 9.1504993
-136.20642 -107.88024 9.1623487 9.158
-136.20193 -107.20712 8.9958401 9.1292496
-136.06097 -106.31927 9.1456327 9.1615
-136.35957 -105.53001 9.002017 9.0535002
-136.06863 -104.87644 8.8676062 9.1575003
-136.08957 -107.70274 9.3399038 9.1002502
-136.17235 -107.49078 9.4218779 9.099
-136.29559 -106.96776 9.5199385 10.115499
-136.15125 -106.18218 9.3120708 9.6450005
-136.30898 -105.53104 9.4987059 10.11025
-136.32552 -105.03195 9.2161474 9
-136.35242 -106.33279 9.7393131 9.6405001
-136.39656 -104.90768 9.600894 9
-136.15857 -104.78403 10.326348 9
-136.01788 -105.30776 10.519774 10.16
-136.14424 -104.60365 10.686339 9.0002499
-136.15141 -105.39542 10.93611 10.384334
-136.13957 -105.0861 10.929261 10.57675
-136.13811 -104.66644 10.833604 10.164
-136.13866 -106.19632 11.450826 10
-136.34059 -105.02029 11.25936 10
-136.15717 -105.24145 11.922882 11.1575
-136.2662 -105.0794 11.751758 10
-136.01256 -111.1081 12.314538 10.172
-136.2054 -106.08913 12.170793 11.15825
-136.26378 -108.38299 12.602221 11.159
-136.2366 -106.82992 12.54449 11.1595
-136.129 -106.62003 12.69855 12.154
-136.21207 -106.10812 12.716762 12.15475
-136.11522 -105.37629 12.716838 11.437167
-136.17105 -105.00002 12.679727 11.041
-136.35628 -104.74857 12.680072 11
-136.27945 -109.49185 12.972127 11.1595
-136.2048 -107.76775 13.000667 12.155
-136.02457 -105.01116 13.030734 11.165
-136.30522 -104.77219 13.091132 11.166
-136.26721 -105.45737 13.353843 11
-136.16039 -105.91172 13.712587 13.1515
-136.10016 -105.32088 13.633702 12.158
-136.29094 -105.04481 13.688582 12.1585
-136.2339 -106.25161 14.373837 10
-136.21996 -105.82982 14.046121 11.087
-136.0988 -113.25993 14.730399 12.1585
-136.19691 -107.14703 15.412044 12.165
-136.1311 -107.87602 15.807033 13.158501
-136.31961 -107.40563 15.874087 11.585
-136.19038 -107.85116 16.150732 14.15575
-136.19482 -108.23041 16.468084 14.1565
-136.33867 -107.76803 16.627016 12.174
-136.23738 -107.79178 16.932201 12.8325
-135.61632 -108.03249 5.7876487 7
-135.61111 -108.20231 7.2984471 8.1557503
-135.95601 -107.01316 7.2259674 8
-135.78108 -106.41087 7.5303307 8.0860004
-135.6312 -105.96407 7.2905059 8.1665001
-135.66956 -106.27573 7.802362 8
-135.86662 -104.6541 7.8778067 8.0080004
-135.7101 -106.22049 8.1456347 8
-135.78769 -104.59219 8.3017778 8.0102501
-135.83548 -108.74731 8.7742271 9.1569996
-135.98593 -107.78629 8.5571451 8.5539999
-135.6795 -106.6198 8.5821447 9.0774994
-135.68481 -106.30247 8.5526743 8.866375
-135.74081 -105.99741 8.5640965 9.1534996
-135.76262 -105.04478 8.568553 8.78825
-135.85094 -104.74245 8.5276661 9.1567001
-135.78502 -108.90733 8.8258419 9.1542501
-135.77573 -108.76283 8.9705153 9.1590004
-135.61845 -106.91873 9.1418238 9
-135.66237 -106.61149 9.0531406 9.1307507
-135.89946 -106.23043 9.0138559 9.1005001
-135.8459 -104.92051 8.8848419 9.0531664
-135.62364 -104.69054 9.1388369 10.1245
-135.93076 -108.40572 9.5915575 10.1265
-135.70566 -107.18703 9.3760262 9.1665001
-135.63908 -106.54693 9.3369617 9.1680002
-135.92267 -106.20113 9.3044729 9.0987501
-135.66562 -104.53852 9.3205805 10.1205
-135.78787 -106.94156 9.7130203 9.0860004
-135.76804 -106.58154 9.8577232 9.5
-135.91454 -112.91721 10.291274 10.137
-135.73985 -106.92123 10.059134 10
-135.62404 -106.22849 10.321804 9
-135.86966 -104.93398 10.269154 9
-135.70154 -104.76905 10.307409 9
-135.63564 -106.41975 10.633448 10.1585
-135.86275 -105.34317 10.574438 9.5792503
-135.78996 -104.9018 10.776885 10.108001
-135.66734 -104.60384 10.678629 9
-135.6087 -106.80561 10.976871 10.1635
-135.60638 -105.74601 11.123049 11.1535
-135.88376 -105.31365 11.182807 11.155
-135.66597 -105.13703 10.893205 11.151
-135.74619 -104.53132 10.967923 9.7858334
-135.89221 -104.34687 11.094115 9.5825005
-135.67661 -106.83495 11.379803 11
-135.82048 -105.02732 11.32019 9
-135.7444 -104.5883 11.321654 11.12775
-135.63713 -116.27589 12.166538 11.1385
-135.81851 -105.3418 12.535993 10
-135.85648 -105.11498 12.654473 11
-135.78746 -105.34877 13.069535 10.666667
-135.78677 -104.98143 13.428391 11.539625
-135.63809 -105.63144 13.818205 13.154
-135.75618 -105.05026 13.869681 12.495833
-135.76465 -105.71778 14.079749 10
-135.83913 -105.39 14.391303 13
-135.78889 -105.05095 14.148103 13.103833
-135.90332 -105.782 14.678698 12
-135.64502 -106.25665 14.966774 13.654751
-135.76118 -108.28812 15.9013 13.159
-135.81445 -107.85557 15.800859 13.1585
-135.85109 -107.42786 15.94624 11.0005
-135.88536 -109.00782 16.347582 14.156
-135.62723 -108.38371 16.285677 14.1565
-135.85472 -107.83977 16.293432 12.172
-135.74875 -107.42188 16.221951 11.089251
-135.83423 -107.11817 16.233742 11.17925
-135.85524 -107.60196 16.616205 12.178
-135.81192 -107.43549 16.624752 12.6675
-135.64581 -107.10905 16.533882 13.161
-135.6738 -108.00942 17.11862 13.1635
-135.75035 -107.67968 16.984859 13.1625
-135.2065 -116.96614 6.390873 7
-135.4931 -108.26376 6.016778 7
-135.4402 -105.53094 7.5214911 8.0340004
-135.5737 -108.64103 7.6115656 8.1794996
-135.41847 -106.29929 7.8866272 8
-135.30765 -105.85495 7.9678736 8.0002499
-135.51714 -105.58076 7.9373846 8.0279999
-135.45699 -104.78448 7.9155502 8
-135.35857 -105.82391 8.0676231 8
-135.30316 -105.06873 8.3377876 9.1490002
-135.23459 -107.8452 8.604907 8.0135002
-135.43257 -106.81774 8.5930328 9
-135.51802 -106.51632 8.5535507 9
-135.54294 -106.28902 8.5779514 9.1529999
-135.45189 -105.00809 8.5067425 8.7884998
-135.31947 -107.14915 8.9716396 8
-135.46861 -105.96352 8.8999834 8.0039997
-135.44786 -104.88979 8.8939142 9.1634998
-135.31757 -108.29748 9.4460011 9.1654997
-135.34601 -107.26405 9.464324 9.1700001
-135.38821 -106.93729 9.5024147 10.13225
-135.2164 -105.33517 9.5044441 9
-135.59761 -104.65257 9.3566437 10.117
-135.26105 -114.02256 9.6711264 9.1639996
-135.42239 -106.95569 9.6820459 9.5692501
-135.56619 -106.37448 9.710783 10.101
-135.32024 -105.26456 9.9395046 10
-135.24275 -105.19596 9.7013588 9
-135.44119 -106.58881 10.280146 9
-135.3866 -106.14061 10.24316 9.0004997
-135.37744 -105.05382 10.208398 9.75
-135.38257 -115.0471 10.641321 10.14375
-135.52141 -105.25472 10.705602 9
-135.31563 -104.97396 10.451215 9.0340004
-135.42474 -104.58942 10.680929 10.076875
-135.58739 -104.36367 10.648842 9
-135.33012 -105.91679 10.967802 10
-135.44162 -104.9246 11.086599 10.661
-135.37419 -104.59618 10.984155 9.723834
-135.32565 -104.3371 10.989303 9.0992508
-135.55391 -92.14489 10.879993 8.1405001
-135.59302 -106.77212 11.494205 11
-135.52893 -105.82741 11.353489 11.1565
-135.35251 -105.57993 11.230433 11.156
-135.36542 -105.15749 11.495561 10.333333
-135.23166 -104.72357 11.257306 10.17
-135.37117 -107.02751 11.97015 10
-135.32019 -106.60982 11.777987 9.0019999
-135.54478 -105.30935 11.616074 11
-135.25702 -104.93692 11.856642 11
-135.36665 -104.449 11.667124 11.1
-135.47841 -106.39767 12.364048 11.1595
-135.29799 -104.87485 12.363605 10.0005
-135.44307 -106.63697 12.667249 12.07725
-135.57083 -106.18853 12.776588 12.156
-135.35268 -105.35143 12.416927 10
-135.34373 -105.01249 12.65535 10.860583
-135.31906 -104.65696 12.704378 11
-135.33525 -104.99287 13.088694 11.291625
-135.31743 -105.90567 13.536839 10.034
-135.30402 -105.22929 13.530338 12
-135.39191 -104.97426 13.437699 11.928801
-135.39856 -104.69833 13.56245 12.159
-135.47382 -105.7269 13.736885 10
-135.3582 -104.98271 13.784112 11
-135.21005 -106.1666 14.094477 11.1745
-135.24997 -105.75399 14.176567 10.01875
-135.35948 -105.30063 14.323772 13
-135.51215 -105.66184 14.621943 12.163
-135.40805 -107.36578 15.136772 12.1645
-135.30307 -106.29195 14.858889 11.0005
-135.3049 -107.81658 15.364163 12.66175
-135.25302 -107.59975 15.488047 13.1585
-135.53583 -108.15575 15.716059 12.1665
-135.44914 -107.19282 15.650227 12.168
-135.41791 -108.56581 16.096003 13.1595
-135.255 -107.65188 16.136852 11
-135.54214 -108.64494 16.500496 14.157
-135.45073 -108.25985 16.634291 14.1575
-135.29796 -107.51061 16.618082 12.836334
-135.27966 -107.95237 16.945541 13.162
-134.9787 -106.06019 7.269475 8
-135.04599 -105.97554 7.4772472 8
-135.08105 -106.44099 7.7887654 8
-135.02141 -105.87528 7.8238554 8.0078754
-135.16551 -104.81627 7.9074893 8
-134.88229 -106.29009 8.2835035 9.1359997
-135.0374 -105.7467 8.1998968 8.6126251
-134.91 -107.23013 8.6644287 8
-134.9637 -106.47465 8.5185938 9.15625
-135.02866 -106.24864 8.6296864 8.5807495
-135.0089 -105.96472 8.518239 9.1540003
-134.95946 -115.18658 8.8885736 8.1785002
-135.1526 -109.36897 8.8163843 9.1555004
-135.07451 -107.29242 9.1262617 9.1590004
-135.10849 -107.15337 9.0469484 8.7521667
-135.19646 -106.75687 9.1635036 9.1619997
-134.90031 -106.21236 9.0619879 9.1630001
-134.92474 -105.89558 9.0755091 9.1000004
-135.03809 -107.35011 9.503541 10.1305
-135.1093 -106.96425 9.466958 9.7711668
-134.93437 -106.17598 9.3500242 9.4452
-134.85806 -105.83641 9.5602446 9.5512505
-135.01534 -105.48222 9.514575 9
-134.98378 -107.34908 9.6140299 10.139
-134.99808 -107.00784 9.7361164 10.128374
-134.81346 -106.52934 9.8355894 10.1535
-134.95093 -106.10078 9.8438349 10.039
-134.87517 -105.98689 9.8896399 10
-135.03621 -105.33904 9.6407261 9
-135.008 -105.0349 10.252171 9.5555553
-134.86755 -105.90805 10.657975 11.1055
-134.97528 -105.41275 10.541606 10.556
-135.01172 -105.05258 10.590362 11.11225
-135.09309 -104.61362 10.602458 10.05275
-134.84665 -107.04212 10.86378 11.113
-135.15073 -106.07051 10.982498 10
-134.95622 -105.37627 11.024015 10.6516
-134.92624 -104.63194 10.864465 9.0895004
-135.11891 -106.56026 11.441075 9
-135.12201 -106.14779 11.293108 11
-135.04651 -104.97606 11.455881 10.666667
-135.03679 -104.68511 11.330518 10.0045
-134.9938 -106.49896 11.790764 11.158
-134.9294 -106.33054 11.736138 9
-134.91386 -105.38062 11.900055 10.5
-135.0027 -105.01659 11.83106 10.693166
-134.92479 -106.82555 12.240829 11.159
-135.03911 -106.72996 12.093334 11.1585
-134.91428 -107.05966 12.695589 12.077499
-134.88078 -105.63731 12.526364 12
-135.01695 -105.38387 12.58104 10.914001
-135.14279 -105.69263 13.118198 11
-135.1239 -105.03857 13.004427 11.000375
-134.96877 -106.45963 13.31244 12.158
-134.90543 -106.29183 13.57015 12.1585
-134.99203 -105.3712 13.479498 12
-135.00662 -105.05699 13.427232 11.78975
-135.01099 -106.6119 13.874238 10.179
-134.94525 -106.11372 13.942151 13
-135.06564 -105.9423 13.794222 12.371625
-135.18259 -105.45268 13.875344 13.155251
-135.10695 -105.01609 13.813374 11.385333
-134.94189 -106.7005 14.124173 13.078
-134.90062 -106.1939 14.103733 13.07825
-135.0564 -105.88404 14.097967 13
-135.08302 -105.12117 14.071176 13.1565
-135.01741 -106.98176 14.678649 10
-134.85158 -106.34013 14.530246 13.1575
-135.12906 -107.67909 15.218796 11.001
-135.08755 -108.40318 15.973495 11.001
-135.03975 -108.08153 15.793024 13.159
-134.82736 -107.83412 15.726005 13.1595
-134.8098 -108.2582 16.157991 14.157
-135.15269 -107.5417 16.051357 11.0005
-134.82068 -108.92795 16.613476 13.16525
-134.73175 -108.02768 5.9020691 7
-134.66492 -116.80489 7.5281901 8.1087494
-134.49837 -106.4012 7.2803473 8
-134.75383 -105.96756 7.3671494 8
-134.43933 -109.125 7.6362019 8.0885
-134.58234 -106.16418 7.8590708 8
-134.64598 -105.85205 7.813364 8.0122499
-134.53416 -107.48442 8.3340559 8.0004997
-134.61739 -106.21729 8.2499018 9.059
-134.44583 -107.76318 8.4536066 8
-134.6295 -107.33658 8.6606617 8
-134.42615 -107.04835 8.5474911 9.1564999
-134.4722 -106.60652 8.4988203 9.0863333
-134.62967 -106.24252 8.4898453 9.1017504
-134.71072 -115.44942 9.1134863 8.0004997
-134.55684 -107.78107 9.0783262 9.1590004
-134.5929 -107.27803 9.0541534 8.5825005
-134.70618 -106.13297 8.9986486 9.1615
-134.5993 -106.45261 9.3552837 9.5577507
-134.72258 -106.1548 9.2544975 9.0326662
-134.51404 -105.66327 9.5234156 9
-134.73462 -106.07655 9.8231535 10.1555
-134.60265 -105.83566 9.8554821 9.75
-134.40735 -107.11066 10.32235 10.1585
-134.69942 -106.63324 10.190042 10.1015
-134.69914 -105.9755 10.267231 9
-134.62874 -105.36635 10.259397 10.079
-134.54793 -105.07952 10.237509 9.8568001
-134.54944 -106.25191 10.711617 11.108833
-134.54773 -105.74437 10.652909 11.113
-134.40057 -105.5497 10.645215 11.1075
-134.68369 -104.93813 10.579076 9.8207502
-134.66531 -104.75174 10.712955 9.6151247
-134.43839 -106.94634 11.114909 9.1785002
-134.79825 -106.74308 10.936096 11.1045
-134.6857 -105.69414 10.925618 11.101749
-134.67136 -105.38767 11.067525 11.077625
-134.43771 -105.02562 10.862358 9.0244999
-134.5271 -104.72007 10.811725 11.1005
-134.47545 -106.95542 11.357816 10.718999
-134.63252 -106.6127 11.399295 9.6000996
-134.58133 -105.51488 11.221614 11
-134.79259 -104.81859 11.485335 11
-134.75337 -104.71671 11.245641 10
-134.45352 -113.80679 11.674994 11.1195
-134.7744 -107.01382 11.783711 10.1725
-134.63829 -105.9442 11.686845 9
-134.66693 -106.93518 12.190547 11.1595
-134.47427 -105.69024 12.047853 11
-134.59262 -105.35929 12.125933 11.106667
-134.53975 -107.10661 12.743286 12.07825
-134.62775 -105.72951 12.563559 11.6313
-134.55652 -105.43671 12.616959 11.539
-134.55618 -107.88036 13.10589 12.1575
-134.48541 -107.24214 12.876271 12.157
-134.43887 -105.84839 12.872066 12
-134.61861 -108.05537 13.328139 12.158
-134.62613 -106.53343 13.322907 10.000333
-134.55872 -106.25983 13.391116 10.589625
-134.61302 -105.03771 13.581177 11.333333
-134.50066 -108.58986 13.667102 12
-134.76363 -106.79459 13.899571 11.1725
-134.51663 -106.10777 13.807509 12.15975
-134.62466 -105.37964 13.831783 10
-134.43068 -107.81811 14.121537 12.16
-134.61102 -106.96554 14.199668 11.5
-134.79547 -106.41533 14.330944 13.157
-134.74596 -108.0279 14.556876 13.157
-134.5118 -107.8268 14.619788 13.1575
-134.43468 -107.5009 14.755111 13.158
-134.55542 -109.03117 15.863105 12.167
-134.66586 -108.26428 15.840227 13.41
-134.52521 -107.84093 15.907596 12.0805
-134.52071 -111.24561 16.289797 13.1595
-134.53264 -109.56729 16.336924 14.157
-134.70531 -108.48609 16.366638 14.1575
-134.56009 -109.82067 16.537161 14.1575
-134.37498 -109.03133 7.4498839 8.1704998
-134.16676 -108.17976 7.2684746 8.1564999
-134.07507 -106.85388 7.5277357 8.0345001
-134.00804 -106.82523 7.9694457 8
-134.10368 -106.65941 7.9697194 8.0149994
-134.32477 -106.26349 7.9455409 8
-134.37761 -106.78289 8.0897903 8.0015001
-134.04442 -108.50398 8.675848 9.1560001
-134.29312 -106.69974 8.464983 9.1537495
-134.33438 -115.57109 8.8698921 8.1785002
-134.3822 -107.69434 9.1028433 9.1304998
-134.22601 -107.41524 9.0668182 9.1327496
-134.31737 -107.16604 9.1792936 9.1625004
-134.105 -106.59676 8.8911724 8.0045004
-134.27309 -107.47971 9.5091505 9.7996664
-134.08377 -106.54676 9.2914429 9
-134.37704 -106.25136 9.2805071 9
-134.20251 -105.61519 9.5146618 9
-134.26616 -105.48463 9.2931519 9.1704998
-134.31171 -108.48256 9.7528324 10.1435
-134.08414 -107.77103 9.9707479 10.07725
-134.22141 -107.20873 9.9011793 10.1555
-134.2254 -106.50752 9.7775383 10.1535
-134.0627 -106.07405 9.7935343 10.1565
-134.2704 -105.74632 9.7338152 9.7477493
-134.27927 -105.51495 9.7678461 9.5
-134.17938 -108.6032 10.111671 10.1567
-134.06636 -107.94247 10.021008 10
-134.11757 -107.24834 10.207662 10.102
-134.13835 -106.43303 10.305413 10.06325
-134.21693 -106.21166 10.293197 9.0010004
-134.16608 -105.67735 10.03816 10.101
-134.22464 -105.37209 10.309068 10.563
-134.10991 -115.7144 10.475056 10.1205
-134.06798 -106.91035 10.688293 11.1065
-134.19214 -106.4717 10.548328 10.639
-134.19476 -106.2847 10.4913 10.64525
-134.36708 -105.90018 10.590333 10.1605
-134.37906 -104.96421 10.456021 10.16
-134.37392 -104.67416 10.618852 9.0004997
-134.14279 -107.02929 10.86488 9.6422997
-134.05753 -106.13409 11.166445 11.1565
-134.09096 -105.35698 11.06539 11.051666
-134.29764 -105.15843 11.005293 10.869125
-134.31483 -107.31686 11.326957 11
-134.26611 -107.02881 11.361034 10.5815
-134.34654 -105.39551 11.32848 11
-134.01424 -105.15417 11.584034 9.0045004
-134.38991 -107.21752 11.633091 11.158
-134.18141 -106.93467 11.901438 10.117333
-134.32639 -106.96475 12.059831 10.5795
-134.14543 -106.61395 12.180537 11.15975
-134.32466 -105.70432 12.279952 11.1605
-134.24103 -108.03873 12.739473 10.001
-134.36436 -107.27573 12.721704 12
-134.1524 -107.06793 12.58588 12.1555
-134.22733 -105.72285 12.430717 10
-134.01793 -108.14423 12.843994 10.0015
-134.31349 -111.09901 13.389064 10.0015
-134.26219 -107.89565 13.446928 11.166
-134.04314 -107.59804 13.456413 10
-134.21217 -106.54333 13.367659 10.69325
-134.24156 -106.32357 13.42875 11.056834
-134.20905 -108.55122 13.637882 12
-134.00569 -107.49285 13.993597 11
-134.19281 -107.85905 14.010717 12.1595
-134.21085 -107.33645 14.237103 11.783999
-134.39732 -106.8646 14.176231 10.0005
-134.23615 -106.67058 14.094738 13.1565
-134.05663 -108.22687 14.532648 13.1575
-134.30156 -107.47349 14.407815 11
-134.15616 -107.44978 15.039893 13.328
-134.3829 -108.75584 15.903445 13.1595
-134.27074 -109.19658 16.005617 13.16
-134.23277 -108.60339 16.155018 12.6655
-133.8765 -107.3921 5.9753551 7
-133.93149 -109.89272 7.3247766 8.1210003
-133.79855 -107.43302 7.3924389 8.1739998
-133.67523 -116.90872 7.8343959 8.1064997
-133.87885 -116.51536 7.8089104 8.1435003
-133.64169 -106.61697 7.8340106 8.0159998
-133.86473 -107.55092 8.3812742 8.0058336
-133.62001 -107.1312 8.2079172 8.1794996
-133.7748 -106.36781 8.3707542 9.1485004
-133.70276 -107.50926 8.4293652 8
-133.69293 -106.54648 8.4935398 8.8669996
-133.91002 -115.55011 9.0122213 8.0139999
-133.67966 -111.92672 8.9403687 9.1587505
-133.8333 -108.37109 9.1537018 9.1645002
-133.65457 -107.4162 8.8084564 8
-133.84109 -109.73031 9.5848589 10.1285
-133.75909 -106.82467 9.2311401 10.127
-133.73743 -106.66295 9.369648 10.13525
-133.89587 -105.98608 9.5782299 9.1789999
-133.89008 -105.46569 9.4969244 9
-133.62051 -110.4345 9.6536694 10.129
-133.7785 -110.12451 9.5998592 9.1674995
-133.95396 -105.85739 9.8150883 10
-133.83505 -105.59151 9.7086601 9
-133.84813 -116.5788 10.180996 9.1689997
-133.67249 -107.50641 10.221684 10.07925
-133.84978 -107.04004 10.275962 9
-133.64867 -115.85049 10.777084 10.154
-133.74884 -106.99879 10.656714 10.638375
-133.91011 -106.70567 10.534142 11.1235
-133.74051 -106.01552 10.566597 10.1605
-133.88307 -105.72511 10.435816 11.1155
-133.73691 -107.41837 10.901488 9
-133.75751 -106.98605 11.045578 10.659
-133.81529 -106.79194 10.826532 11.105
-133.92221 -106.14529 10.984896 11.154
-133.85072 -105.95424 11.112099 11.1
-133.95316 -105.3385 11.028761 11.07725
-133.7827 -106.99104 11.332457 10.40775
-133.90776 -106.77922 11.298255 9.0209999
-133.96088 -113.77836 11.908747 10.1035
-133.76233 -108.12831 11.950268 11
-133.77243 -106.88639 11.714842 9.5
-133.65752 -106.55083 11.847025 10.179
-133.9962 -116.36823 12.131453 11.124
-133.80344 -106.58156 12.200901 11.16025
-133.93753 -107.03062 12.703169 12
