# .PCD v0.7 - Point Cloud Data file format
VERSION 0.7
FIELDS x y z intensity
SIZE 4 4 4 4
TYPE F F F F
COUNT 1 1 1 1
WIDTH 1255
HEIGHT 1
VIEWPOINT 0 0 0 1 0 0 0
POINTS 1255
DATA ascii
-128.83473 171.39139 1.8575431 11
-128.92108 174.62137 1.8432094 10.069
-128.89365 156.24092 2.1599257 11.0775
-128.93428 156.7401 2.1216164 12.6385
-128.97224 156.88847 2.1964555 12.26431
-129.1028 157.64197 2.1401856 11.7123
-129.19827 161.17804 2.3238382 13.031
-128.8269 170.99048 2.0640235 10
-128.96393 171.47902 2.1203103 10.08675
-128.85194 156.16476 2.5454752 14.0495
-128.86961 156.64789 2.6189828 13.269889
-128.9621 156.91234 2.6076143 14.446326
-129.16075 157.23645 2.5251286 9.1704998
-129.10963 161.03825 2.5241518 12.886562
-128.98381 161.36169 2.6931357 12.538
-129.03296 163.24519 2.6768467 9.1689997
-128.94713 171.34248 2.6626565 12.0398
-129.07071 156.24913 2.887779 15.0595
-128.94264 156.95859 2.925673 13.504375
-129.18318 157.25362 2.9044902 12.167
-129.00476 161.00443 3.0247555 13.326357
-128.8414 161.48634 2.9424143 12.795751
-128.81419 161.78685 3.1304071 14.055
-128.8651 155.79419 3.4804308 15.03975
-128.8343 157.03227 3.5818274 12
-129.05171 160.67686 3.5095551 14.062
-129.05801 160.9373 3.4663241 13.84875
-128.94281 161.33133 3.3876541 14.0595
-128.84415 155.61813 3.615402 15.0105
-128.84975 156.97585 3.9072578 13.2
-128.95256 160.92616 3.8261907 11.145125
-128.95276 161.32628 3.8403065 13.069
-128.94173 165.62643 3.8800559 14.0405
-128.80405 156.92152 4.0436635 11.171
-129.02063 158.97441 4.3184404 10.1725
-128.985 160.68849 4.2226968 14.0355
-129.03621 160.9211 4.1963773 13.566938
-128.89615 150.71817 4.6739602 14.122499
-128.82712 152.67662 4.7762184 14.166
-128.90601 159.14427 4.6422133 13.168
-128.91991 160.61443 4.4346576 15.031
-128.8929 160.89911 4.6011772 13.086
-128.8273 162.26955 4.4886608 15
-128.8007 151.29225 4.9274387 15.077
-128.96503 151.74367 5.1124034 12.08375
-129.07935 152.18942 4.9958382 14.665751
-129.0986 153.58028 5.0194507 11.1715
-128.98578 153.72813 5.133985 11.17175
-128.9445 154.56009 4.8251376 14.166
-128.98811 157.2355 4.9585686 15.1765
-128.90723 159.2498 4.8117533 13.1685
-129.13805 159.8083 5.0876098 14.071
-129.09416 165.35527 4.8814278 15.0375
-129.10059 151.62535 5.3245134 15.0775
-129.188 152.11264 5.4783769 15.1655
-129.11662 152.60321 5.4633894 12.806834
-128.91383 153.09184 5.3358331 15.1655
-129.01172 153.45003 5.3605208 14.6665
-129.00201 153.73671 5.2727132 12.67
-128.85396 157.65509 5.5292163 14.0745
-128.95757 158.40411 5.5900035 14.1675
-129.07626 158.99889 5.3561282 13.67
-129.10184 159.2473 5.2460647 14.072
-128.83633 162.98595 5.3193903 14.176
-128.93587 163.2505 5.510025 11.1725
-128.83351 152.97476 5.728847 12.171
-128.82411 153.62309 5.6037574 13.08
-129.02409 162.95972 5.9499516 12.172
-128.95514 150.46477 6.2448449 13.083
-129.10626 151.43877 6.2637458 13.082251
-128.97249 159.30122 6.2253451 14.0745
-128.91563 161.94205 6.3128486 14.1685
-129.00494 151.06096 6.4502478 14.0815
-128.89503 151.72861 6.4611101 14.081
-128.90958 156.20448 6.4484277 15.167
-128.85107 150.3139 6.8010826 13.1705
-128.88123 163.71619 7.1317887 12.0725
-129.01306 150.27785 7.2193289 12.173
-129.14825 151.15733 7.5010085 13.6705
-128.87064 151.01018 7.7376637 14.58175
-128.97096 151.54947 7.8719549 14.082
-129.09045 156.74098 7.7644877 11.1705
-128.95367 150.10365 8.203208 14.583
-129.02859 152.15701 8.1659575 14.5815
-129.11247 152.49756 8.1194887 13.0835
-128.89764 152.83147 8.3200102 15.0805
-129.19536 150.31438 8.5466576 12.174
-129.01825 151.50662 8.5687418 15.0815
-129.10947 152.27989 8.6397362 15.081
-129.12306 153.03995 8.6927776 15.0805
-128.94586 152.92661 8.9505119 13.808333
-128.73462 173.07147 -4.5112033 6
-128.45627 173.3506 -4.5871744 6
-128.65703 173.45805 -4.3119497 6
-128.59143 173.81224 -4.2786469 6.3333335
-128.63171 150.13258 -3.8718641 3
-128.6899 150.68083 -3.8479307 4.6666665
-128.423 150.92874 -3.861551 4
-128.59462 151.46953 -3.8589087 4
-128.62576 152.14912 -3.8821588 4.5
-128.54555 152.75389 -3.9021642 4
-128.52477 153.02066 -3.8972645 4
-128.6566 153.35963 -3.9082875 4
-128.58894 155.44643 -3.8059077 5
-128.49652 155.94867 -3.7539876 5
-128.62941 156.30968 -3.7531986 5
-128.55009 156.55615 -3.7314205 5
-128.46281 157.10887 -3.7875335 7
-128.43385 172.36296 -3.979789 6
-128.6226 173.9691 -3.7220423 7
-128.63858 156.73198 -3.2402258 6
-128.49551 157.12784 -3.3479292 6.5
-128.58792 173.64159 -3.2912405 7
-128.67555 156.72441 -3.1425004 6.125
-128.6057 156.87866 -3.0280466 7
-128.59601 157.75258 -2.8355184 7
-128.4899 173.784 -3.0694005 7
-128.62985 174.14771 -3.0343161 7
-128.68024 156.76003 -2.5566342 7
-128.66469 156.88208 -2.5639539 7.1533213
-128.69733 155.41249 -2.0799158 8.0240002
-128.66267 156.73573 -2.2443156 7.5450001
-128.64883 156.95355 -2.0659454 7.8713336
-128.55298 171.33032 -2.1156456 7.8612857
-128.54559 173.80466 -2.1338069 8.0395002
-128.79861 155.37364 -1.9015274 8.0745001
-128.6461 156.76167 -1.8587215 8.0016947
-128.6376 156.87904 -1.8508292 8.0083752
-128.7601 170.79756 -1.8447887 8
-128.61523 171.15678 -1.913964 8.0567493
-128.60393 171.40765 -1.8844767 8.0295
-128.45085 171.60847 -1.8423294 8.0010004
-128.71153 156.75963 -1.3087509 8.666667
-128.60286 156.86659 -1.2944089 8.860714
-128.58209 170.1338 -1.421513 8.1735001
-128.47214 170.92084 -1.2841589 8.1709995
-128.63182 171.39465 -1.3146282 8.1141663
-128.56865 156.75485 -1.0449432 8.8125
-128.68977 156.86552 -1.056603 8.8823528
-128.6969 169.98091 -0.84678835 8.1730003
-128.64622 170.6694 -0.8483817 9.0112
-128.49281 170.92322 -0.84992039 9
-128.66786 156.7562 -0.61509186 9.833333
-128.54956 156.89447 -0.58670682 9.6578951
-128.54794 169.91696 -0.63996238 9.0438337
-128.67671 170.25525 -0.63851172 8.8907852
-128.63861 170.56175 -0.61215794 9.0485001
-128.51117 170.89861 -0.67909104 9
-128.64043 156.7326 -0.18760891 9.588459
-128.63586 156.90121 -0.18262056 9.5766249
-128.53468 157.59697 -0.24296245 8.0085001
-128.66162 170.04643 -0.31238413 9.1780005
-128.6387 170.54845 -0.30717558 9
-128.53845 171.99693 -0.0019908301 8.1709995
-128.70235 156.28575 0.38928336 9
-128.61301 156.75095 0.17625555 10.706408
-128.58414 156.89815 0.19014753 10.674701
-128.66037 171.08124 0.3637965 9.6961355
-128.75847 171.28786 0.39437494 10
-128.59224 156.74017 0.63685274 11.3613
-128.5602 156.91016 0.5863061 10.858947
-128.68439 170.69765 0.59010738 9.8000002
-128.65829 171.14597 0.52134442 10.0105
-128.65009 171.30473 0.56824702 10
-128.60188 171.7381 0.51401621 10.014167
-128.66476 172.19855 0.48515484 10.05675
-128.52489 172.56291 0.6601249 10.061001
-128.51735 173.19771 0.51198286 10.0575
-128.49173 173.3007 0.59096807 10.059
-128.59334 156.7498 0.97538006 11.595922
-128.63472 156.87927 1.0429816 11.417562
-128.59908 170.82086 0.80874401 10
-128.55664 171.51756 0.82979667 10.0035
-128.62088 156.76845 1.3211802 12.6
-128.59865 156.88382 1.3956566 12.325015
-128.76704 157.22157 1.5846819 11.074
-128.60344 170.28639 1.4880887 11.053082
-128.76566 170.50497 1.5035895 11.0489
-128.59889 171.11081 1.5743097 11.0275
-128.69783 171.56638 1.5890214 11.052
-128.43936 171.62053 1.5408316 11.051
-128.61491 156.74992 1.8159509 12.184211
-128.58099 156.86554 1.8460962 12.615183
-128.53923 157.38545 1.6713026 13.05925
-128.41241 162.60999 1.8527515 11.704666
-128.61768 162.96635 1.7127806 11.461834
-128.56561 170.70053 1.7522124 10.53775
-128.61038 171.00555 1.7399222 10.940714
-128.61325 171.28337 1.6982301 11.0113
-128.71727 171.72795 1.9092643 11.0235
-128.59811 156.29799 2.2171161 12.976208
-128.5878 156.67542 2.2186897 12.421288
-128.56134 156.93111 2.1467102 13.00986
-128.45343 162.33849 2.1874316 13.045
-128.54335 162.49921 2.269222 12.534937
-128.57533 162.84567 2.302448 13.024
-128.61359 171.19212 2.0866504 10
-128.48174 171.44963 2.3814361 11.001
-128.74107 171.74652 2.1234853 10
-128.63571 156.25417 2.5329924 14.202708
-128.5851 156.62511 2.5787997 14.14674
-128.63655 156.88535 2.6294208 13
-128.68843 161.39117 2.7908375 12
-128.54193 162.19168 2.6549785 13.019626
-128.59874 162.6586 2.503448 13.018625
-128.49895 162.8291 2.4216478 13.0395
-128.63188 156.26724 3.0508733 13.909688
-128.58543 156.60139 2.9800248 13.9045
-128.62903 156.92001 2.9547553 13.89325
-128.60741 161.51643 3.0405035 14.053499
-128.69765 161.67281 2.9466298 13.10675
-128.44649 162.34576 3.0836167 14
-128.69077 162.51395 3.1503217 14.052167
-128.72112 155.55144 3.5238943 10.1725
-128.78235 155.72157 3.345233 10
-128.58357 156.15166 3.267879 13.4307
-128.52715 156.64731 3.2892311 13.8
-128.62819 156.97572 3.3907027 12.944307
-128.75229 160.71312 3.5606532 14
-128.78445 161.0797 3.5449915 14.0615
-128.6497 161.54613 3.4099452 13.5285
-128.41411 161.98813 3.3124394 14.0565
-128.51936 162.20627 3.4071 14.015083
-128.49736 162.44719 3.2430527 14
-128.61487 157.02135 3.8521583 13.5
-128.67091 160.73604 3.9087646 10.17275
-128.47554 160.87779 3.9047334 14.028
-128.73064 161.22734 3.911931 13
-128.52904 161.97278 3.7463121 14
-128.75453 162.30589 3.6951478 14
-128.49258 162.43683 3.9749503 15
-128.4216 150.98947 4.379096 10.172
-128.59253 156.95366 4.1248512 12.634199
-128.55101 160.75471 4.0501871 10.1735
-128.61951 160.85893 4.2086949 14.096667
-128.65813 161.4772 4.0131783 13
-128.50732 161.80981 4.3178873 15.019333
-128.52084 162.4295 4.1739941 15.028
-128.66628 150.58217 4.6523848 14.12275
-128.55563 151.07826 4.4733701 14.62075
-128.46286 151.27797 4.5160937 11.078
-128.54639 152.17964 4.6468906 14.6205
-128.59441 156.96165 4.5343261 12.3905
-128.46066 159.88823 4.7677784 14.1745
-128.56264 160.17323 4.5519447 13.81025
-128.49284 160.40514 4.6310067 11.1715
-128.6331 160.91823 4.5250897 13.117126
-128.55261 161.58386 4.5816669 15.061
-128.52168 161.90471 4.6181316 15
-128.67104 162.24025 4.5885921 15
-128.65022 151.07126 4.8934546 14.802999
-128.50313 151.66954 4.8905821 15.0765
-128.70583 154.07457 5.0610957 14.1665
-128.50812 157.06517 4.9526844 13
-128.49239 160.10521 5.0663338 12.039
-128.6328 160.69914 4.896224 11.172
-128.46675 160.894 5.0157623 14.0345
-128.67912 151.98907 5.2542057 15.077
-128.582 152.28764 5.5563736 13.169001
-128.74364 153.33247 5.3115416 15.167
-128.40778 156.94708 5.3394885 13.5
-128.65955 157.92577 5.5186996 14.167
-128.6324 158.257 5.5200958 14.624001
-128.49205 158.63625 5.3777142 14.12125
-128.52582 159.0256 5.4732308 14.135834
-128.54233 159.34161 5.4612784 15.177
-128.41475 159.81702 5.3291545 13.1695
-128.54668 150.00256 5.9284225 15.1665
-128.47649 156.94824 5.7286687 14
-128.48759 158.20703 5.807282 13.077
-128.55638 158.95004 5.7361612 13.772499
-128.45596 156.31512 6.3297715 11.1735
-128.69838 159.41853 6.2816086 14.075
-128.48976 159.78558 6.1779661 14.074
-128.45604 161.22964 6.3875308 12.078
-128.46725 150.33376 6.6834602 14.1255
-128.67429 152.15068 6.4002557 15.1675
-128.46397 152.52185 6.5412793 13.415
-128.65576 152.86356 6.475409 13.170499
-128.53392 160.17392 6.634305 15.0715
-128.65872 150.63882 6.9925661 13.12725
-128.51521 152.6451 6.9846096 14.0815
-128.42677 152.89626 7.1921163 14.0805
-128.58818 154.1626 6.8450675 14.0795
-128.47597 154.77124 6.9029455 15.168
-128.68011 154.99867 6.9059792 13.62475
-128.47943 155.47321 7.0901079 15.077
-128.51907 150.37421 7.3089604 13.1705
-128.71677 155.05907 7.4856429 11.1705
-128.42464 155.34514 7.3561363 14.411835
-128.77145 151.28142 7.8965883 14.17
-128.51807 155.44884 7.6227713 15.078
-128.45937 156.15202 7.6767573 15.0775
-128.56924 157.26198 8.2524576 12.1735
-128.79939 157.2307 8.9156494 14.171
-128.58418 157.06517 9.3155155 15.078
-128.38812 172.00816 -4.8616939 7
-128.13765 173.43745 -4.4822345 6
-128.12831 173.7493 -4.4547858 6.5
-128.32042 151.95944 -4.156435 6
-128.33517 156.50529 -4.0966449 7
-128.02545 172.13176 -4.1603613 6
-128.38039 173.27905 -4.1699605 6
-128.27708 173.88589 -4.0690546 7
-128.12312 174.40063 -4.0206914 7
-128.20784 150.09178 -3.8639326 3.8
-128.22044 151.0432 -3.8639686 4
-128.18906 151.53592 -3.8858476 4.3333335
-128.01883 151.60324 -3.8492897 4
-128.19716 152.27151 -3.8921359 4
-128.16888 152.63065 -3.8964026 4
-128.18294 153.01862 -3.900768 4
-128.19044 153.28581 -3.9058361 4
-128.28763 155.38417 -3.8109062 5
-128.25569 155.69466 -3.7740407 5
-128.17625 156.21333 -3.7745879 5
-128.15273 156.55702 -3.7792337 5
-128.2673 156.90469 -3.7498555 5
-128.08046 157.27011 -3.8079708 5
-128.27174 173.95464 -3.9233899 6
-128.18655 173.05685 -3.3285775 7
-128.22801 173.38219 -3.4723067 7
-128.04825 173.32143 -3.1179903 7
-128.27086 173.95503 -3.0149012 7
-128.12022 174.09471 -3.0450542 7.5342498
-128.22942 169.98399 -2.5845523 8.0605001
-128.05591 171.08733 -2.172972 8
-128.21181 171.40733 -2.0479548 8.0054092
-128.20221 171.72122 -2.3583758 7
-128.20872 173.78877 -2.0639462 8.0594997
-128.02415 174.09181 -2.0744126 8.0577497
-128.38403 156.75658 -1.6513728 8
-128.15846 171.3654 -1.8441586 8.0409164
-128.3273 171.66483 -1.8187909 8.0412502
-128.06996 171.54021 -1.3126278 8.1704998
-128.3941 156.79625 -1.0874016 8
-128.3873 169.85284 -0.81041181 9.0469999
-128.38165 170.96776 -0.84854281 9
-128.16 171.30875 -0.84046996 9.0146875
-128.39322 173.58893 -0.8286525 9.0579996
-128.39178 156.73445 -0.69560611 9
-128.34335 169.92256 -0.68017191 9.0284996
-128.18105 170.1588 -0.54697222 9.0074997
-128.27106 170.99162 -0.68758166 9.0028744
-128.1071 171.29832 -0.71672118 9.0110006
-128.33267 173.58711 -0.79853922 9
-128.34149 174.21825 -0.69101018 9.0555
-128.3566 156.78496 -0.16270858 9.333333
-128.2027 169.62735 -0.28073165 8.1735001
-128.39027 156.93721 0.37783179 10
-128.37178 156.77173 0.46064043 11
-128.39488 156.90187 0.61560088 12
-128.32271 171.82051 0.62223887 10
-128.21539 172.50723 0.68529749 10.025333
-128.22575 173.05498 0.52852595 10.04925
-128.36487 173.5179 0.53590947 10.042
-128.22699 173.87158 0.57405448 10.051333
-128.12221 174.25723 0.58992976 10.056832
-128.35881 157.06017 0.92485178 12.0605
-128.25746 171.7276 0.85719585 10
-128.39297 156.7742 1.3990791 12
-128.30748 156.96687 1.4581931 12.766624
-128.39581 170.27698 1.3928894 11.047
-128.1743 171.11099 1.5892143 11.0464
-128.17027 171.33174 1.5460255 11.0485
-128.28015 171.61934 1.5448396 11.05
-128.21169 156.79033 1.7537149 10.585751
-128.18901 156.92902 1.8773201 12.379582
-128.19418 157.36308 1.8176789 12.205999
-128.34906 157.64568 1.9608961 11.076
-128.01241 162.3463 1.9603913 12.02
-128.18562 162.60075 1.8333187 10.6835
-128.30817 170.6002 1.9071239 10.5955
-128.28926 171.019 1.8346406 10.810277
-128.26257 171.36244 1.6347067 11.04825
-128.24922 156.27663 2.2600582 13.309
-128.1788 156.56731 2.2577171 12.509572
-128.2188 156.92818 2.1496339 13.089932
-128.14783 157.43333 2.2235274 12.402333
-128.19948 161.6579 2.3346751 9.1730003
-128.16116 162.23863 2.3340054 13.041167
-128.20486 162.55077 2.255702 12.931772
-128.30551 171.39438 2.1812418 10.075
-128.24078 155.96208 2.6375225 10.171
-128.23473 156.23166 2.486109 14.156445
-128.2653 156.63266 2.6012199 13.896328
-128.18289 156.93713 2.6067665 13.325964
-128.14584 157.3195 2.5583618 14.061251
-128.20821 162.15181 2.453414 12.6336
-128.26784 162.46745 2.5396924 13.01675
-128.25029 162.98416 2.722615 12.0675
-128.06845 170.78334 2.7487671 12.0555
-128.15686 170.92192 2.6647224 11.920857
-128.33618 171.77641 2.7364471 12.049
-128.22861 156.27121 2.9772778 13.627144
-128.27693 156.64381 2.9604404 13.524928
-128.28172 156.93587 3.0119174 12
-128.15991 157.26845 2.8436425 13.069
-128.15675 161.99762 2.8511775 13.02
-128.22794 162.24365 3.0580914 13.698502
-128.16829 170.60414 2.9349103 12
-128.14732 171.00032 2.8926325 12
-128.14702 155.93646 3.4166691 12.0775
-128.26524 156.19695 3.3380098 14.267056
-128.26918 156.40417 3.4932826 15
-128.38869 156.87389 3.2878766 12
-128.23082 162.23969 3.3699012 14.007438
-128.2534 162.41562 3.4310875 14.01675
-128.02092 162.95844 3.4794877 13.0655
-128.30554 160.79739 3.9228551 10.172
-128.08627 160.85796 3.858577 13
-128.31808 161.84537 3.766891 14.333333
-128.22185 162.22511 3.877172 14.345584
-128.29309 151.1013 4.2937059 10.1725
-128.17198 160.74516 4.069448 15.059
-128.30849 160.97696 4.0922589 13
-128.27835 161.90868 4.2357488 15
-128.17326 162.25925 4.1452689 15.006001
-128.34338 151.17377 4.4360857 10.1715
-128.08148 160.94724 4.4857321 15.062
-128.33049 161.46242 4.6743894 14
-128.38177 161.89034 4.5458341 15
-128.3472 162.11113 4.4554901 15.02975
-128.22993 151.53157 4.9752784 12.0835
-128.23514 159.38142 5.032444 14.080667
-128.33331 159.61668 5.1321845 13.169
-128.17128 160.83662 4.9727015 14
-128.2399 156.92018 5.4218898 14.0555
-128.166 159.73639 5.3540225 14.072
-128.11452 160.93369 5.3003936 14
-128.1321 156.97432 5.6590033 14
-128.34431 157.53673 5.730176 14.075
-128.3522 158.57806 5.9645853 15.0715
-128.14015 159.10294 5.99296 15.071
-128.2319 159.23706 5.7824903 15.07
-128.25369 159.95284 5.895865 15.0695
-128.14075 160.84641 5.7370782 14.072
-128.38651 150.13307 6.0933433 11.1735
-128.06841 151.67328 6.3667293 13.0825
-128.18411 153.02541 6.3784399 14.08
-128.1967 157.9904 6.122355 15.0725
-128.13072 159.79657 6.092453 15.0705
-128.38101 150.15059 6.7921472 15.0815
-128.05753 151.3821 6.6243382 15.08
-128.01765 151.91409 6.7641716 12.171
-128.17699 152.09216 6.543838 15.1085
-128.2944 152.66588 6.7355809 14.57975
-128.3118 153.34387 6.7366824 13.580999
-128.37195 153.71416 6.4805322 13.5805
-128.10121 154.07906 6.6164742 15.0775
-128.22281 154.47075 6.4849367 14.079
-128.03598 156.63744 6.5473385 15
-128.23959 161.06345 6.6093478 15
-128.08662 161.47285 6.5968246 15.07
-128.15137 152.69891 6.9106627 14.0805
-128.24104 153.44272 6.9499373 14.080501
-128.00467 153.90833 6.8214483 15.078
-128.02077 154.14432 6.9679532 14.0795
-128.20526 154.67345 7.0215073 15.07775
-128.228 154.98163 7.0694532 14.079
-128.35641 156.18515 6.8964748 15.076
-128.32867 163.7233 7.0371742 13.076
-128.09825 150.0827 7.2179346 12.1725
-128.19371 153.78595 7.3818583 14.5795
-128.2355 154.54747 7.4454899 14.579
-128.27269 152.2263 7.7528524 14.580999
-128.16664 153.76167 7.7945428 14.33025
-128.12779 154.56444 7.8355513 14.412999
-128.09689 154.02188 8.1987267 15.0795
-128.2326 154.80739 8.2967911 15.079
-128.36609 156.7701 8.1690283 15.0775
-128.02255 157.00069 8.4381275 15.0775
-127.88625 169.36772 -4.4241343 6
-127.79155 172.11308 -4.4832349 6
-127.96632 173.3369 -4.5466027 6
-127.73802 150.6685 -4.0028963 5
-127.8067 170.26311 -4.0683317 6
-127.83395 172.19554 -4.1472073 6
-127.99226 172.45569 -4.3457518 6
-127.93427 173.59496 -4.0194311 7
-127.7683 150.12671 -3.8923616 3.6666667
-127.81834 150.49051 -3.8493106 4
-127.75387 151.3421 -3.8913908 4
-127.73401 151.83211 -3.8883379 4
-127.77364 152.20308 -3.8979769 4
-127.80428 152.56082 -3.8956726 4
-127.77739 152.99399 -3.9016905 4
-127.7466 153.24493 -3.9086807 4
-127.85495 155.79559 -3.8249164 5
-127.75403 156.11627 -3.8039501 5
-127.71107 156.6982 -3.7891393 5
-127.9839 157.06348 -3.8045614 5
-127.98777 157.3157 -3.848165 5
-127.73788 158.6797 -3.9592116 5
-127.73861 158.96556 -3.9772022 5
-127.92926 172.64723 -3.8648279 6
-127.83118 173.47385 -3.686305 7
-127.67652 160.92236 -3.4409356 6
-127.81532 173.38509 -3.2792757 7
-127.74903 173.94872 -3.2976916 7
-127.90685 171.14555 -2.8922219 7
-127.92441 173.46567 -3.0493147 7
-127.84863 174.06244 -3.0311756 7
-127.65911 160.92552 -2.5868552 7
-127.72337 171.0511 -2.6568375 7
-127.86239 171.28261 -2.6089268 7
-127.61446 160.91547 -2.0530138 8
-127.84174 171.17097 -2.0687964 8
-127.78772 171.29547 -2.0936894 8.0106754
-127.77988 172.39803 -2.0029099 8.0539999
-127.89327 172.43663 -2.0828578 8.0565004
-127.92287 173.52304 -2.0972686 8.0608339
-127.94357 174.12724 -2.1228645 8.0578337
-127.7228 161.08183 -1.865072 8.0249996
-127.74718 171.39371 -1.905472 8.0393333
-127.93163 171.70973 -1.7791301 8.0419998
-127.98251 174.1873 -1.9367689 8.0530005
-127.7285 160.98383 -1.3284737 8
-127.60802 171.06303 -1.2315372 8
-127.72275 171.43388 -1.227252 8
-127.65489 171.6859 -1.2959516 8.1707497
-127.71349 161.06172 -1.0001373 9.0337496
-127.73129 171.1866 -0.91761756 9
-127.79199 171.3102 -0.89085007 8.8456497
-127.84431 171.37794 -0.72221994 9.0225716
-127.6744 171.73389 -0.64230484 9.0507498
-127.80085 173.62669 -0.69065869 9.0530005
-127.80241 175.3051 -0.67239726 9.0594997
-127.64735 160.96819 -0.12917976 9
-127.70042 172.29103 -0.30527616 8.1739998
-127.76235 161.24391 0.19299251 10.006
-127.79692 170.75624 0.31405345 9.7142859
-127.7206 170.9646 0.35785165 10
-127.79776 171.61443 0.36711335 10
-127.82951 174.26335 0.3489016 8.1750002
-127.60242 170.85522 0.645316 9.1724997
-127.76962 171.6873 0.71370721 10.017166
-127.80681 174.33122 0.69848597 10.041
-127.77927 174.52512 0.64209288 10.047
-127.739 171.6299 0.81261677 10.0095
-127.92996 173.6274 0.8206057 10.02
-127.88815 156.89662 1.3940973 9.1719999
-127.60702 161.01454 1.3978201 12
-127.73862 161.27641 1.2099023 11.006
-127.60909 170.79993 1.451135 11
-127.8033 171.00383 1.5198926 11
-127.8185 171.33603 1.5456775 10.8445
-127.79086 172.21515 1.5979668 11.0495
-127.8856 156.96774 1.9020318 12.299179
-127.84632 171.03008 1.8356613 10.551937
-127.82579 171.34639 1.7454698 11.0336
-127.70283 171.61613 1.6452401 11.0575
-127.90024 172.26562 1.7088709 11.0565
-127.87493 173.99858 1.8641968 11.053
-127.90836 174.17908 1.8991959 11.0575
-127.85812 156.37366 2.2131543 14.286125
-127.79422 156.45882 2.2811096 14.5515
-127.88134 157.06946 2.1587317 13.219833
-127.87208 157.37738 2.157474 14.055499
-127.65589 157.75508 2.2749047 13.066
-127.87035 162.24359 2.198549 12.4421
-127.81513 162.53612 2.2506363 12.779124
-127.92339 170.92049 2.241528 9.1737499
-127.82615 156.36624 2.4296534 15.045001
-127.88876 156.53104 2.593662 13.541
-127.83714 157.05093 2.6180553 13.2824
-127.74863 157.40614 2.6369445 12.69415
-127.73579 157.75685 2.4735777 12.730334
-127.75695 162.18913 2.5627778 11.633624
-127.92977 162.54712 2.6667736 13.02825
-127.71281 163.87038 2.7445769 13.056666
-127.76283 164.04774 2.7395737 13.056
-127.95615 170.58868 2.5657508 10.606
-127.96387 170.9928 2.6578584 12.0515
-127.78703 171.4772 2.6417246 11.867001
-127.70078 171.72847 2.7062221 12.0495
-127.78661 156.65466 2.8195319 15.0575
-127.77023 157.4769 2.9400465 14.489642
-127.78192 161.94621 2.9547167 14.024626
-127.77879 162.13223 3.0169871 14.0125
-127.92446 171.54688 2.8096566 12
-127.78527 171.70589 2.8250473 12.0535
-127.8234 172.24625 3.1529965 12.059
-127.93458 172.44121 2.9385512 12.042
-127.92947 156.12514 3.270273 15
-127.71087 162.73228 3.4974871 13.726833
-127.6247 163.22218 3.2170694 14.044
-127.76131 171.91212 3.5557809 12.0095
-127.72115 161.51021 3.7147517 14.895375
-127.95443 162.64708 3.9250646 13.068
-127.85213 163.04868 3.6701531 14.0585
-127.98819 162.32828 4.180624 15
-127.84705 160.81161 4.5018368 14
-127.61958 162.30823 4.7885628 11.1715
-127.7359 162.70793 4.5824094 14.562
-127.71088 162.834 4.4207578 14.5605
-127.76401 160.12001 5.1540947 13.0885
-127.98402 160.92696 4.8482847 14
-127.97823 156.5466 5.5857835 14
-127.90555 159.20795 5.5032887 14.073
-127.62027 160.08205 5.2891903 14.0715
-127.95409 161.03122 5.2829981 14
-127.69044 150.18253 5.7714772 12.0845
-127.9421 155.93654 5.8015394 14.077
-127.9433 156.56029 5.7724304 14
-127.9006 156.97353 5.8632894 14.5365
-127.78377 157.91446 5.6524005 14.0745
-127.89775 160.95583 5.6786666 15
-127.92342 152.04991 6.3416543 15.1665
-127.61519 156.02379 6.0277104 15.0745
-127.96818 156.87964 6.212286 15.074
-127.75378 160.5144 6.1638799 15
-127.88611 151.5338 6.6064968 13.083
-127.71925 151.71638 6.502068 14.081
-127.65842 152.32924 6.7290912 13.0835
-127.62753 152.44841 6.6990571 13.083
-127.97634 153.17436 6.5899687 15.167
-127.74978 153.60741 6.4981308 15.1665
-127.94623 155.33752 6.4650683 12.1715
-127.8322 161.04182 6.5186377 15
-127.99168 151.95531 6.8174992 15.08
-127.99982 153.92619 6.9814901 15.0785
-127.91123 154.25496 7.1538811 14.0795
-127.72412 150.45605 7.5468459 14.0825
-127.7263 150.28809 7.8474145 13.808
-127.73794 150.56534 7.980011 14.1695
-127.90789 150.32784 8.1041994 13.1705
-127.94979 154.39767 8.1825352 14.081
-127.62909 157.33661 8.8904009 15.0775
-127.34309 168.08597 -4.4086165 6
-127.31525 169.52686 -4.4194384 6
-127.34282 150.52055 -4.0134549 5
-127.48309 159.39977 -4.0142894 5
-127.42769 173.51614 -4.3073449 6
-127.29124 174.25784 -4.2837605 6
-127.50883 150.12187 -3.8836555 3.25
-127.38969 150.62975 -3.8630884 4.5
-127.22717 151.05853 -3.9451532 4
-127.28071 151.35225 -3.8918445 4
-127.42351 151.76067 -3.8790324 4
-127.45628 152.36441 -3.91326 4
-127.39679 152.56786 -3.8879964 4
-127.36414 153.05103 -3.9055393 4
-127.39214 153.22874 -3.9106474 4
-127.50893 157.1151 -3.856041 5
-127.34692 157.37242 -3.8721333 5
-127.25623 157.62665 -3.9054708 5
-127.39447 158.56262 -3.9574609 5.3333335
-127.35499 159.27177 -3.9795067 6
-127.39533 160.6552 -3.9741333 6
-127.42676 160.77304 -3.4454148 6
-127.32313 160.85095 -3.3853374 6.2222223
-127.36975 174.02103 -3.2962449 7
-127.48797 160.95161 -2.9295938 7
-127.33729 171.48531 -2.8606305 7
-127.39738 174.24516 -3.1465032 7
-127.42213 174.4792 -3.1008914 7
-127.55053 160.79877 -2.6410184 7
-127.39677 160.90929 -2.6707392 7.04356
-127.33014 161.34319 -2.4406891 8.0873337
-127.54938 171.28441 -2.4180493 7
-127.38249 161.00784 -2.1485956 7.8142862
-127.5414 171.35184 -2.0184555 8.0275002
-127.23865 175.88721 -2.0463643 8.0542507
-127.33054 160.94218 -1.8800974 8.0055265
-127.5034 171.34955 -1.8815792 8
-127.32774 175.09215 -1.8599052 8.0193748
-127.28143 175.34647 -1.8234948 8.0430002
-127.47388 160.90396 -1.3103287 8.3063498
-127.34113 160.97084 -1.0519545 9.0017052
-127.51058 171.49139 -0.83585882 9.0385008
-127.48801 171.614 -0.81635958 9.0539999
-127.28306 160.93936 -0.56091017 9.0132084
-127.35978 161.21039 -0.47558334 9.0795002
-127.58782 171.46555 -0.74922979 9
-127.49774 171.78763 -0.69435579 9.0445004
-127.38953 175.30536 -0.68507296 9.0530005
-127.38572 160.97473 -0.21646251 9.5402575
-127.40022 171.04582 -0.17795929 8.1735001
-127.4451 171.35225 -0.25700894 9.1774998
-127.51958 173.52632 -0.22369027 9.0734997
-127.30733 160.99481 0.27993858 10.338773
-127.59097 170.79851 0.317197 10.0585
-127.53863 170.91052 0.35279328 10
-127.31258 171.91434 0.37655437 10.033333
-127.24097 172.04344 0.39326036 10.057
-127.36906 160.99121 0.55443782 10.925926
-127.26898 161.20638 0.64464456 11
-127.41486 170.89211 0.49213591 10.032
-127.49946 171.63062 0.77530593 10.0125
-127.32961 172.1243 0.44302607 10.053
-127.31161 172.70099 0.53265041 10.043667
-127.24935 174.06078 0.40135586 9.1704998
-127.59743 174.44627 0.42797312 8.1750002
-127.36678 161.00055 1.06838 11.277778
-127.51266 171.16217 1.1707859 10.1775
-127.24886 173.38309 1.004377 10.0065
-127.35678 161.01498 1.3724786 11.785714
-127.24292 161.2625 1.3201092 11.068
-127.24657 170.18422 1.4731132 11.0465
-127.56975 170.73058 1.4841849 11.043
-127.36444 171.01671 1.4775965 11.0485
-127.39613 171.26839 1.5517433 11.023624
-127.31774 171.8788 1.5399344 11.05
-127.34545 161.01808 1.8656214 12.5
-127.2505 161.23518 1.8468392 12
-127.35137 170.16705 1.6055858 11.0595
-127.27766 171.33365 1.7111559 11.0455
-127.39097 171.90994 1.6348915 11.017166
-127.41237 172.02495 1.6635803 11.055
-127.43006 174.21078 1.8566827 11.050857
-127.40816 157.73808 2.3432391 9.1704998
-127.38813 161.04616 2.1736341 13
-127.52801 162.31859 2.3276906 13.04
-127.25275 164.32071 2.128686 12.0235
-127.45547 171.2751 2.3172188 9.1730003
-127.46009 171.70015 2.1092014 11.0125
-127.47179 157.55539 2.710196 15.04475
-127.36357 157.71165 2.746475 14.939222
-127.31251 161.04546 2.6362202 13.571428
-127.59927 162.08177 2.4683676 13.0325
-127.53516 162.56154 2.5493932 11.1125
-127.34211 163.93419 2.5681336 13.048
-127.33142 164.14975 2.5239458 13.050416
-127.3563 171.03937 2.7228291 12.037374
-127.31363 171.40544 2.6901727 12.02325
-127.38952 171.87328 2.7297628 12.050334
-127.52357 172.24193 2.7826028 12.044
-127.54089 157.49713 2.9230702 14.307
-127.50672 157.63391 2.8349004 15.054334
-127.32033 161.06183 2.9721684 14
-127.52338 163.45659 2.8679531 13.06
-127.31261 171.2225 2.899622 12.032
-127.42381 172.27293 2.9092472 12.03975
-127.33495 161.09242 3.3578541 14.125
-127.37959 161.30945 3.5987864 15
-127.41174 163.13737 3.3108819 14.05225
-127.48727 163.2663 3.4530628 14.054667
-127.45099 173.7795 3.487978 12.023
-127.31035 161.06827 3.8028178 13.645267
-127.48881 161.36911 3.6915886 15.026249
-127.33855 170.84425 3.9194129 13
-127.39208 175.07652 3.9786963 12.01
-127.44124 161.09802 4.1477351 15
-127.56396 161.24217 4.236073 13.58475
-127.38654 162.99521 4.2266784 15.053125
-127.35986 172.70775 4.2014918 13.04
-127.49274 172.85254 4.2472577 13.039166
-127.37482 161.14967 4.7384586 12.169
-127.47277 161.28352 4.6847882 15.019
-127.24242 162.93315 4.4546318 12.1695
-127.3405 154.55318 5.1124291 14.165
-127.48288 159.5179 4.969748 14.071
-127.38626 159.86061 4.908762 10.174
-127.3961 161.174 5.0826354 13.1675
-127.38596 161.23752 4.9047642 13.1695
-127.3806 162.37172 5.1392865 13.16875
-127.29301 155.75771 5.3565016 14.12075
-127.51617 156.97577 5.5466595 13.0775
-127.42493 159.23289 5.2228885 11.062
-127.4441 159.68382 5.4341679 13.169
-127.33625 153.54587 5.8091969 14.079
-127.4439 155.30249 5.9044118 15.075
-127.20995 157.98393 5.8996706 15.072
-127.4897 160.27946 5.8300529 15
-127.33097 150.2552 6.1309695 11.173
-127.43684 150.4391 6.0043406 10.0005
-127.36117 154.97957 6.1157436 13.62325
-127.52757 157.94179 6.2422366 15.073
-127.58576 160.79173 6.1279306 15.0695
-127.41663 150.11348 6.7394018 11.17
-127.59014 151.07796 6.6974955 14.0815
-127.26247 151.42375 6.6179075 13.08375
-127.38857 151.7377 6.6846037 14.081
-127.29343 154.87215 6.4949384 15.0765
-127.22251 155.25702 6.4683857 13.1695
-127.39577 161.67868 6.4827847 15.0695
-127.27763 150.52614 6.932704 12.072
-127.30408 151.06035 6.9496655 14.110667
-127.4811 151.80743 7.0250611 14.414166
-127.48975 150.16606 7.7125545 14.125999
-127.28448 164.1653 7.6091681 13.0775
-127.50957 150.24808 8.1761122 12.173
-127.41618 163.98029 8.3246078 13.078
-127.47018 157.44926 9.0675898 15.0775
-127.00612 150.30881 -4.0155382 5
-126.99081 159.39809 -4.0281773 5
-127.14584 159.6931 -4.0435691 5
-126.88989 172.83153 -4.227262 6
-127.09851 173.68663 -4.2697401 6
-127.09377 150.09027 -3.8871367 3
-126.97042 150.58417 -3.8864326 4
-127.0228 150.96602 -3.8795202 4
-126.91296 151.44762 -3.869494 4.25
-127.01116 151.81926 -3.8356206 4
-127.00658 152.31471 -3.9249504 4.3333335
-126.96044 152.62578 -3.8852308 4
-127.01241 153.03078 -3.9155655 4
-127.06603 153.25572 -3.9193687 4
-126.92142 157.52924 -3.8933055 5
-126.91148 157.67465 -3.9081519 5
-127.14333 158.57872 -3.9574869 5.5
-126.97282 158.86017 -3.9925468 5
-127.16376 161.07861 -3.7067928 7
-127.14337 169.86977 -3.9929328 6
-126.8675 173.33438 -3.9175806 6
-127.15026 161.10654 -3.5230448 7
-127.19282 173.14119 -3.4196539 7
-127.02171 173.93164 -3.2979639 7
-126.96754 174.02583 -3.3105578 7
-127.11581 160.81261 -2.8455863 7
-126.87875 173.87122 -3.1384499 7
-127.05453 174.09877 -3.1281705 7
-127.17918 160.82152 -2.7371893 7
-127.1749 160.78412 -2.0600672 7
-127.16067 161.0275 -2.0657184 7.875
-127.15331 160.97696 -1.8635408 8
-127.15379 161.20807 -1.909658 8
-127.09238 175.06441 -1.8015261 8.04
-126.94911 175.42905 -1.8629779 8.0275002
-126.91653 175.67943 -1.8049724 8.0419998
-126.8445 175.59207 -1.3234059 8.1715002
-127.00946 176.35054 -1.3501564 8.1719999
-127.11885 161.00847 -0.97436345 8.8666668
-127.05193 161.22484 -1.0355682 9
-127.13823 161.0163 -0.63207906 9.0714283
-127.1722 171.15294 -0.40423778 8.1730003
-126.8115 174.67175 -0.56484419 9.0349998
-126.92859 175.48935 -0.5984835 9.0454998
-126.86871 177.62231 -0.55174422 9.0515003
-127.13837 161.03024 -0.2587831 9.8396673
-127.13316 161.21217 -0.26940998 9.0387497
-127.13989 171.02948 -0.25106168 8.1735001
-127.09795 160.99153 0.21301505 10.24
-126.95216 171.38403 0.25689927 8.7823334
-127.18027 172.01619 0.39604613 10
-126.87521 173.98079 0.39349759 9.1700001
-126.91054 174.11952 0.31883037 8.1745005
-127.10625 161.03094 0.52648532 10.4375
-127.03809 171.41705 0.48913682 10.019751
-127.12609 172.00755 0.41668051 10
-126.99825 172.62546 0.49767321 10.04375
-126.94588 172.8094 0.45351818 10.054
-126.8919 174.1434 0.52404267 9.1715002
-127.10635 161.01183 1.0685971 11.346154
-126.96325 161.20296 1.1113915 11
-127.03572 173.38655 1.1197594 10.0005
-127.07197 174.65245 0.84573281 9.1730003
-127.09827 161.0298 1.3396734 11.192191
-127.01717 161.20589 1.3188306 10
-127.13443 170.25923 1.4272838 11.04375
-126.93077 171.40515 1.5544903 11.020715
-126.92941 172.00217 1.566468 11
-127.10494 161.01598 1.891813 12.5625
-126.96085 171.08611 1.7684205 10.736167
-127.07645 171.31969 1.6990808 11.006375
-126.94086 171.7534 1.614717 11.054
-127.15009 174.31091 1.9445741 11.040501
-127.10187 161.03447 2.114332 12.287429
-127.15054 161.26784 2.1404386 12.0665
-126.9035 163.39648 2.2806611 12.53175
-127.09706 161.04703 2.6519372 12.944445
-127.0597 161.22337 2.4953403 12.034
-127.16154 163.16325 2.7738626 13.0295
-127.11722 163.22353 2.7557316 11.17
-127.02943 163.92542 2.4490051 13.046
-127.00497 164.03827 2.4843807 13.05
-126.94035 171.0106 2.6739671 12.046875
-126.98203 171.34563 2.7259517 12.021832
-126.97421 172.19884 2.594579 10.587
-127.05238 161.08167 2.9673769 13.444445
-127.1555 161.27594 3.1539812 13.066
-127.03347 162.99162 3.1265142 13.790751
-127.07705 163.35619 2.9414685 12.60025
-127.07431 171.39708 2.8357267 12.019751
-127.00879 171.66774 2.8466256 12.02725
-127.07925 172.30638 2.9638524 12.03775
-127.09228 161.09326 3.5215075 14.714286
-126.90681 162.18633 3.3113661 14.057
-127.04344 163.1606 3.2923095 14.0525
-127.15084 163.33772 3.3009789 14.051374
-127.03699 160.78522 3.9662673 10.1715
-127.07176 161.04614 3.7365081 13.916667
-126.82578 162.38849 3.8972011 15.043
-127.07993 170.63634 3.8404443 13.013124
-126.98687 170.92677 3.8542817 12.6446
-126.85535 172.2719 3.9522731 13
-127.12162 160.8035 4.2076597 15
-127.15342 163.18163 4.0972595 15.049
-127.06262 163.31221 4.1792431 14.473099
-126.91417 170.79997 4.0473275 13
-127.12178 171.8891 4.2292089 13.032
-127.09235 172.19966 4.1649852 13.03775
-127.03259 154.36618 4.6666436 14.168667
-127.18908 162.79536 4.7068267 10.1735
-126.90733 153.95757 5.187335 11.1705
-126.96257 154.20386 4.9259386 12.918375
-126.80226 154.73125 5.1408453 14.0765
-126.9979 155.39127 5.0462675 14.165
-127.09703 162.66994 4.8555827 13.596251
-126.90728 154.34419 5.4748254 11.6705
-126.96691 154.45212 5.5369444 12.1695
-126.9128 153.95348 5.8557849 12.17
-126.98441 154.21596 5.7103701 12.62525
-127.05625 154.61246 5.8182359 11.1725
-126.86684 156.86247 5.9532571 15.0735
-126.95325 160.25978 5.6739984 15.0685
-127.12745 161.14502 6.0882249 15.069
-127.10439 150.30949 6.7667236 14.082
-127.18102 150.49948 6.6123362 13.084332
-127.09374 154.87303 6.5392814 15.1655
-127.17248 157.23177 6.4606457 11.173
-127.17046 150.29573 6.9161406 14.58175
-127.03094 150.16928 7.3075657 12.67075
-126.58486 169.10069 -4.4490924 6
-126.757 169.69078 -4.4158835 6
-126.46128 173.58797 -4.5992198 6
-126.47458 174.25844 -4.5746713 6
-126.67467 150.08208 -4.0166087 5
-126.58985 159.08086 -4.0209541 5
-126.61346 159.54866 -4.0479107 5
-126.69797 160.10634 -4.092566 5
-126.72158 164.20869 -4.2416449 6
-126.44971 164.74565 -4.2638097 6
-126.78297 172.79887 -4.2596784 6
-126.61234 150.06886 -3.8877244 3.25
-126.53661 150.57449 -3.9015651 4
-126.54509 151.12868 -3.8364923 4
-126.66269 151.23343 -3.8949471 4
-126.53453 151.78241 -3.8671463 4
-126.7021 152.32297 -3.9138188 4
-126.59927 152.78419 -3.9311721 4
-126.58694 153.01129 -3.9089272 4
-126.62025 153.24477 -3.9241869 4
-126.74254 157.80421 -3.8923161 5
-126.5146 158.2581 -3.8932273 6
-126.44228 158.77573 -3.9902821 5
-126.47399 158.87877 -3.9255888 6
-126.4849 174.99667 -3.0795519 7
-126.53668 151.35753 -2.4538507 7
-126.48212 151.44402 -2.3591068 7
-126.50746 173.18538 -1.853585 8.0255003
-126.75626 173.2276 -1.6997364 8.1774998
-126.55763 175.38115 -1.8148886 8.0090837
-126.67702 175.66814 -1.8099065 8
-126.44888 170.4669 -1.2405727 8.1689997
-126.41771 169.89595 -0.8675946 8.6129999
-126.40888 170.57027 -0.92864078 8.1700001
-126.56477 169.80409 -0.70448101 9.0341997
-126.50803 170.25426 -0.79083693 9.0430002
-126.73694 170.84917 -0.49453065 9.0054998
-126.54568 171.22916 -0.57151395 9.0150003
-126.64825 172.13741 -0.53825444 9.0220003
-126.52236 174.6505 -0.54744101 9.0229998
-126.72043 171.06801 -0.26163369 8.6750002
-126.54707 171.35918 -0.31289756 8.1735001
-126.79218 171.45625 0.3239238 10
-126.60278 170.99487 0.62827808 9.7976246
-126.57476 171.35844 0.60580391 10.006
-126.54929 172.19899 0.55389673 10.0365
-126.60623 172.73715 0.61079401 10.033834
-126.7324 174.10503 0.7323938 9.1709995
-126.59744 176.33534 0.53815389 9.1715002
-126.66875 177.45564 0.59833491 9.1719999
-126.63786 171.08348 0.87873787 10.0055
-126.62969 174.39212 1.1072183 10.064
-126.6004 171.3102 1.4991428 11.02775
-126.5879 161.9964 1.9980922 11.0725
-126.49567 162.21573 1.9150467 9.1724997
-126.57566 171.06712 1.7034441 10.940167
-126.51259 171.34419 1.6863829 11.017
-126.52797 162.23834 2.2250679 12.515617
-126.47034 162.45784 2.2600398 13
-126.79099 163.32188 2.3154907 12.0125
-126.45226 171.44223 2.1255043 11.011833
-126.45646 171.78734 2.1310909 10.59525
-126.53217 162.22279 2.5066106 11.50443
-126.50501 162.45558 2.5490232 10.13825
-126.57056 170.14819 2.7024033 12.035
-126.55449 170.66101 2.7364016 12
-126.55765 170.93637 2.6714852 12.0335
-126.55119 171.42664 2.6655011 12.020999
-126.74531 171.94189 2.6980302 12.0485
-126.74549 172.09474 2.7415383 12
-126.50621 162.26889 3.0304823 14.017938
-126.60407 162.55049 3.0936677 14.02425
-126.64531 171.15329 2.8239613 12.0285
-126.70671 171.30174 2.8948584 12
-126.78227 171.65373 2.8955808 12
-126.4699 173.36375 3.028877 12.0415
-126.47565 162.32806 3.3181379 13.5285
-126.75098 162.5255 3.2619853 14.047
-126.65907 170.84654 3.2718575 12.015
-126.53804 172.14952 3.3425813 12.02025
-126.48575 178.64053 3.3679824 11.1785
-126.43359 153.68428 3.8601341 12.0795
-126.5514 162.30797 3.8630445 14.793333
-126.58195 162.56683 3.9365249 15.049167
-126.58255 170.62727 3.7917211 13.01445
-126.63876 170.955 3.7087252 12.674
-126.52096 153.87402 4.356113 13.0785
-126.67236 154.2191 4.2600465 15.178
-126.54485 162.32208 4.2071261 13.427667
-126.59821 170.73097 4.0368962 13
-126.4731 170.9528 4.0238547 13.034
-126.46681 153.35498 4.6945949 13.499001
-126.62774 153.8532 4.5672107 11.560399
-126.68526 154.16521 4.5612602 12.500999
-126.63534 160.18539 4.787168 13.1685
-126.49116 161.22307 4.7809296 15.018
-126.56802 162.21742 4.6178455 11.67
-126.76045 153.59988 5.1069131 11.171
-126.49056 153.79892 4.9515767 13.165833
-126.71043 154.21753 4.9525576 14.667
-126.41996 159.9726 5.1783094 15.0675
-126.5707 160.22041 4.9930558 14.2726
-126.43674 161.14713 4.9262071 15.0145
-126.47787 161.8546 5.0731974 11.670124
-126.59081 162.15611 5.042541 10.17375
-126.61156 171.3152 4.9449477 14.0495
-126.4891 175.84738 4.8599796 13.035
-126.72686 153.38252 5.3400617 14.0785
-126.53538 153.89877 5.3319821 13.62225
-126.55922 154.03407 5.4017353 11.67
-126.50443 160.32407 5.3718886 13.168
-126.5422 160.54446 5.4993606 14.3915
-126.68483 172.2205 5.3074689 14.0525
-126.61543 153.62233 5.68401 15.163
-126.59294 151.18987 7.1300797 14.0815
-126.68534 157.43306 7.2761083 11.1735
-126.37042 153.66524 -4.0325594 6
-126.26522 159.90836 -4.0849481 5
-126.11368 164.88736 -4.2583027 6
-126.33677 173.03426 -4.3839412 6
-126.2675 173.45532 -4.2681084 6
-126.24947 150.17589 -3.9092705 3.4000001
-126.2302 151.51147 -3.9004626 4.5
-126.29994 151.94641 -3.8324394 4
-126.3673 152.14323 -3.9095049 4
-126.28717 152.52853 -3.9133952 4
-126.1459 153.05034 -3.918756 4
-126.0219 155.84645 -3.9234262 6
-126.3723 157.71518 -3.8795376 5
-126.21294 158.59564 -3.9944522 5
-126.28773 158.83287 -3.9814332 5
-126.02551 150.80783 -3.3509877 6
-126.22641 173.03871 -3.3503456 7
-126.11894 174.74852 -3.2156653 7
-126.0003 150.54216 -3.1450417 6
-126.00816 151.05405 -2.8830047 6
-126.14402 152.2643 -2.8970802 7
-126.15494 173.0392 -3.0866916 7
-126.31442 174.99091 -3.1105549 7
-126.3445 175.88333 -2.9212122 7
-126.24319 151.14751 -2.4091821 7
-126.37037 151.39905 -2.4586859 7
-126.03052 174.76355 -2.615942 7
-126.03423 150.38875 -2.0095785 8.0830002
-126.21291 150.57295 -2.0568728 8.0686827
-126.19181 151.03546 -2.1772902 7.667469
-126.26998 151.31721 -2.2260966 7.4154444
-126.1788 151.82359 -2.051743 8.0686007
-126.03391 172.91684 -2.0120425 8.0524998
-126.0335 174.69156 -2.3936534 7
-126.18777 174.92371 -2.0541177 8.05375
-126.16874 176.17072 -2.1434624 8.0565004
-126.10033 150.2552 -1.8956476 8.0552502
-126.11243 150.65514 -1.8357015 8.0447102
-126.15317 151.00446 -1.9034816 8.0586529
-126.16436 151.34796 -1.8411791 7.9846764
-126.17783 151.79259 -1.8276509 8.0404997
-126.08544 152.04831 -1.6927336 8.1704998
-126.10661 171.8385 -1.8082339 8.0214996
-126.01265 172.79996 -1.851728 8.0340004
-126.16157 173.05785 -1.855726 8.0432005
-126.31496 173.27026 -1.8369837 8.0365
-126.09766 174.96436 -1.8975545 8.0430002
-126.12072 175.85837 -1.870554 8.0136242
-126.09629 176.7775 -1.8062948 8.0389996
-126.12585 176.82317 -1.8436207 8.04
-126.01151 150.56482 -1.5390608 9.0649996
-126.02311 151.1292 -1.4581138 9.0354996
-126.0867 151.37772 -1.3935171 9.031333
-126.31549 171.70337 -1.3185728 8.1695004
-126.17773 169.93831 -0.87205309 9.0443335
-126.1749 170.16974 -0.87891144 9.0566664
-126.0906 170.5695 -0.96769321 9.0574999
-126.29105 169.75349 -0.64543533 9.0317497
-126.10206 170.01784 -0.71273863 9.0395002
-126.15498 170.62881 -0.68252569 9.0375004
-126.3223 172.30682 -0.62905973 9.0384998
-126.36858 174.70569 -0.5590238 9.0415001
-126.33712 174.89549 -0.5358327 9.0319996
-126.04452 175.71748 -0.76849157 9.0550003
-126.24783 171.27438 -0.12082177 8.1724997
-126.1651 169.40009 0.3177526 9.6047497
-126.04374 169.74973 0.31785151 10.044
-126.243 173.15025 0.10305412 8.1724997
-126.19351 170.33907 0.61595827 9.7341661
-126.22488 170.50958 0.55206388 10.02775
-126.23819 170.98618 0.56277651 9.8015003
-126.17749 177.04105 0.79822022 10.043
-126.17775 170.47479 0.85411888 10.005
-126.30642 177.2793 0.8017596 10.045
-126.04572 170.65477 1.4693165 11.0515
-126.27995 171.12277 1.445366 11
-126.16013 171.37442 1.4825772 11.03525
-126.25113 171.64627 1.5864463 10.071
-126.13618 162.18408 1.8195702 10.6
-126.24196 170.98097 1.8059564 11.00775
-126.18566 171.38533 1.7135435 10.426499
-126.2093 162.21068 2.1940846 12.689294
-126.04008 162.51282 2.3827355 13
-126.33487 172.10794 2.1854866 10.171
-126.03751 159.812 2.7861238 13.0135
-126.20686 162.25081 2.504734 11.871045
-126.22974 162.4019 2.5225465 9.1724997
-126.08356 170.35017 2.5237405 12.033333
-126.21008 170.47423 2.5723231 11.641699
-126.21856 171.05342 2.6807787 12.0135
-126.30207 171.49001 2.6580303 12.016917
-126.07761 159.78543 2.9687943 12.115499
-126.05316 160.0446 3.082284 13.007
-126.22153 162.28078 3.077641 13.813867
-126.19369 162.42113 2.9500396 13.53125
-126.01806 170.65588 3.0110278 12.0245
-126.35205 170.93411 2.8595877 12
-126.34126 171.3096 2.9434559 12
-126.03293 159.56877 3.5403671 15.0355
-126.13977 162.31184 3.3202212 13.480192
-126.13879 162.5553 3.4475243 14.0285
-126.06551 170.66507 3.4702091 12
-126.02205 171.37334 3.2161164 12
-126.23353 153.81761 3.8919864 14.58625
-126.34077 154.15935 3.8836398 15.0035
-126.06535 159.41882 3.7485814 15.0405
-126.19341 162.25098 3.8692613 15
-126.24181 170.57251 3.6832108 13.005556
-126.15657 171.24756 3.8761535 13.0515
-126.21314 153.41467 4.1849489 11.1695
-126.26872 153.76639 4.1645455 13.111667
-126.23188 154.09946 4.1384492 12.875375
-126.29154 159.76044 4.3645639 14.001
-126.04202 161.85776 4.1282811 13.809875
-126.13868 162.18919 4.1763411 14.514333
-126.0034 162.43817 4.2965684 15.057
-126.38422 171.06915 4.0387902 13
-126.09798 153.41397 4.5218949 12.66675
-126.3091 153.7386 4.5103145 10.173
-126.06554 159.50662 4.4819174 14.0695
-126.12143 159.78885 4.6446567 13.5068
-126.30575 160.00481 4.7511396 14.1755
-126.23895 161.9384 4.6863432 14
-126.11299 162.0705 4.6706557 12.0865
-126.21754 175.75778 4.6690979 13.05
-126.07072 153.42523 4.9058309 14.163
-126.37849 153.78004 4.8838439 15.1695
-126.08752 159.84341 4.8243308 11.1705
-126.34023 160.25636 5.0546784 14.173
-126.04456 160.46501 4.9539609 13.166
-126.32278 161.06924 4.9377666 14.176
-126.30774 161.7646 4.8385086 11.1705
-126.31007 170.32938 4.8912201 14
-126.39629 171.50703 5.0146003 14.043
-126.32816 153.41074 5.4222355 12.169
-126.33822 153.81435 5.2377415 11.1705
-126.04965 160.18927 5.4338884 14.560125
-126.26078 153.77634 5.8653965 15.1635
-126.2961 160.52756 5.6767006 12.66925
-126.08601 161.72888 5.8777747 15.034
-126.29316 157.53349 7.1523423 11.17325
-126.31257 157.33798 7.4301462 13.1695
-125.90482 167.86031 -4.4292755 6
-125.94158 158.35127 -4.0241842 5
-125.88085 158.84666 -4.0216532 5
-125.75754 159.32504 -4.0383344 5
-125.75837 160.06493 -4.1118774 5
-125.66833 162.87396 -4.2249856 6
-125.90186 164.90402 -4.2565188 6
-125.78199 165.45061 -4.2820816 6
-125.95633 166.8983 -4.3740258 6
-125.95905 169.32137 -4.3740153 6
-125.60972 173.01132 -4.2752409 6
-125.79733 150.12695 -3.9208896 3.2857144
-125.73528 150.58478 -3.7822645 4.8000002
-125.72791 150.97206 -3.8477392 4.5999999
-125.72372 151.53647 -3.9605227 5
-125.81326 151.7372 -3.9132149 4
-125.689 152.01617 -3.8799241 4
-125.79842 153.03519 -3.9221137 4
-125.67677 156.06883 -3.9196553 6
-125.75507 156.91325 -3.9481575 5
-125.71944 157.95558 -3.983217 5
-125.97675 158.32294 -3.9997849 5
-125.78307 158.60181 -3.9896843 5
-125.78978 150.67058 -3.3330059 5.5
-125.87101 150.97925 -3.2828093 5.3333335
-125.93127 172.72205 -3.2234616 7
-125.74538 174.73193 -3.3521187 7
-125.89422 174.83418 -3.3658791 7
-125.77254 150.66386 -3.1196663 5.3846154
-125.77857 150.96867 -3.017288 6
-125.78718 174.68372 -3.0043023 7
-125.637 174.81554 -3.0859768 7
-125.80503 150.58847 -2.0414398 7.9553003
-125.81687 150.94939 -2.08325 8.0772495
-125.80271 151.2937 -2.1926658 7.5297503
-125.82213 151.79352 -2.0162885 8.0571003
-125.86919 173.06158 -2.0215278 8.0539999
-125.84842 173.92006 -2.145119 8.0570002
-125.89979 174.72232 -2.0072792 8.052
-125.90277 150.29736 -1.7432647 8.3651667
-125.90866 150.50293 -1.8341588 8.1237793
-125.90167 150.98619 -1.839023 8.0984993
-125.67678 151.23672 -1.9841167 8.0762501
-125.8511 151.76395 -1.8804935 8.0944281
-125.95684 152.08156 -1.8953751 8.0761662
-125.71002 152.45963 -1.6099309 8.1680002
-125.73307 172.0182 -1.838479 8.0179996
-125.67569 172.52507 -1.8367265 8.0411673
-125.66761 172.86597 -1.8464544 8.1794996
-125.7776 174.70221 -1.7885052 8.03125
-125.98994 175.77455 -1.8869672 8.0504999
-125.97842 176.88211 -1.875922 8.0159998
-125.81017 177.33064 -1.9185332 8.0360003
-125.6981 178.45644 -1.713886 8.1780005
-125.75754 150.31139 -1.5313865 9.0403337
-125.81149 150.54977 -1.5514146 9.0522499
-125.7595 151.09239 -1.4493767 8.9498501
-125.83848 151.35364 -1.3827035 8.7635384
-125.89724 151.86243 -1.3893524 8.7424994
-125.95345 171.72635 -1.3036939 8.1689997
-125.61401 151.11223 -1.1621069 10.0465
-125.72665 151.26559 -1.1364559 9.4750004
-125.68247 152.05156 -1.1691098 8.1619997
-125.88316 169.9283 -0.85461456 9
-125.90185 170.20216 -0.86614853 9.0328007
-125.73495 170.7144 -0.88645279 9.0223751
-125.73031 170.83461 -0.88865185 9.0130005
-125.72164 171.38976 -0.85844028 9.0535002
-125.87442 169.78198 -0.7376982 9.0374994
-125.84859 170.39732 -0.72975338 9.0620003
-125.77784 170.42723 -0.69193649 9.0118332
-125.82397 170.93665 -0.537736 9.0016003
-125.78464 171.30568 -0.59064251 9.0212498
-125.88581 172.17168 -0.46565443 9.0745001
-125.95567 173.23381 -0.50288719 9.0185003
-125.73186 175.58682 -0.59514123 9.0389996
-125.69298 170.98013 -0.25183743 9
-125.86665 169.59639 0.36036986 10
-125.85667 169.8374 0.31932116 10.043143
-125.75453 170.21384 0.3181884 10.02025
-125.86642 170.51892 0.2647016 10.0113
-125.73938 173.25743 0.38075173 9.1695004
-125.78305 170.2372 0.46902564 10.010167
