# .PCD v0.7 - Point Cloud Data file format
VERSION 0.7
FIELDS x y z intensity
SIZE 4 4 4 4
TYPE F F F F
COUNT 1 1 1 1
WIDTH 923
HEIGHT 1
VIEWPOINT 0 0 0 1 0 0 0
POINTS 923
DATA ascii
-119.65085 180.89227 -0.37698749 9.0594997
-119.62419 181.06989 1.143584 10.058
-119.73811 180.10947 3.6486521 12.0505
-119.58263 181.97765 -0.41000789 9.0600004
-119.2428 181.93346 6.13936 13.0575
-119.07166 185.63773 -4.4392443 7
-118.84612 197.94899 -2.0607347 8.052
-118.93549 198.09753 -1.8630477 8.0314999
-118.48796 198.54996 -4.0097213 7
-118.54707 182.46355 -0.44657105 9.0570002
-118.40294 182.70117 0.24448752 8.1704998
-118.41292 180.04382 1.2684959 10.0315
-118.60674 181.65277 1.2940878 10.046249
-118.34531 208.2175 -4.4697599 7
-118.15433 198.50397 -4.0456905 7
-118.1778 208.07166 -2.0617375 8.0559998
-118.18797 197.90262 -1.8657044 8.0434999
-118.3786 182.55611 -0.52943635 9.0559998
-118.22179 180.46274 1.3019034 10.035
-118.19429 182.64479 1.2703265 10.059
-118.28291 183.69611 3.1046174 11.058
-118.33272 180.02757 3.8703022 12.054
-117.64578 182.37317 -0.54286361 9.0539999
-117.79332 182.64108 -0.1712144 9.0349998
-117.6012 198.41632 -0.29263526 8.1724997
-117.91419 187.42207 0.034075283 9.0074997
-117.81448 183.54922 1.0867654 10.053
-117.61688 182.33524 1.2686111 10.058
-117.51685 197.36581 -2.4685729 8.0454998
-117.22806 181.82239 -2.0420225 8.0579996
-117.45833 208.2178 -2.1144824 8.0515003
-117.38977 197.32309 -1.8344113 8.0424995
-117.33946 182.32237 -1.2366544 8.1674995
-117.28384 185.29118 -0.40942907 9.0539999
-117.21719 182.65077 -0.37442523 9.0570002
-117.26444 182.92584 -0.17324333 9.0314999
-117.47118 185.44574 -0.25879312 9.0502501
-117.47094 197.90417 -0.12905659 9.0500002
-117.31425 180.00299 0.16147786 9.1739998
-117.4161 180.22314 1.1209933 10.0585
-117.56868 180.03377 1.2968189 10.03
-117.06867 197.19824 -3.007719 8.0340004
-117.07355 181.82591 -2.1937976 8.0602493
-117.07652 181.92146 -1.9965948 8.0605001
-117.16142 182.06181 -1.7808847 8.0345001
-116.96079 184.7944 -0.094566308 9.0365
-117.17232 185.49632 -0.37572765 9.0555
-116.90659 188.33505 -0.17697515 9.0555
-117.00927 183.49132 1.0985632 10.055
-117.03513 183.83476 0.98453051 10.050751
-117.12668 181.15408 1.4304093 10.0275
-116.57488 180.81274 -4.2075424 7
-116.68188 198.99496 -4.1857085 7
-116.74136 181.54044 -3.2227199 7
-116.78848 197.54907 -2.8131967 7
-116.72603 185.48141 -0.46494976 9.052
-116.48067 188.58308 -0.13748105 9.0415001
-116.61606 181.32085 1.6845522 10.007
-116.43323 180.10919 2.761131 10.166
-116.31848 188.44365 -0.10618912 9.0430002
-116.18469 180.85513 0.93337029 10.05475
-116.02197 180.93382 1.2592897 9.1669998
-116.08749 181.86075 3.0892313 11.033
-116.24941 182.12866 3.0732417 11.034
-116.16734 183.79533 6.0433116 13.0545
-115.64177 187.77843 -2.1175768 8.0509996
-115.82601 187.35004 2.9129667 11.0495
-115.96104 185.49838 6.1830807 13.0515
-115.83024 181.49394 9.0000505 15.038
-115.36388 180.81503 -0.20678267 9.0310001
-115.47308 185.44397 -0.04587321 9.0327492
-115.3694 181.11929 0.75529945 10.0505
-115.59702 180.10338 1.0337483 10.0575
-115.51414 180.87871 0.86179465 10.053
-115.41382 188.4209 2.9931543 11.05
-115.43161 184.80995 5.8976388 13.0505
-115.02042 199.88309 -2.056577 8.052
-114.82379 187.43787 -1.7711605 8.0334997
-114.90019 181.37003 -0.48339018 9.0559998
-114.83673 180.32776 -0.21224643 9.0310001
-115.10738 185.72668 -0.040801343 9.0287495
-114.82681 184.87888 0.061663628 9.0024996
-114.84538 182.56912 3.9508779 12.047501
-115.04534 187.18829 6.3423357 13.0455
-114.41576 188.44562 -2.6891527 7
-114.42863 180.19589 -2.054502 8.0559998
-114.45499 187.21715 -1.8101231 8.0319996
-114.42473 180.19667 -1.321108 8.1665001
-114.48978 186.68108 -1.2363528 8.1665001
-114.77192 180.50195 -0.50737399 8.6044998
-114.44103 185.10556 -0.06322442 9.0295
-114.75932 186.42393 -0.24917033 9.0410004
-114.79081 184.71082 0.00079314585 9.0085001
-114.70658 185.07202 0.023487125 9.0054998
-114.21106 180.00981 -3.3162787 8.0609999
-114.3455 180.55293 -2.1267657 8.0550003
-114.07885 184.44899 -1.7534491 8.0340004
-114.32044 187.33699 -1.7638431 8.0324993
-114.10677 181.17644 -1.2979039 8.1654997
-114.30492 184.86327 -0.041696005 9.0334997
-114.27854 182.15526 9.434227 15.0355
-113.8951 185.3438 -2.5885766 8.0644999
-113.86264 184.11823 -1.8096101 8.0310001
-113.81851 186.11314 -1.7630534 8.0334997
-113.99126 187.73416 -1.8271558 8.0275002
-113.61928 180.86836 -0.71636522 9.0480003
-113.64556 180.00529 0.63530844 10.05
-113.75267 181.88756 0.80974418 10.048
-113.97215 181.52786 8.807744 11.1695
-113.62686 182.0446 9.9741144 15.0325
-113.22237 185.59367 -4.0624518 7
-113.32929 185.32478 -3.7608695 7
-113.24567 188.8287 -3.6077917 8.0784998
-113.34079 188.76521 -3.5797646 8.0784998
-113.44732 184.57841 -2.4151106 8.066
-113.36729 180.79381 -2.1279364 8.0524998
-113.43117 184.60973 -2.1362975 8.0509996
-113.38785 181.63559 -1.2665679 8.165
-113.32408 180.52202 -0.71205568 9.0535002
-113.3727 180.8945 -0.64287215 9.0524998
-113.30931 181.24184 -0.51173192 9.0434999
-113.32047 180.93887 -0.35996592 9.0380001
-113.36562 182.76778 -0.09669476 9.0325003
-113.2104 181.16965 0.7316277 10.046
-113.2457 181.90385 0.78738356 10.0485
-113.23367 180.88727 0.8010664 10.0515
-113.44069 181.47058 8.0719767 14.033
-113.17218 185.31273 -3.8294759 7
-112.84869 181.07036 -2.0503449 8.0579996
-112.86745 185.27342 -2.1832809 8.0480003
-112.83952 185.78304 -2.1243486 8.0530005
-113.19315 180.79649 -1.7695293 8.0319996
-112.9998 180.93486 -1.7693256 8.0310001
-113.01084 185.02669 -1.894729 8.1759996
-113.04726 182.28795 -1.1757215 8.165
-113.13982 181.10258 -0.74831551 9.0489998
-113.11069 182.55644 -0.65909976 9.0474997
-113.0065 186.41457 -0.43234822 9.0530005
-113.16409 180.81177 -0.39042488 9.0369997
-112.8806 181.82912 -0.11911146 9.0319996
-112.95297 181.46399 0.76899683 10.0475
-112.90991 181.96555 0.76662415 10.0465
-113.04762 181.42601 5.4289851 12.01
-112.71442 185.32849 -2.4178398 8.0655003
-112.73199 180.49132 -2.1427469 8.0539999
-112.60114 181.53046 -2.2096865 8.0530005
-112.62338 183.03859 -2.2265358 8.0489998
-112.41811 186.08492 -2.0513711 8.0535002
-112.59296 181.3447 -0.7510879 9.0477505
-112.49026 203.61957 0.064934477 9.0454998
-112.50806 181.60522 0.76168746 10.0455
-112.53289 182.05388 0.78899235 10.048
-112.61568 181.67889 0.86256653 10.044
-112.47222 181.5363 5.4045825 13.0425
-112.70676 182.09508 5.4762716 13.051
-112.29977 185.79575 -2.1171165 8.0509996
-112.39022 207.73863 -1.7431489 8.0380001
-112.35715 182.57451 -0.66421777 9.0469999
-112.05994 182.69446 -0.28066176 9.0375004
-112.29306 182.14207 1.017741 10.042
-112.15334 183.6916 0.88390559 10.046
-112.34988 183.11256 5.5139914 13.047
-111.72828 199.41081 -2.1570106 8.0465002
-111.70388 203.77609 -2.2029371 8.0469999
-111.80035 182.27399 0.80951512 10.045
-111.865 183.30052 0.9830814 10.0435
-111.64864 180.72681 9.6984882 14
-111.35173 202.41336 -2.170948 8.0450001
-111.2868 201.30891 -1.8813658 8.0229998
-111.53802 204.04706 -1.6688797 8.0365
-111.33993 184.71107 -0.61239648 9.0469999
-111.29668 201.55806 -0.012590105 9.0450001
-111.4214 182.20488 0.98754776 10.0425
-111.34838 183.35567 2.6201966 11.0425
-111.39293 184.45226 4.3306808 12.04225
-111.44256 180.66159 5.0384388 13.046499
-111.43102 181.34167 5.1806893 13.0465
-111.33995 180.53143 6.5167689 14.0465
-111.59108 180.99663 6.6147032 14.0475
-111.4174 180.80652 8.8429279 15.0375
-111.32717 180.55316 9.752142 12.832833
-111.12149 199.82419 -5.1894917 7
-111.07059 203.58781 -1.609094 8.0360003
-111.07599 184.91751 -0.58524597 9.0452499
-110.96468 180.54482 9.1404333 14.012
-110.48795 201.12866 0.096212998 9.0434999
-110.68758 184.41656 1.862641 10.025
-110.77024 180.09171 3.8637173 12.04
-110.58261 180.42143 8.868185 14.018
-110.2204 199.58147 -2.1753545 8.0445004
-110.16209 200.28114 -1.2037739 8.1684999
-110.35612 200.78783 -0.0017618483 9.0439997
-110.05253 184.78767 0.068123668 9.0190001
-110.32378 182.93211 0.86004889 10.044
-110.08426 180.19711 7.640552 11.167
-109.75211 184.19551 1.1474236 10.0415
-109.88513 180.01892 9.9035988 12.169
-109.80623 180.34853 10.267417 11.021
-109.34094 199.67966 -2.1329412 8.0434999
-109.36831 180.41441 -1.8747132 8.1789999
-109.27408 202.94972 -1.9834766 8.0485001
-109.39886 185.78603 -0.49436751 8.1674995
-109.3299 183.76495 2.7213364 11.04
-109.36462 180.49641 7.6653152 11.119
-109.45897 181.17203 8.2926588 13.1735
-109.5763 180.55841 9.1238289 11.0075
-109.50113 180.3886 10.077782 11.0265
-108.8655 180.2036 -3.4421961 8.0810003
-109.16582 199.55412 -2.1754727 8.0439997
-109.16969 180.69656 9.1700611 12.1685
-108.46745 180.03043 -3.6549969 7
-108.65321 184.32343 2.9704654 11.0385
-108.56962 180.1723 7.9625764 13.1785
-108.49984 180.71379 8.7635555 13.080999
-108.07942 180.00133 -3.3553627 7
-108.22952 180.03197 -2.1592057 8.0424995
-108.00835 187.21735 -1.8909123 8.1745005
-108.11771 188.16542 -1.8070192 8.0892506
-108.30061 181.32535 7.9902754 12.1655
-108.32446 181.32808 8.2056427 11.176
-108.35392 181.37938 8.835146 12.169
-107.88515 180.33113 -3.6454206 7
-107.86705 180.27014 -3.5875399 7
-107.94219 180.21237 -2.1543286 8.0455008
-107.90059 180.4362 -2.1896868 8.0445004
-107.92126 187.11295 -1.8179007 8.0184994
-107.83388 186.99962 -0.30304679 9.0404997
-107.9568 187.27567 1.3709896 10.04
-107.96295 181.40868 8.9990797 12.16825
-107.25087 187.04156 -4.342629 7
-107.50726 180.04713 -3.3557208 7
-107.33444 188.1577 -3.1473227 8.0775003
-107.52598 180.56139 -2.1610007 8.0600004
-107.29066 186.7032 -2.1257811 8.0475006
-107.464 187.17992 -1.8212246 8.0185003
-107.29336 187.11769 -1.2096888 8.1645002
-107.20581 185.8082 -1.157068 8.1634998
-107.3208 186.74736 -0.53566104 8.1669998
-107.51768 187.87645 0.061647262 9.033
-107.27945 186.21048 1.4507779 10.0385
-106.91745 186.9371 -3.8099611 7
-107.08602 188.0602 -3.3165109 8.0690002
-106.90474 186.47594 -2.0513239 8.0404997
-106.8947 187.69943 -2.2553792 8.0565004
-106.98847 186.50819 0.24680798 9.0150003
-106.78935 187.42824 -3.3160977 8.0775003
-106.46474 186.69212 -2.0748329 8.0410004
-106.67725 186.80455 -2.228754 8.0450001
-106.71058 186.11101 -1.8858027 8.0085001
-106.53374 186.04782 -1.2131172 8.1639996
-106.2421 187.12334 -2.2042315 8.0544996
-106.37316 181.07607 -0.5196619 9.0389996
-106.32609 187.12 -0.56591779 8.1645002
-106.34396 186.89447 -0.32445654 9.0389996
-105.74607 180.93361 -3.6713719 7
-105.89601 180.87202 -3.4531119 7
-105.95351 182.52538 -2.8645372 8.0784998
-105.61683 180.91042 -2.0856454 8.04
-105.66963 180.85158 -1.8977782 8.0340004
-105.21349 181.16888 -3.7099683 8.1160002
-105.26043 180.97453 -2.8488469 8.0787506
-105.42229 180.97467 -2.2439916 8.0488329
-105.55099 183.33936 -1.7633146 8.0135002
-105.45592 182.3075 -0.61816555 8.1630001
-104.96291 180.27246 -4.5689139 7
-104.92706 180.4149 -4.2790999 7
-105.01151 181.19078 -3.6267152 7
-105.13924 181.24048 -3.7310545 7.5622501
-104.99738 181.77672 -2.2366338 8.0550003
-104.73154 180.66093 -4.3209949 7
-104.45985 180.95595 -4.1589665 7
-104.72648 181.37401 -3.4136083 8.0799999
-104.40141 180.15565 -2.5585456 8.0625
-104.77582 201.3385 -2.7848985 8.0585003
-104.76147 181.29178 -2.3000567 8.0459995
-104.16373 182.1107 -5.1389508 7
-104.2296 180.3428 -4.2304292 7
-104.36704 181.14622 -4.1716161 7
-104.05745 181.39125 -4.0289059 7
-104.14008 181.09219 -3.7558613 7
-104.15105 181.28152 -3.7993586 7
-104.32928 180.87981 -3.2004986 8.0714998
-104.09914 181.33511 -3.4749181 7.8554001
-104.28673 180.20058 -3.0671329 8.0804996
-104.38434 180.50758 -2.8571057 8.0524998
-104.08791 180.59332 -2.7987735 8.0705004
-104.14583 201.52696 -2.7093976 8.0579996
-103.61784 182.55316 -3.6951573 7
-103.80974 181.3343 -3.503469 7
-103.67889 200.68478 -2.5483506 8.0570002
-103.9792 201.03072 -2.1039727 8.0410004
-103.75581 180.9044 -0.95646268 9.0614996
-103.58493 180.24174 -4.3561997 7
-103.25547 180.71159 -4.1623964 7
-103.50707 181.76279 -3.7198811 7
-103.46625 181.51706 -3.1657178 8.0799627
-103.42116 203.56329 -3.1526654 8.0705004
-103.37633 200.82027 -2.4917855 8.04
-103.31467 181.08815 -2.1384752 8.0459995
-103.50739 181.33043 -2.1912892 8.0530005
-103.50714 182.19035 -2.252528 8.0539999
-103.55962 200.74947 -2.111058 8.0550003
-103.45825 200.91493 -2.39744 8.0579996
-102.85573 180.48564 -4.5828714 7
-102.84645 181.44868 -4.4311109 7
-103.019 180.72737 -4.1387997 7
-102.92196 181.04219 -4.236558 7
-102.92653 181.27335 -4.2638359 7
-102.91856 181.54811 -3.7189453 8.1234999
-103.13393 187.50932 -3.7223511 7
-102.85187 181.84016 -3.4948227 7
-102.9418 181.08607 -2.8409514 8.0640001
-103.19336 200.8466 -2.7840846 8.0579996
-102.91517 185.65987 -1.7521875 8.0220003
-103.07433 189.55888 -1.8904624 8.0080004
-103.07285 189.62779 -1.9178293 8.0050001
-103.14139 180.3456 -0.74371254 9.0532503
-103.0197 201.82391 -0.41689581 9.0570002
-102.71044 181.25153 -5.1549191 7
-102.56255 180.95461 -4.0940652 7
-102.6277 181.45343 -4.1266117 7
-102.75012 180.14772 -3.7945688 8.1169996
-102.55798 180.71463 -3.6687353 7
-102.79171 181.06784 -3.6694992 7
-102.61643 181.44235 -3.7579224 7
-102.61279 181.79472 -3.9654226 7
-102.58482 182.09169 -3.8866637 8.1175003
-102.50002 181.17595 -3.3571391 7.5355
-102.74577 181.36028 -3.4596334 7
-102.69974 181.14572 -2.8834369 8.0780001
-102.65276 181.38289 -3.125463 8.0602503
-102.61524 180.65106 -2.6251531 8.06075
-102.40587 181.87566 -2.6283419 8.0600004
-102.51259 190.51166 -2.4376347 8.0422497
-102.67075 201.17293 -2.6300271 8.0570002
-102.57428 181.16258 -2.115186 8.0445004
-102.78877 181.8483 -2.0435688 8.0375004
-102.47456 182.12552 -2.216882 8.0487499
-102.51178 182.91312 -2.0539777 8.0504999
-102.56899 181.12105 -1.9780823 8.0365
-102.60061 182.00826 -1.9833591 8.0354996
-102.59788 182.53084 -1.8821186 8.0284996
-102.45385 182.86131 -1.4238735 8.1669998
-102.71622 181.57216 -1.1848252 8.1704998
-102.67136 181.8051 -1.1914508 8.1695004
-102.73926 182.62872 -0.46459991 9.0459995
-102.01253 180.85046 -5.357626 7
-102.13788 180.50949 -4.2380142 7
-102.11003 181.55867 -4.0225997 7
-102.24593 181.66559 -4.257401 7
-102.29296 180.03131 -3.6927805 7
-102.09528 180.70284 -3.6225007 7
-102.28086 181.01212 -3.6468515 7
-102.36073 181.30724 -3.7061605 7
-102.37449 182.2189 -3.7445326 8.1160002
-102.25388 182.45145 -3.8701553 8.1170006
-102.27347 187.79936 -3.6463592 7
-102.08557 203.00275 -3.9361811 8.0719995
-102.27468 180.78873 -3.4492395 8.0799999
-102.08794 203.05238 -3.3884251 8.0714998
-102.13292 203.20415 -3.3509457 8.0710001
-102.0783 180.54245 -3.0555415 8.0797501
-102.3558 182.30577 -3.1697745 8.0410004
-102.38737 188.11818 -2.9711719 8.0544996
-102.2524 188.59868 -2.9732325 8.0407505
-102.36759 180.57454 -2.6026034 8.06075
-102.39462 181.84387 -2.6252587 8.0605001
-102.1146 188.6049 -2.5583413 8.0666666
-102.18656 182.37643 -2.1985006 8.0507507
-102.30817 182.48755 -2.1119487 8.0504999
-102.30708 180.16437 -0.81236434 9.0795002
-102.1767 180.6942 2.1832597 11.0515
-101.94633 180.50842 -4.1086602 7
-101.90656 188.67567 -4.1904197 7
-101.86139 180.68448 -3.900151 7
-101.74715 189.18277 -3.7065675 7.5237498
-101.74082 180.71501 -3.5077777 7.54
-101.82125 180.83057 -3.3865449 8.0799999
-101.70527 181.90585 -3.465971 7
-101.80775 182.03192 -3.4706075 7
-101.94319 187.92059 -3.2106788 8.0384998
-101.7046 189.29109 -3.5936396 8.0544996
-101.84055 180.59923 -2.8989086 8.0609999
-101.83931 180.28822 -2.5753388 8.0094995
-101.64651 182.50992 -2.4979033 8.0585003
-101.67232 187.31189 -2.5141256 8.0439997
-101.76196 188.34032 -2.7673569 8.0214996
-101.93305 202.17134 -2.4770637 8.0544996
-101.88137 182.50092 -2.2400696 8.0550003
-101.64432 188.99008 -2.1342802 8.0509996
-101.93355 201.32951 -2.0361781 8.0480003
-101.97179 181.65791 -0.7377153 9.0495005
-101.72361 180.56778 0.65102202 10.0475
-101.90572 181.42998 2.1778228 11.0495
-101.2022 181.60016 -4.4805446 7
-101.31016 182.30707 -4.4292827 7
-101.39806 182.81398 -4.4064512 7
-101.45984 180.0143 -4.2266145 7
-101.37415 180.45921 -4.0683131 7
-101.31687 181.33328 -4.1804109 7
-101.27699 181.75337 -4.2270885 7
-101.49841 180.65631 -3.6274099 7
-101.41985 182.26665 -3.9313486 7
-101.33939 180.63885 -3.5079682 7
-101.20956 181.05409 -3.4477661 7
-101.21745 181.39491 -3.2514708 7.8995833
-101.51394 181.70369 -3.3486352 8.0750008
-101.31001 182.21439 -3.3621619 8.0644999
-101.27775 182.79369 -3.4747491 8.0790005
-101.59649 181.14499 -2.8802776 8.0515003
-101.27551 183.50331 -3.1443357 8.0784998
-101.5879 182.40356 -2.6330249 8.0594997
-101.42043 189.24612 -2.7331388 8.059
-101.53244 201.94388 -2.6054306 8.0555
-101.36421 203.99515 -2.4775081 8.0539999
-101.53424 181.51573 -2.1986656 8.0434999
-101.27512 188.60219 -2.2521577 8.0515003
-101.54245 202.3013 -2.3939345 8.0570002
-101.25726 181.03304 -1.8715522 8.0334997
-101.57726 182.36522 -1.8664924 8.0340004
-101.16579 180.51031 -4.452322 7
-101.12659 181.26591 -4.4568663 7
-101.14004 181.44751 -4.0101271 7
-101.01552 181.80652 -4.2190099 7
-101.04186 180.62383 -3.6691711 7
-101.08435 181.03694 -3.8646736 7
-101.18166 181.26837 -3.9055362 7
-101.01019 181.68983 -3.9506104 7
-101.17083 181.14395 -3.4644401 7
-101.13552 181.33408 -3.2544191 8.0790005
-100.96391 181.78978 -3.5448642 8.0504999
-100.80135 182.41798 -3.178195 8.0404997
-100.91473 187.99548 -2.8131936 8.026
-101.18531 183.52563 -2.4032981 8.0570002
-100.89636 187.95673 -2.5246074 8.0434999
-101.0772 181.14908 -2.2382312 8.0539999
-101.00381 181.9415 -2.3611958 8.0445004
-100.90624 182.02498 -2.1808414 8.0504999
-100.82415 183.26888 -2.1815627 8.0524998
-101.10293 182.44322 -1.6889077 9
-100.93336 182.51248 -0.76218969 9.0544996
-100.69437 180.34521 -5.0053568 6
-100.58825 182.10982 -5.0497928 7
-100.63985 181.55908 -4.1939654 7
-100.72703 181.0986 -3.6362629 7
-100.64538 181.62947 -3.5862792 7
-100.65691 182.25146 -3.5549417 8
-100.61932 182.54207 -3.1174085 8.0787506
-100.53431 181.89658 -2.1935909 8.0480003
-100.62841 182.07552 -2.2285964 8.0522499
-100.68243 202.59714 -2.2142475 8.0494995
-100.60847 202.8038 -2.1003335 8.0535002
-100.4503 203.37051 -2.3543653 8.0530005
-100.73297 182.46648 0.16191302 10
-100.40342 184.85655 0.29035026 10.056
-100.37673 182.42921 -4.4168334 7
-100.05589 181.30322 -4.0825577 7
-100.05581 182.45187 -4.2705698 7
-100.05469 181.31198 -3.974081 7
-100.27457 182.61897 -3.6862452 7
-100.334 182.58716 -3.4564672 8.0790005
-100.11249 180.23434 -2.593468 8.0089998
-100.12397 181.32318 -2.5100095 8.0579996
-100.1984 182.80659 -2.4221582 8.0450001
-100.33363 181.79236 -2.2103503 8.0489998
-100.36846 182.60793 -2.3719165 8.0439997
-100.2963 182.1821 -1.7145736 9
-100.31432 180.5303 2.0497375 11.0485
-99.88279 181.22282 -3.901722 7
-99.816368 182.50723 -3.707988 7
-99.818192 181.60437 -3.4636409 8.0609999
-99.81057 182.29901 -2.9383783 8.0769997
-99.890228 182.75894 -3.1339638 8.0780001
-99.836792 181.38818 -2.7659574 8.0614996
-99.793098 181.44916 -2.1754313 8.0480003
-99.965492 203.22302 -1.9546405 8.0474997
-99.628006 181.50272 0.34123093 10.0645
-99.552536 180.86584 -5.0762506 6
-99.244774 183.0148 -4.273963 7
-99.266197 183.18341 -3.9549975 8.1199999
-99.300598 182.20607 -3.2379115 8.0790014
-99.367363 182.63684 -3.5118105 7
-99.39637 183.92729 -3.5706758 7
-99.218056 183.08286 -2.5153351 8.0570002
-99.553375 181.12732 -2.042186 8.0360003
-99.568626 181.65016 -2.1900187 8.0459995
-99.381828 183.89955 -1.4252313 8.1704998
-99.364388 181.32141 0.68802065 10.042
-98.985031 182.70462 -4.1168795 7
-99.031403 182.64107 -3.6605549 7
-98.876595 183.52969 -3.8664434 8.1155005
-98.891685 183.15062 -3.308639 8.0014639
-98.810783 183.20857 -3.482542 8.0784998
-99.02462 182.26445 -2.969419 8.0594997
-99.112732 182.65269 -2.908154 8.0684996
-98.963814 183.02771 -3.0708034 8.0776672
-98.926445 183.34515 -2.9179347 8.0532494
-98.876991 183.04868 -2.2751195 8.0487499
-98.904945 183.20273 -2.1854806 8.0454998
-99.09269 184.98347 -1.1672854 9.0334997
-99.021179 182.1613 -0.73188937 9.0524998
-98.648117 182.7618 -4.6677685 7
-98.631622 182.95338 -4.5522814 7
-98.47538 189.96237 -4.6164379 7
-98.493408 183.10931 -4.2000055 7
-98.470299 183.26794 -4.1304245 7
-98.623756 182.58809 -3.7949512 7
-98.581573 182.91574 -3.6518612 7
-98.689003 183.38933 -3.9182611 8.1209993
-98.410851 184.05095 -3.8713994 8.1129999
-98.790016 182.63646 -3.5458853 7
-98.768486 183.12065 -3.5097053 8.0600004
-98.557259 184.20952 -3.4533966 8.0780001
-98.718208 181.08601 -2.9536901 8.0600004
-98.588966 181.29277 -2.9367261 8.0565004
-98.569603 184.15018 -2.7709537 8.0600004
-98.745888 190.29636 -2.7407205 8.0574999
-98.678841 182.76099 -2.1521385 8.0452499
-98.440819 182.80975 -2.1992018 8.0469999
-98.446625 183.75922 -2.195322 8.0415001
-98.608192 182.19701 -0.83196837 9.0515003
-98.647713 184.83725 -0.91811335 9.0264997
-98.507683 185.1319 -0.71047217 9.0524998
-98.502037 184.86223 -0.34732717 9.0495005
-98.104408 183.71516 -5.0321469 7
-98.098976 182.02705 -4.2260146 7
-98.349571 183.29469 -4.3653936 7
-98.041252 182.11397 -3.6872241 7
-98.242073 183.19124 -3.7181766 7
-98.106026 183.52121 -3.8767579 7.55825
-98.355705 184.44691 -3.9849527 8.118
-98.067619 183.53134 -3.5069294 8.0559998
-98.143669 183.37315 -2.4509954 8.0439997
-98.362724 190.14532 -2.4086034 8.0539999
-98.386673 182.87202 -2.1901183 8.0459995
-98.114258 190.19247 -2.2510519 8.0439997
-98.165642 181.60825 -0.84953642 9.0530005
-98.178612 181.78668 -0.78375614 9.0439997
-97.934456 182.28506 -4.0752544 7
-97.954781 182.48302 -4.2351804 7
-97.81694 182.29488 -3.8678339 7
-97.912209 182.22552 -3.284117 8.0782499
-97.972527 182.42838 -3.4860265 8.0565004
-97.844917 183.81915 -3.2771857 8.0747509
-97.897789 183.00323 -2.8290374 8.0270004
-97.86969 184.15378 -2.8311152 8.0264997
-97.777435 180.23352 -1.7194868 8.1665001
-97.903206 181.89609 -0.83244324 9.0504999
-97.691742 182.68045 -0.62249553 9.0430002
-97.264717 180.43629 -4.6374145 7
-97.517509 180.56445 -4.136879 7
-97.358971 183.43066 -4.2068219 7
-97.245995 180.50331 -3.6096873 7
-97.513618 180.79944 -3.5626054 7
-97.515678 180.80588 -3.4795146 7
-97.404396 184.58194 -2.8867357 8.0284996
-97.411644 203.45807 -3.0656643 7
-97.499794 182.41701 -2.4139702 8.0485001
-97.44722 184.6355 -2.5025179 8.0430002
-97.211945 202.85904 -2.2397258 8.0430002
-97.398193 182.6091 -1.3269687 9.0784998
-97.203583 182.15482 -0.83434564 9.0500002
-97.320389 183.90366 5.5210347 11.113
-97.015579 184.09537 -4.9523554 7
-97.03933 180.22269 -4.368618 7
-96.940224 180.72115 -4.324553 7
-96.937454 180.85718 -4.0621061 7
-96.800911 181.39673 -4.352879 7
-96.915596 180.13393 -3.7974942 7
-96.9384 180.73087 -3.7974033 7.5584998
-96.888596 180.97269 -3.9265459 7
-97.154144 183.48932 -3.6329789 7
-96.822807 181.07123 -3.517714 8.0790005
-96.882782 181.30128 -2.9624205 8.0775003
-96.847099 182.94472 -2.8866279 8.0290003
-96.926521 181.61992 -2.4813325 8.1765003
-96.916405 182.937 -2.6117902 8.0692501
-97.151367 180.02553 -2.3825219 8.0469999
-97.079124 180.4072 -2.2776685 8.0495005
-96.947792 182.82722 -2.2342441 8.0495005
-96.985611 203.52725 -2.3749008 8.0515003
-97.108421 184.28819 -0.87888581 9.0445004
-97.176414 184.26852 5.255599 11.118
-96.616089 180.92738 -5.5352321 7
-96.57193 180.97461 -4.9091902 7
-96.51152 180.01009 -4.6638932 7
-96.409981 183.25085 -4.552289 7
-96.636391 180.09727 -4.1469159 7.55825
-96.671944 180.65819 -4.1424537 7.2791252
-96.656677 180.19768 -3.8039031 7.3718333
-96.652924 180.63956 -3.8685632 7.4482002
-96.55201 180.86522 -3.853411 7.9345837
-96.776505 180.07654 -3.2740765 7.9134221
-96.624062 180.72623 -3.4198601 8.0605001
-96.643303 180.92255 -3.4767151 8.0605001
-96.773407 180.13928 -3.0424633 8.0787506
-96.717766 180.67682 -3.16449 8.0594997
-96.785957 183.15417 -3.0585427 8.0334997
-96.722221 180.61745 -2.5567062 8.0463753
-96.650528 181.01503 -2.4083619 8.0450001
-96.571815 181.38876 -2.5107932 8.0372505
-96.558342 182.2812 -2.608886 8.0932503
-96.725716 182.74757 -2.7982399 8.0220003
-96.76516 182.81046 -2.6100326 8.0150003
-96.693909 203.27763 -2.6539776 8.0530005
-96.529076 180.11502 -2.2301152 8.0535002
-96.454964 180.66374 -2.3168359 8.0503321
-96.448219 180.83803 -2.3041377 8.0358334
-96.52874 181.49918 -2.342278 8.0500002
-96.672699 183.12952 -2.3014793 8.0555
-96.699188 180.39969 -1.8780673 8.0295
-96.490173 180.82977 -1.7165262 8.1665001
-96.734886 180.29556 -1.2186149 9.0565004
-96.630684 182.77588 -0.92774671 9.0450001
-96.623505 182.02776 -0.0017375269 10.06
-96.026108 181.33185 -5.2208633 7
-96.146858 181.25252 -4.917532 7
-96.227982 183.38805 -4.4548259 7
-96.101677 183.58655 -4.2556796 7
-96.033417 183.77354 -4.2349367 7
-96.28685 181.39542 -3.8416398 8.1234999
-96.203041 183.27934 -3.8340807 7
-96.140343 183.85001 -3.5783212 7
-96.307953 181.52185 -3.1926527 8.0395002
-96.188705 202.92017 -2.5653114 8.0369997
-96.398262 180.74646 -2.2521713 8.0500002
-96.274826 181.00064 -2.2672415 8.0522499
-96.257599 181.24739 -2.141263 8.0485001
-96.185402 182.33755 -2.3446758 8.0030003
-96.381676 182.45847 -2.0554059 8.165
-96.220947 203.05377 -2.3111501 8.0464993
-96.15239 180.74438 -1.827475 8.6132507
-96.257187 181.39597 -1.8147249 8.6112499
-96.231064 181.69499 -1.71187 9.0617504
-96.01281 182.05472 -1.9166853 8.1654997
-96.384117 182.56503 -1.7587267 9.0559998
-96.377525 183.84579 -1.7741194 9.059
-96.39431 185.62468 -1.021733 9.0585003
-96.238136 183.25246 -0.46385661 9.0504999
-95.760208 183.80894 -5.3204632 7
-95.907616 183.53996 -4.6466489 7
-95.980759 183.80586 -4.1929965 7
-95.682625 184.06516 -4.2904577 7
-95.790962 183.76257 -3.7065785 7
-95.958321 184.00064 -3.7179394 7
-95.690277 184.30652 -3.4679656 8.0620003
-95.867409 184.52899 -2.6158283 8.0100002
-95.860344 180.81897 -1.7794214 8.1660004
-95.807411 182.51038 -1.9123601 8.1654997
-95.68235 180.09738 -1.5139101 9.04
-95.695236 180.73143 -1.2942954 9.0790014
-95.634666 184.60712 -1.0229496 9.0579996
-95.369766 183.86865 -5.0331182 7
-95.446503 183.84503 -3.800348 7
-95.238472 185.1116 -2.8162706 8.0205002
-95.365547 185.23441 -2.9034452 8.0275002
-95.493042 184.31094 -2.5064254 8.1750002
-95.407265 185.11598 -2.5319898 8.04175
-95.344307 185.16277 -2.2366176 8.0480003
-95.427673 203.15486 -2.1006331 8.0415001
-95.525597 182.05824 -1.8468815 8.1665001
-95.422379 183.00838 -1.8534964 8.1658335
-95.246666 183.21216 -1.9266858 8.165
-95.396332 184.70593 -1.9098463 8.165
-95.515015 192.10535 -0.32145974 9.0410004
-95.025009 183.27362 -4.5300517 7
-94.977577 184.28145 -4.2951565 7
-95.173157 190.52769 -3.9276307 7
-95.157013 185.46902 -2.8527954 8.0249996
-94.969208 203.86459 -2.8280191 8.0144997
-95.10981 184.9388 -2.6276324 8.0656672
-95.164024 185.3802 -2.596036 8.0424995
-95.074112 203.54692 -2.5343583 8.0354996
-94.811729 184.99419 -2.3385491 8.0015001
-95.180664 185.41757 -2.3980436 8.0410004
-94.908577 190.00616 -2.2741034 8.0504999
-95.105255 190.57962 -2.2732878 8.0415001
-95.042084 180.75764 -1.1273602 9.0270004
-95.115593 186.36362 -0.3814041 9.0489998
-94.430183 205.17731 -5.9568415 7
-94.533638 183.51462 -4.6200995 7
-94.690933 184.21092 -4.2283535 7
-94.514244 184.10477 -3.6942689 7
-94.471161 204.24838 -3.3021512 8.0305004
-94.596359 185.81992 -2.458317 8.0404997
-94.769623 190.37411 -2.6586802 8.0539999
-94.494453 186.02261 -2.2020202 8.0375004
-94.481308 203.73361 -2.1531386 8.0424995
-94.64135 185.42096 -1.9095178 8.165
-94.718163 189.06357 -0.36612669 9.0539999
-94.141731 182.71812 -4.4567375 7
-94.168129 184.29617 -3.7933261 7
-94.220978 186.05545 -2.1944227 8.0447502
-94.231361 185.73956 -0.6365881 9.0404997
-93.733025 182.63068 -4.4393945 7
-93.970856 183.57565 -4.6467609 7
-93.893822 184.8197 -4.4360104 7
-93.637108 184.25702 -4.1457953 7
-93.671471 184.93396 -4.1924758 7
-93.986336 183.2662 -3.6003954 7
-93.772453 183.845 -3.8706272 7
-93.748123 184.17622 -3.7227206 7
-93.727676 184.55116 -3.8054481 7
-93.667885 184.20428 -3.0769393 8.0570002
-93.736839 185.72536 -2.7436097 8.0559998
-93.803497 185.95181 -2.2222083 8.0485001
-93.745956 186.17059 -2.1703172 8.0395002
-93.242157 183.61873 -5.2447147 7
-93.456261 180.36095 -5.1420784 7
-93.211288 183.80458 -4.9745007 7
-93.343269 183.11305 -4.4895611 7
-93.377502 184.8358 -4.6307945 7
-93.457619 183.46823 -4.1942091 7
-93.418297 183.88098 -4.3109856 7
-93.294197 185.0649 -4.2032847 7
-93.397263 183.776 -3.7481117 7
-93.487045 184.14977 -3.7980998 7
-93.519249 184.5096 -3.7133691 7
-93.413559 185.10373 -3.9586039 7
-93.530312 184.1037 -3.4837482 8.0627499
-93.466682 185.46419 -2.1892264 8.0384998
-93.529327 186.28983 -2.2008116 8.0434999
-92.979042 183.46835 -5.2531319 7
-92.829811 180.66299 -5.0441065 7
-93.093277 185.67584 -4.8444519 7
-92.833168 183.96437 -4.4630795 7
-93.072182 180.65482 -4.3866649 7
-92.886955 181.42761 -4.276051 7
-93.193855 182.55167 -4.2766247 7
-92.92981 184.52193 -4.2036848 7
-92.963516 186.33876 -4.0393281 7
-92.862679 181.40782 -3.9405499 7
-93.129135 183.50458 -3.8359916 7
-92.974686 184.54335 -3.7301655 7
-93.003159 184.9436 -3.7406833 7
-93.026855 184.98927 -3.5087485 8.0764999
-92.901321 180.72754 -3.0317061 8.0585003
-92.860939 180.83022 -3.0031095 8.0550003
-92.897148 181.76355 -2.6452262 8.0320997
-92.953957 184.86157 -2.4597654 8.0515003
-92.929451 185.09204 -2.3115458 8.0500002
-93.049286 185.45081 -2.1727068 8.0389996
-92.916382 190.63263 -1.9264493 8.1639996
-92.59005 181.13492 -4.5194664 7
-92.584114 181.25203 -4.5621605 7
-92.693413 183.54358 -4.7060328 7
-92.578133 184.16769 -4.4649358 7
-92.542183 181.39783 -4.1588774 7
-92.639397 184.19608 -4.2085977 7
-92.792351 184.88196 -4.0137362 7
-92.72599 186.73305 -4.2877617 7
-92.434158 181.54573 -3.6952481 7
-92.674103 181.66417 -3.6501496 7
-92.628586 183.89055 -3.615695 7
-92.693451 184.58055 -3.7970695 7
-92.750427 180.87297 -3.5484097 7
-92.512505 181.39345 -3.4359708 8.0625
-92.425117 181.64307 -3.5746782 7
-92.463028 184.98059 -3.4264801 8.0728579
-92.533989 185.57515 -3.2298191 8.0749998
-92.510094 181.73866 -3.1585679 8.0784998
-92.452843 184.39014 -3.0964086 8.0565004
-92.740837 181.39337 -2.7410583 8.0565004
-92.610054 181.72479 -2.7013011 8.0562496
-92.760468 184.84683 -2.6008501 8.0550003
-92.795944 190.79953 -2.4779968 8.0380001
-92.689224 190.86391 -2.4292676 8.0380001
-92.429131 181.43274 -2.3859153 8.0019999
-92.537071 182.04987 -2.1765313 8.0352497
-92.766098 184.99687 -2.2739482 8.052
-92.409859 186.52699 -2.1847472 8.0380001
-92.744469 180.69254 -1.404842 9.0585003
-92.351517 206.13226 -6.351891 7
-92.250832 182.67967 -5.1873889 7
-92.290543 184.59238 -4.98036 7
-92.360634 180.39659 -4.6033168 7
-92.276482 181.40125 -4.5914836 7
-92.305702 183.29988 -4.5903101 7
-92.211006 183.64471 -4.7498465 7
-92.127113 184.31781 -4.5205622 7
-92.340149 184.43016 -4.5998359 7
-92.038979 184.95715 -4.479465 7
-92.267876 181.47079 -4.3173461 7
-92.221069 181.71582 -4.1704469 7
-92.379662 183.5368 -4.2168407 7
-92.209785 184.56062 -4.1968012 7
-92.018288 184.82318 -4.1785455 7
-92.254234 181.43575 -3.7159476 7
-92.177238 181.69682 -3.9204149 7.5580001
-92.277969 182.11716 -3.8843715 8.1149998
-92.197289 183.88644 -3.6838222 7
-92.094673 184.73944 -3.7015493 7
-92.178032 181.5175 -3.4490664 7.9795451
-92.122429 181.70609 -3.371367 8.074357
-92.136436 185.18997 -3.4242992 8.0664997
-92.059578 181.01703 -2.8349779 8.0209999
-92.148445 181.45215 -2.9467936 8.0510006
-92.02166 183.1046 -2.9491818 8.0474997
-92.10614 184.28293 -3.0509627 8.0530005
-92.237671 180.90503 -2.6347489 8.1785002
-92.276176 181.38609 -2.6613503 8.0562496
-92.053474 185.23761 -2.6013381 8.0544996
-92.131828 182.10695 -2.0306656 8.1645002
-92.189041 185.45897 -2.2324944 8.0442505
-92.135529 181.07697 -1.8241515 8.1695004
-92.225372 181.49677 -1.9164327 8.1645002
-92.017433 182.13901 -1.9371635 9.0474997
-92.139954 180.42029 -1.4131573 9.0550003
-92.046478 181.14626 -1.3530949 9.0485001
-92.019287 180.94913 -0.98155981 9.0424995
-92.073158 183.21483 -0.92451584 9.0415001
-91.663986 184.04672 -5.3207693 7
-91.930595 181.11742 -4.8721933 7
-91.769997 181.42955 -5.1345739 7
-91.925774 182.19298 -4.8417859 7
-91.836037 183.98822 -5.1848173 7
-91.970085 182.43198 -4.7333536 7
-91.997917 184.39337 -4.459209 7
-91.712379 185.05389 -4.607244 7
-91.90493 183.92697 -4.1382594 7
-91.95417 184.41838 -4.2251191 7
-91.94799 185.12021 -4.2610188 7
-91.990112 185.2326 -4.0393457 7
-91.93631 186.96416 -4.2235889 7
-91.880302 183.41606 -3.8721533 7
-91.843246 183.89778 -3.7201378 7
-91.824539 184.05705 -3.6430354 7
-91.813927 184.72218 -3.8719242 7
-91.807953 185.07767 -3.7595201 7.2642498
-91.871452 185.41118 -3.7275949 7
-91.961197 181.10014 -2.9191992 8.0279999
-91.993759 181.44962 -3.0769989 8.0325003
-91.985649 181.37517 -2.6348259 8.0430002
-91.68412 183.71255 -2.6883748 8.0547504
-91.895607 185.57234 -2.7449307 8.0550003
-91.879402 181.06444 -2.0253451 8.0319996
-91.833847 181.33095 -2.1927447 8.0736246
-91.796005 185.47757 -2.1381831 8.0349998
-91.63736 180.93646 -1.8387614 9.0625
-91.650604 181.5107 -1.9278029 9.0550003
-91.839424 181.89975 -1.7804044 8.1715002
-91.923439 182.27477 -1.8865062 8.1645002
-91.923927 185.2482 -1.3785852 9.0524998
-91.523476 182.39812 -5.6386018 7
-91.404068 209.40762 -5.9617572 7
-91.394699 185.73241 -5.2218485 7
-91.459114 182.40355 -5.1692939 7
-91.227722 184.76797 -4.8985276 7
-91.492134 184.97371 -4.1427574 7
-91.345383 185.35942 -4.2274671 7
-91.560577 183.54152 -3.7007201 7
-91.563713 183.78938 -3.7351632 7
-91.460968 185.00554 -3.7808437 7
-91.560524 183.94537 -3.2308228 8.0762501
-91.514915 185.31201 -3.5794351 8.0530005
-91.57032 185.92596 -2.4603007 8.0500002
-91.387543 183.73251 -2.2575538 8.0397501
-91.543076 180.62453 -1.7901375 8.0255003
-91.478409 181.32396 -1.9374479 8.1645002
-91.591095 180.35724 -1.5661871 9.0775003
-91.324715 185.65691 -0.96274328 9.0539999
-91.26741 182.65564 4.9470911 12.0775
-91.158455 181.52873 -5.0455198 7
-90.988045 184.85556 -4.1761136 7
-90.912674 184.3587 -3.6582217 7
-91.108429 185.12904 -3.8458843 7
-90.89006 186.71895 -3.9218874 7
-90.932495 187.78252 -2.1637161 8.1619997
-91.19413 185.72067 -1.401693 9.052
-90.947952 183.54312 -0.87352943 9.0480003
-91.051422 181.93192 -0.7005446 9.052
-90.764519 182.20903 -5.0652156 7
-90.560936 181.09235 -4.5941148 7
-90.564522 183.31168 -4.5417905 7
-90.467827 183.81691 -4.5255108 7
-90.41806 183.44774 -4.2226558 7
-90.504608 184.63042 -4.1402464 7
-90.537346 183.4606 -3.9446313 7
-90.492912 183.67894 -3.9104607 7
-90.410385 184.92099 -3.8317063 7
-90.591629 185.34926 -3.7088964 7
-90.65493 186.64001 -3.8704238 7
-90.516876 185.01759 -3.5776751 8.0760002
-90.500114 185.22273 -3.2576103 8.0754995
-90.421356 192.40154 -3.5038784 8.0725012
-90.700539 185.04549 -3.0658202 8.0649996
-90.78167 184.92371 -2.7449803 8.0544996
-90.425903 185.48216 -2.6029754 8.0535002
-90.493546 185.93292 -2.6568463 8.0074997
-90.579094 184.93936 -2.3458514 8.0472498
-90.464722 185.80412 -2.3910062 8.0544996
-90.660194 186.32968 -2.1356933 8.1625004
-90.597046 186.40823 -2.1297779 8.0345001
-90.560715 187.04601 -2.0561795 8.1630001
-90.454155 187.31812 -2.0551708 8.1619997
-90.480583 182.86972 -0.92692304 9.0045004
-90.76236 186.47003 -0.6939919 9.0485001
-90.058998 181.00591 -5.0770173 7
-90.278015 183.59087 -4.5787654 7
-90.149475 184.21544 -4.4971962 7
-90.090355 206.39059 -4.4540553 7
-90.15744 183.80588 -4.1964717 7
-90.04924 184.1268 -4.2548976 7
-90.077545 185.53134 -4.1932034 7
-90.283165 187.37189 -4.2834864 7
-90.205025 184.2327 -3.8437219 7
-90.20713 184.77521 -3.765748 7
-90.211723 185.11137 -3.8383267 7
-90.380905 185.24861 -3.8403988 7
-90.300171 185.44441 -3.3896482 8.0754995
-90.285927 185.67516 -3.4618835 8.0695839
-90.348618 205.10353 -3.4427714 8.0670004
-90.155586 184.71455 -2.9613504 8.0459995
-90.367577 185.37746 -3.0986891 8.0734997
-90.045906 186.60641 -2.8868866 8.0225
-90.010796 181.93361 -2.5240068 8.04
-90.294312 182.1843 -2.6301386 8.0535002
-90.108063 187.25676 -1.4960268 8.0124998
-90.258003 180.48497 -0.99519104 9.0094995
-90.337494 185.26273 -0.98866194 9.0535002
-90.309494 182.15312 3.6214654 10.033
-90.131531 182.48816 4.0468736 12.077
-90.064423 181.78627 4.5070992 12.077
