# .PCD v0.7 - Point Cloud Data file format
VERSION 0.7
FIELDS x y z intensity
SIZE 4 4 4 4
TYPE F F F F
COUNT 1 1 1 1
WIDTH 1365
HEIGHT 1
VIEWPOINT 0 0 0 1 0 0 0
POINTS 1365
DATA ascii
-195.17735 57.698452 23.728354 14
-194.89136 36.38583 24.393806 15.071
-194.90315 36.897793 24.283272 15
-194.80051 37.82169 24.285875 14
-194.82762 38.166485 24.259531 14
-194.83122 38.51759 24.22699 14
-194.89357 39.552372 24.145651 14
-194.92731 39.89262 24.122759 14
-194.88988 40.113533 24.083393 14
-194.91582 40.530415 24.052345 14
-194.88858 40.937962 24.062887 14
-194.88155 41.330921 24.057659 14
-194.80814 41.751476 24.078089 14
-194.84296 42.24921 24.043444 14
-194.86287 42.784519 24.002375 14
-194.86107 44.792854 24.07674 14
-194.89328 45.141422 24.056957 14
-194.98497 45.477486 24.053053 14
-195.03018 45.805363 24.038628 14
-195.09674 46.146557 24.028704 14
-195.12219 46.495777 24.00832 14
-195.15128 47.691521 24.385532 15
-194.82042 48.544441 24.364014 14.356999
-194.82903 49.360767 24.278296 14
-194.85957 49.834217 24.253353 14
-194.86186 50.311699 24.22172 14
-194.87561 50.691319 24.269447 14
-194.88718 50.959812 24.18508 14
-194.92363 51.37598 24.166935 14
-194.93376 51.717705 24.14752 14
-194.91367 52.153191 24.206579 14.333333
-194.95119 52.474606 24.173717 14
-194.98767 52.831459 24.160629 14
-195.00978 53.208069 24.143133 14
-195.04446 53.736351 24.120056 14
-195.06509 54.265945 24.094036 14
-195.09129 54.605404 24.080885 14
-195.06819 54.967987 24.054619 14
-195.1133 55.341171 24.044762 14
-195.12814 55.699387 24.028624 14
-195.16154 56.217411 24.008766 14
-195.13914 57.072392 24.169561 14
-195.00816 57.301212 24.369114 15
-195.08084 59.545666 24.295258 14.114
-194.83778 40.655586 24.765726 15
-194.85449 41.074295 24.724844 15
-194.86964 41.507023 24.682463 15
-194.88922 41.79192 24.657854 15
-194.953 42.208233 24.633169 15
-194.95474 43.029408 24.762203 15
-194.871 43.843311 24.786518 14.5
-194.96815 44.048176 24.723505 14.5
-195.00121 44.527241 24.716604 14.666667
-195.0329 44.987957 24.66692 15
-195.05565 45.416656 24.63345 15
-195.06705 45.847347 24.596828 15
-195.08394 46.124523 24.576542 15
-195.0993 46.557438 24.586372 15
-195.12057 46.982159 24.554983 15
-195.14476 47.416298 24.553991 15
-195.19237 48.61105 24.61574 15
-194.98631 52.158375 24.449259 14.116
-194.92395 56.243984 24.641197 14.5575
-194.97777 56.526226 24.641684 14.5575
-194.98558 56.943226 24.726543 14.55725
-195.01817 57.418644 24.65379 15
-195.0894 57.910431 24.737034 15
-195.06026 58.217876 24.576162 14.55725
-195.14607 58.63485 24.717049 15
-195.15779 59.063717 24.699335 15
-195.18851 59.491199 24.688097 15
-194.80547 39.689697 25.072432 15
-194.81876 40.162033 24.954315 15
-194.82045 40.669781 25.042589 15
-194.85428 40.957062 25.021738 15
-194.86024 41.352016 25.024731 15
-194.87593 41.807793 24.981247 15
-194.90118 42.220596 24.91243 15
-194.93871 42.618729 24.896494 15
-194.88725 42.969284 24.903131 14.714286
-194.97519 43.222912 25.041382 15
-195.01283 44.105976 24.965902 15
-195.02237 44.540859 24.926928 15
-195.04825 44.970707 24.893942 15
-195.05295 45.412159 24.854071 15
-195.07767 45.84779 24.821394 15
-195.07834 46.166744 24.996681 15
-195.11307 46.615101 25.171207 15
-195.12186 46.909611 25.147812 15
-195.13293 47.351089 25.112635 15
-195.1568 47.789036 25.082239 15
-195.02789 49.392628 25.017731 15.002251
-194.97998 49.673176 25.071268 15
-195.04596 50.104137 25.057718 15
-195.16457 50.540508 25.060654 15
-195.18961 50.963692 25.036339 15
-194.86487 51.955936 25.196997 15
-194.85939 52.243145 25.095978 15
-194.8858 52.685314 25.072544 15
-194.88638 53.123329 25.042053 15
-194.90437 53.417484 25.027332 15
-194.91566 53.85503 24.975679 15
-194.96249 54.291035 24.986713 15
-194.96957 54.659306 24.965069 15
-194.99989 55.09528 24.946636 15
-194.94974 55.44902 24.917273 14.704999
-195.00708 55.82835 24.903545 15
-195.06938 56.222202 24.973444 15
-195.08951 56.664879 24.953207 15
-195.12181 56.958042 24.945999 15
-195.14397 57.414951 24.926697 15
-195.16066 57.857407 24.907118 15
-195.18176 58.291824 24.890013 15
-195.19244 59.00742 24.855684 15
-194.82669 40.268879 25.304775 15
-194.84766 40.566257 25.278839 15
-194.8683 41.029682 25.235388 15
-194.89865 45.341793 25.221615 15
-194.98004 45.754238 25.208323 15
-194.8138 50.619221 25.282934 15
-194.85876 51.040718 25.263998 15
-194.86832 51.490139 25.2328 15
-194.91696 52.900501 25.585897 15
-194.90475 53.35659 25.550074 15
-194.92819 53.807262 25.526146 15
-194.87175 54.042015 25.36636 14.41
-194.96255 54.557983 25.486353 15
-194.94664 55.019173 25.545826 15
-195.02277 55.304771 25.45648 15
-194.99928 55.693024 25.496143 15
-195.00372 56.227085 25.489016 15
-195.03722 56.491707 25.387663 15
-195.0435 56.890991 25.438211 15
-195.07057 57.426956 25.440248 15
-195.10307 57.686253 25.338715 15
-195.10176 58.089527 25.389095 15
-195.11766 58.648472 25.439926 15
-195.11911 59.050602 25.420748 15
-195.14307 59.35622 25.335892 15
-195.15033 59.76622 25.496822 15
-194.81412 50.954983 25.698645 15
-194.82394 51.410534 25.666788 15
-194.83533 51.713116 25.647501 15
-194.8493 52.166882 25.618187 15
-194.83258 52.654636 25.717646 15
-194.83591 53.341099 25.812994 15
-194.8622 53.768478 25.742016 15
-194.85709 54.081322 25.841112 15
-194.89005 54.571049 25.749477 15
-194.90416 55.008137 25.797056 15
-194.9084 55.424423 25.931965 15
-194.94751 55.845253 25.737738 15
-194.94208 56.117569 25.877556 15
-194.96907 56.488453 25.797115 15
-194.99532 56.981476 25.867144 15
-194.99052 57.400013 25.842377 15
-195.02745 57.84108 25.839205 15
-195.03981 58.203091 25.881882 15
-195.04683 58.591793 25.85968 15
-195.07478 59.068752 25.848635 15
-195.09444 59.494957 25.841381 15
-195.10796 59.843033 25.81686 15
-194.8149 53.182976 26.199839 15
-194.80484 53.235973 26.087656 15
-194.8199 53.787388 26.126488 15
-194.83154 54.165504 26.087805 15
-194.86983 54.638397 26.123192 15
-194.8709 55.017845 26.06432 15
-194.87698 55.438873 26.076771 15
-194.91042 55.891445 26.060184 15
-194.94331 56.375916 26.042154 15
-194.95332 56.678616 26.028122 15
-194.94862 56.998508 26.009035 15
-194.85605 58.821186 26.48205 14.111
-194.94423 59.723225 26.834934 14.109
-194.66307 44.507938 3.674989 7
-194.541 50.582569 3.9357221 8.0410004
-194.41776 51.759739 3.9092395 8.0404997
-194.67221 51.121983 4.2726016 9.0469999
-194.73489 30.82963 6.792562 9.0485001
-194.79744 32.279629 6.7411199 9.0480003
-194.74173 31.4732 6.9579296 9.0469999
-194.72903 31.045221 7.7947259 10.0615
-194.6864 31.362249 7.6399426 10.0545
-194.59055 30.884863 9.2783413 10.0485
-194.70244 45.323055 9.5905523 10
-194.74944 46.980515 9.5773745 10
-194.78609 47.316051 9.5654135 10
-194.77518 47.780537 9.5454245 10
-194.56911 41.113201 9.9444723 10.0065
-194.54559 41.420792 9.7639647 10
-194.59908 41.73333 9.8670321 10
-194.5977 42.135616 9.8701687 10
-194.64227 42.567551 9.860363 10
-194.58717 42.931805 9.8111296 10
-194.61124 43.391518 9.7939672 10
-194.61444 43.859737 9.7619591 10
-194.63297 44.262444 9.7508554 10
-194.6515 44.636822 9.6877098 10
-194.69563 45.03199 9.7209063 10.001375
-194.69531 45.448475 9.6771135 10
-194.71741 45.796844 9.6554089 10
-194.74643 46.154896 9.6664782 10
-194.77586 46.51627 9.6523685 10
-194.77216 46.901814 9.6339054 10
-194.78355 47.389385 9.6692457 10
-194.76871 47.80167 9.6827698 10
-194.79008 48.013607 9.6275988 10
-194.78862 30.731707 10.22895 11
-194.77745 30.933043 10.338348 11
-194.70052 40.344742 10.008258 10
-194.65871 40.471531 10.039564 10
-194.70155 40.851826 10.024225 10
-194.68884 41.244808 10.002991 10
-194.56781 42.218998 10.055655 10.004333
-194.78941 42.80817 10.015648 10
-194.4476 36.843433 10.795186 10
-194.49152 37.592152 10.754312 10
-194.50577 37.8578 10.739761 10
-194.4726 38.069275 10.688417 10
-194.66861 38.8204 10.788933 10
-194.69162 39.322647 10.761267 10
-194.7715 40.909641 10.676866 10
-194.77412 41.284401 10.654881 10
-194.7841 41.729298 10.447121 10.027
-194.45314 35.276665 10.984231 10
-194.43906 35.798363 10.904519 10
-194.49585 36.167938 10.932076 10
-194.47809 36.56982 10.86025 10
-194.55325 37.193836 10.87435 10
-194.57423 37.556293 10.854335 10
-194.59438 37.820282 10.840587 10
-194.67519 38.243675 10.835599 10
-194.64182 38.562077 10.801009 10
-194.79282 33.228947 11.344354 10
-194.77972 33.882053 11.592012 10
-194.74359 46.262547 11.46044 12
-194.76805 46.63641 11.42484 12
-194.45824 37.777534 11.649879 10
-194.57608 38.110386 11.647235 10
-194.66016 43.046593 11.972989 12
-194.69255 43.437679 11.938328 12
-194.7057 43.830158 11.978518 12
-194.73442 44.357948 11.929152 12
-194.75528 44.738083 11.893929 12
-194.43884 35.294701 12.179789 12.068
-194.55966 39.73991 12.303027 12
-194.70772 43.35165 12.066031 12.02775
-194.75032 43.678078 12.07519 12
-194.56773 47.453793 12.21736 11
-194.59248 47.716591 12.206535 11
-194.60381 48.077869 12.187964 11
-194.63206 48.574623 12.164952 11
-194.62842 49.018276 12.10935 11.005
-194.70763 30.688272 12.776262 12
-194.55234 39.768871 12.758113 11
-194.51108 40.136364 12.71761 11
-194.54214 40.58128 12.692356 11
-194.56174 40.993229 12.66772 11
-194.55527 41.46283 12.626007 11
-194.58598 41.713364 12.633318 11.0025
-194.64813 42.176998 12.58148 11
-194.63629 42.608624 12.610852 11.002445
-194.67436 43.061886 12.542877 11
-194.65309 43.48328 12.503089 11
-194.67024 43.832439 12.453836 11
-194.65019 44.070507 12.793158 11
-194.69435 44.69566 12.784756 11
-194.6618 45.079868 12.676784 11.004801
-194.76189 45.522263 12.747396 11
-194.77988 45.831028 12.526339 11.004001
-194.75525 46.160275 12.683962 11.001375
-194.74509 46.429291 12.645786 11.003667
-194.79832 46.861443 12.742884 11
-194.78387 51.430599 12.704441 12.0405
-194.66628 30.254095 12.819833 12
-194.7142 30.605511 12.876027 12
-194.69499 30.897245 12.905956 12
-194.45309 38.230495 12.849125 11
-194.47411 38.52232 13.15378 11
-194.52654 39.020985 13.165013 11
-194.47145 39.417206 12.951348 11
-194.51421 39.910252 12.923672 11
-194.56425 40.224213 12.963132 11
-194.58481 40.533398 12.944398 11
-194.65012 40.980484 13.041145 11
-194.65527 41.354366 13.014801 11
-194.65715 43.560833 12.911781 11
-194.62602 43.657536 12.815444 11
-194.69905 44.157719 12.817662 11
-194.67468 44.468723 12.859822 11
-194.70335 45.02499 12.831864 11
-194.74409 45.58395 12.806177 11
-194.72177 47.923435 13.101636 11
-194.73282 48.227913 13.122292 11
-194.67162 49.792255 13.169033 13.0515
-194.78564 50.078159 13.145323 13
-194.76445 52.080441 12.973637 13.0505
-194.42227 37.267143 13.282361 11
-194.44844 37.62738 13.258718 11
-194.47523 38.202721 13.218679 11
-194.4146 38.761883 13.57046 11
-194.46428 39.078304 13.501699 11
-194.5988 39.317879 13.535484 11
-194.40421 39.868198 13.297481 11
-194.43851 40.250256 13.276186 11
-194.577 43.423241 13.37903 11
-194.67264 43.737736 13.372702 11
-194.49081 46.776585 13.508143 13.056
-194.57021 47.494884 13.390149 13.053249
-194.63158 47.833897 13.500296 13
-194.65225 48.065636 13.478034 13
-194.7014 48.997833 13.287548 13
-194.7075 49.454796 13.242249 13
-194.72731 51.743999 13.346016 11
-194.70926 33.134674 13.85341 11
-194.71742 33.562969 13.813259 11
-194.74686 33.836262 13.80501 11
-194.77054 34.109531 13.812857 11
-194.71127 34.967663 13.763666 11.0091
-194.78561 35.366947 13.978835 11
-194.41632 38.777309 13.660151 11
-194.43153 39.007534 13.698614 11
-194.55301 39.298538 13.6854 11
-194.76808 41.785187 13.946784 11
-194.78719 42.369633 13.91538 11
-194.78896 42.595364 13.918134 11
-194.78015 43.284344 13.699085 11
-194.59065 32.349796 14.025219 11.046
-194.68874 33.332172 14.124253 11
-194.69775 33.750721 14.091773 11
-194.75334 34.981274 14.191554 11
-194.47479 35.254585 14.037099 12
-194.57907 36.925434 14.222146 11
-194.62015 37.338924 14.202212 11
-194.61705 38.903843 14.247971 11.003
-194.46249 39.40694 14.204821 12
-194.55339 43.421402 14.196186 13
-194.64584 43.771366 14.216288 13
-194.67836 30.772429 14.517805 12
-194.72444 31.057085 14.497157 12
-194.46997 31.270868 14.497684 12.047
-194.71353 35.045742 14.689712 12
-194.68304 35.327198 14.669056 13
-194.43622 38.868015 14.460036 13.0655
-194.6937 43.598957 14.503457 13
-194.66638 43.749683 14.437538 13
-194.71986 47.042789 14.791397 12
-194.53992 47.808197 14.711729 12
-194.55434 48.150501 14.736134 12
-194.59923 51.494183 14.476217 12
-194.66972 51.791004 14.508623 12
-194.71422 52.022812 14.535044 12
-194.43718 30.606642 15.104801 12
-194.43065 30.848299 15.192451 13
-194.72232 31.246801 15.191395 13
-194.75722 31.822767 15.122871 13
-194.78636 32.226959 15.07603 13
-194.79417 32.658176 15.022264 13
-194.79778 32.949898 14.985812 13
-194.75647 34.910114 15.1037 13.067249
-194.44217 39.103138 14.884491 13
-194.54681 39.363434 14.93423 13.01425
-194.54129 40.979404 15.196102 12
-194.51157 41.539791 15.171878 12
-194.48451 41.813793 15.166324 12
-194.56104 42.155071 15.134418 12
-194.48764 43.015297 15.086396 12
-194.55814 43.424061 15.067908 12
-194.6069 43.788418 15.053067 12.001318
-194.64311 44.211861 15.014893 12
-194.70299 44.645798 15.077291 12
-194.77336 45.057724 15.026436 12.004666
-194.76614 45.461349 14.996002 12
-194.74321 45.842274 14.92766 12
-194.76866 46.203831 14.908074 12
-194.71106 46.638962 14.869145 12
-194.73756 47.904469 15.013307 12
-194.76299 48.115982 15.054413 12
-194.73589 52.239437 15.185471 14.0465
-194.52863 30.02569 15.528599 13
-194.5477 30.980541 15.341266 13
-194.58412 31.276049 15.260999 13
-194.54544 32.254002 15.249985 13.02975
-194.69293 34.759701 15.454276 13
-194.40849 39.082878 15.577563 12
-194.43222 39.578186 15.537944 12
-194.46094 39.941895 15.511639 12
-194.51102 40.259468 15.371083 12
-194.50014 40.616207 15.315626 12
-194.51782 41.366463 15.275386 12.0175
-194.58206 41.781086 15.37781 12
-194.6059 42.269375 15.341681 12
-194.56972 43.44561 15.408294 12
-194.56805 43.786751 15.373934 12
-194.63901 44.042759 15.314229 12
-194.78444 47.993092 15.571508 12
-194.75426 48.103363 15.41755 12
-194.58159 48.710548 15.551485 14.052
-194.73489 30.795679 15.737167 13.069
-194.48273 38.961575 15.622638 12
-194.47218 39.468864 15.74179 12
-194.40324 39.603451 15.74675 12
-194.59605 43.437229 15.769601 12
-194.59103 43.730152 15.737523 12
-194.78137 44.028358 15.729956 12
-194.7085 47.970097 15.897789 13.351501
-194.66739 48.222603 15.799456 13.142858
-194.5479 48.568813 15.651815 14
-194.562 31.991507 16.361526 12.0105
-194.67767 33.4869 16.366226 12
-194.71776 33.834805 16.360186 12
-194.71489 34.036018 16.313581 12
-194.40637 34.498371 16.009151 12
-194.66777 34.949581 16.283552 12
-194.74182 35.341438 16.242523 12.125
-194.77881 35.788879 16.189253 12
-194.78943 36.682278 16.370077 12
-194.48761 39.370724 16.127605 12
-194.51828 39.811779 16.053703 13
-194.43077 40.130657 16.398417 12
-194.43723 40.591183 16.365261 12
-194.46204 41.045021 16.336481 12
-194.51523 41.359028 16.354868 12
-194.56873 41.805702 16.332806 12
-194.63284 42.164696 16.319433 12
-194.57523 42.45784 16.346395 12
-194.5864 42.964024 16.344183 12.688333
-194.60492 43.414547 16.238081 12
-194.59882 43.791653 16.157459 12
-194.63419 44.101162 16.240189 13.01425
-194.70142 44.607639 16.25416 12.51625
-194.67894 45.075264 16.175686 12
-194.72667 45.785931 16.207987 12.515625
-194.75928 46.26799 16.112705 12
-194.74672 46.641094 16.069921 12
-194.77931 47.049747 16.227575 12
-194.74104 47.279282 16.374868 13.333333
-194.76949 47.745365 16.356928 12.8
-194.7796 48.17823 16.350557 12.5
-194.79042 48.599369 16.314924 12.666667
-194.79582 48.9389 16.270863 13
-194.48573 30.628527 16.654312 12
-194.50865 30.976946 16.693203 12.031001
-194.5813 31.348196 16.582939 12
-194.6515 31.839752 16.645098 12.002625
-194.60558 32.204494 16.594906 12.016143
-194.68748 32.635448 16.584171 12
-194.68867 33.054287 16.490891 12
-194.66144 33.411659 16.535086 12.005556
-194.72743 33.781975 16.651873 12.4
-194.73375 34.138485 16.589729 12.25
-194.70375 34.878906 16.500666 12
-194.76794 35.315907 16.502041 12.2
-194.76372 35.904194 16.437943 12
-194.77528 36.308647 16.402096 12
-194.4086 37.947262 16.68807 12
-194.43283 38.595325 16.539742 12
-194.43198 38.899212 16.616756 12
-194.51482 39.466854 16.557102 12.25
-194.48138 39.785397 16.489985 12.2
-194.5161 40.099598 16.547653 12.666667
-194.52074 40.563366 16.605179 12.166667
-194.4698 41.062302 16.720119 12
-194.47284 41.404037 16.718855 12
-194.54286 41.753464 16.646923 12.293929
-194.53368 42.178421 16.702608 12.3134
-194.52647 42.581047 16.689404 12
-194.53947 43.009567 16.65506 12.343501
-194.54243 43.459019 16.634741 12.363636
-194.58232 43.82756 16.65799 12.460999
-194.61276 44.194927 16.61928 12.756937
-194.62062 44.548626 16.58913 12.451445
-194.63492 44.980938 16.562963 12.222222
-194.66422 45.416924 16.541439 12.506875
-194.66766 45.757591 16.516973 12.60555
-194.70703 46.144733 16.506098 12.4505
-194.70757 46.610207 16.460268 12.2
-194.74588 46.999023 16.442776 12.864929
-194.75275 47.332428 16.490391 12
-194.76801 47.814976 16.472511 12
-194.72723 48.172207 16.558615 12
-194.79915 48.700779 16.562244 12
-194.65678 55.814247 16.681408 13
-194.65518 56.261314 16.685522 13
-194.72589 56.577782 16.710903 13
-194.78871 56.921757 16.754726 13
-194.49486 30.637678 16.95639 12.0475
-194.57841 30.966642 17.072657 13
-194.64293 32.021523 16.84626 12.047
-194.63264 32.655678 17.195354 12.0095
-194.69704 32.955784 16.858114 13
-194.72647 33.380928 16.814201 13
-194.42714 33.748478 17.06461 12.046
-194.66455 35.154305 16.870485 12
-194.71051 35.35862 17.188868 14
-194.6781 36.967899 17.062132 13.02825
-194.40652 39.091091 16.903492 12
-194.54956 39.432617 17.073614 12.133813
-194.40936 39.848316 16.862242 12
-194.42203 40.22401 16.845993 12
-194.44305 40.577595 16.844519 12.51625
-194.43114 40.86911 16.808361 12
-194.46599 41.503712 16.986864 14.059834
-194.48618 42.23077 17.027622 14.056
-194.50887 42.931301 16.888193 14.05625
-194.57225 43.479073 16.934368 12.444445
-194.61787 43.808498 16.930115 12.727273
-194.42824 47.677658 17.194002 13
-194.70483 48.272068 17.117306 13.355166
-194.66774 48.711594 17.138996 13
-194.692 49.17593 17.099581 13
-194.72188 49.630531 17.063173 13
-194.62076 50.163551 17.099756 13
-194.6879 50.568054 17.044197 13
-194.6613 50.996487 17.041996 13
-194.57387 51.416035 16.958637 13
-194.56229 51.792152 17.018017 13
-194.64874 52.214436 17.072472 13
-194.64542 52.532139 17.051886 13
-194.6534 52.958096 17.038992 13
-194.67506 53.459476 17.014414 13
-194.69408 53.836193 16.997061 13
-194.71587 54.193428 16.98193 13
-194.73164 54.687588 16.958023 13
-194.73936 55.058308 16.939497 13
-194.77571 55.425022 16.928659 13
-194.79938 55.9105 16.90884 13
-194.79015 57.232548 16.980516 15.0515
-194.70842 32.649624 17.514328 12.5
-194.72667 33.024048 17.475809 12.5
-194.69792 33.37215 17.474722 12.222222
-194.73897 33.754967 17.461979 12.571428
-194.74814 34.100193 17.458338 12.5
-194.61494 35.04073 17.411516 12
-194.73244 35.343365 17.276199 12.00425
-194.51614 39.396706 17.443178 13.6
-194.45805 40.842522 17.226118 14.0565
-194.50699 43.428055 17.54348 13
-194.61098 43.791752 17.546967 13.004833
-194.55914 44.176334 17.52873 13
-194.60599 44.613708 17.500092 13
-194.58621 45.011101 17.497795 13.001167
-194.60481 45.429188 17.457626 13.0007
-194.6205 45.756424 17.445713 13
-194.64473 46.179447 17.419945 13
-194.668 46.640369 17.374241 13
-194.65625 46.998005 17.402422 13
-194.62425 47.349979 17.385361 13
-194.59703 47.773815 17.337513 13
-194.6257 48.229061 17.415649 13
-194.61635 48.666843 17.377581 13.125
-194.56902 49.082455 17.367167 13.25
-194.66663 49.433701 17.405819 13.111111
-194.6402 49.79995 17.36611 13.166667
-194.73103 50.194057 17.482443 13.25
-194.74655 50.606636 17.475502 13.333333
-194.77417 51.026035 17.421326 13.143999
-194.77913 51.402786 17.453943 13.4
-194.76392 51.835758 17.381542 12.8
-194.58002 52.314644 17.439692 15.049667
-194.79863 52.410934 17.47426 13
-194.50206 31.088442 17.886473 14
-194.55183 31.384481 17.792561 14
-194.67964 31.909906 17.686008 14
-194.59093 32.231159 17.729458 14
-194.63333 32.591049 17.71883 14
-194.75243 33.760101 17.961481 14.0675
-194.43968 35.10059 17.792444 13.071
-194.72255 35.548347 17.852938 14.059
-194.76315 36.688938 17.853344 14.0585
-194.63976 39.362267 17.712729 12.006
-194.44774 40.242107 17.963343 13
-194.51428 40.583088 17.947144 13
-194.48996 41.059917 17.817209 13
-194.43555 41.426666 17.730927 13
-194.46033 41.835472 17.717188 13
-194.50018 42.266758 17.724054 13.005929
-194.48093 42.597195 17.688513 13
-194.46883 42.942524 17.827467 13.008499
-194.45325 43.443226 17.736309 13
-194.48137 43.78307 17.752033 13.097
-194.50871 44.237885 17.752237 13.111111
-194.51053 44.681183 17.728058 13.166667
-194.5061 45.066666 17.749855 13.2
-194.53831 45.509056 17.768394 13.333333
-194.53937 45.871258 17.714596 13.2
-194.56503 46.195648 17.69293 13.2
-194.57133 46.508453 17.711908 13.333333
-194.60904 46.870914 17.708567 13.680833
-194.58549 47.367912 17.783525 13.6
-194.6445 47.834026 17.838694 13.875
-194.65494 48.190773 17.762373 13.428572
-194.6232 48.570831 17.806513 14.150286
-194.71164 48.970097 17.699982 13.666667
-194.71489 49.332096 17.71987 14
-194.74403 49.695576 17.694441 14
-194.74902 50.165749 17.643379 13.666667
-194.79433 50.60297 17.671761 15
-194.65195 31.851599 18.275654 14.068
-194.55025 32.641315 18.272375 14.06025
-194.59337 33.335461 18.121721 14.0625
-194.65463 34.966152 18.088877 14.031625
-194.58168 36.115055 18.375443 12
-194.61124 36.526169 18.350443 12
-194.62021 36.942055 18.322079 12
-194.63161 37.435863 18.385157 12
-194.70769 37.881706 18.349894 12.4
-194.67763 38.223454 18.305525 12
-194.6902 38.632126 18.279371 12
-194.72037 39.075817 18.286421 12
-194.66722 39.409641 18.246492 12.25175
-194.75676 39.825157 18.259487 12.333333
-194.77011 40.266312 18.179726 12.002167
-194.769 40.661274 18.173336 12
-194.71259 41.395035 18.065897 13
-194.44026 43.538902 18.264338 13
-194.49356 43.807686 18.180887 13.00975
-194.62114 44.102264 18.089619 13.689
-194.60359 45.879898 18.188654 15
-194.65874 46.260948 18.1945 15.026501
-194.49718 46.643085 18.084747 15
-194.54991 47.094223 18.034981 15
-194.70897 47.445911 18.052708 15.018001
-194.61501 47.920841 18.201256 13.666667
-194.68344 48.191616 18.19453 13.561611
-194.67424 48.520283 18.009062 13
-194.41655 30.727365 18.534401 13
-194.47661 30.956701 18.596247 14.0605
-194.44914 31.206656 18.457697 14.061
-194.4277 32.280811 18.581923 12.686833
-194.47339 32.685711 18.705156 12.4
-194.51953 32.956348 18.718697 12.666667
-194.49287 33.313358 18.652187 12.4
-194.5343 33.763203 18.617891 12.5
-194.56151 34.068455 18.643564 12.571428
-194.50517 34.497334 18.544722 12
-194.5665 34.968258 18.604145 12.625
-194.61612 35.363216 18.638458 12.625
-194.63147 35.774189 18.586195 12.571428
-194.6689 36.152676 18.606314 12.8019
-194.68311 36.61697 18.566189 12.714286
-194.69484 37.032417 18.618372 12.714286
-194.74541 37.323856 18.616978 12.75
-194.74525 37.735554 18.672781 12.888889
-194.7675 38.206169 18.62817 12.833333
-194.76599 38.568928 18.626524 12.75
-194.67285 39.060482 18.490561 12.003
-194.72804 39.515934 18.558783 13.186667
-194.5486 39.804249 18.485945 13
-194.70116 40.808285 18.518864 14.0435
-194.79367 42.192337 18.760372 15.0465
-194.47748 43.421219 18.634056 13
-194.52063 43.734711 18.637913 13.142858
-194.5461 44.093861 18.574749 14
-194.66449 47.893341 18.413893 13
-194.71631 48.158417 18.58934 13.857142
-194.45659 30.679548 18.965754 13
-194.46371 30.93557 18.973108 12.8
-194.47362 31.45859 19.001038 13
-194.49591 31.854942 19.001459 13
-194.51328 32.188644 19.014992 13
-194.52464 32.547619 18.97868 13
-194.54364 33.003307 18.959955 13
-194.56581 33.460499 18.914545 13
-194.57242 33.812569 18.940401 13
-194.58524 34.093437 18.912466 13
-194.53925 35.028633 19.037247 13
-194.56534 35.387573 18.910864 13.333333
-194.65654 35.749939 18.922422 13.166667
-194.67232 36.262917 18.894945 13
-194.69879 36.705208 18.846275 13
-194.60892 36.860821 18.912298 13.5225
-194.69955 37.222248 18.823549 13
-194.59036 38.223564 18.806356 14.0445
-194.59818 39.657848 18.9834 14.02375
-194.74725 40.936665 18.928087 15.047
-194.4091 43.513195 18.995041 15
-194.59129 43.83049 19.048779 14.151999
-194.71265 47.929546 18.987181 13
-194.72075 48.155411 18.917168 13
-194.73651 51.971691 19.195721 14
-194.40065 54.397152 19.070463 14
-194.43086 54.728886 19.057079 14
-194.56267 55.078083 19.084955 14
-194.48586 55.424419 19.039837 14
-194.45981 55.780689 19.009447 14
-194.51411 56.245338 19.044815 14
-194.57527 56.581581 19.060848 14
-194.53838 56.95512 18.955835 14
-194.55746 57.401203 18.93829 14
-194.59171 57.773396 18.927893 14
-194.61469 58.196545 18.916655 14
-194.64629 58.660702 18.893072 14
-194.67451 59.094292 18.883327 14
-194.68764 59.462029 18.869099 14
-194.71832 59.82093 18.861078 14
-194.56578 33.019783 19.417542 14
-194.61394 33.570461 19.353441 14
-194.61674 33.994602 19.296076 14
-194.618 34.280907 19.25746 14
-194.65054 34.968487 19.455936 13.2138
-194.73763 35.216995 19.44908 13
-194.53276 37.050323 19.462202 15.0485
-194.45036 37.248856 19.563005 15.0565
-194.55896 38.348557 19.37324 15.05275
-194.47896 38.723228 19.502134 15.059
-194.44632 39.44088 19.424076 13
-194.49167 43.494781 19.263575 13
-194.5943 43.790039 19.373083 14.3
-194.7709 44.033195 19.32526 15
-194.67323 48.215546 19.533047 13.333333
-194.57356 48.519421 19.556526 14
-194.58344 49.023563 19.553591 14
-194.65585 49.384659 19.551746 14.009334
-194.69316 49.752197 19.541479 14
-194.67511 50.150955 19.508867 14.01175
-194.71454 50.510887 19.484848 14
-194.6888 51.472172 19.412296 14.004599
-194.54597 51.834824 19.501945 14
-194.69966 52.162674 19.447159 14
-194.61227 52.466892 19.387848 14
-194.64677 56.599125 19.21982 14
-194.72696 57.046978 19.343441 14
-194.42783 30.893522 19.684076 14
-194.54286 35.13784 19.737364 14
-194.59576 35.479923 19.705206 15
-194.79556 36.493969 19.984938 13
-194.44513 36.963215 19.686136 15.058
-194.41513 37.347271 19.724268 15.0595
-194.61839 39.499847 19.798031 13.688832
-194.51884 43.57169 19.865948 13
-194.5193 43.801376 19.883163 13
-194.54881 44.033466 19.883421 13
-194.46301 44.672298 19.973091 14
-194.49231 45.026073 19.945301 14
-194.46194 45.347279 19.877012 14
-194.45015 45.790157 19.83214 14
-194.49736 46.250328 19.80579 14
-194.459 46.626991 19.74477 14
-194.55356 46.911308 19.751026 14
-194.62561 47.428333 19.844959 13.5
-194.63313 47.853134 19.817514 13.557389
-194.6443 48.20937 19.777983 13.502376
-194.65895 48.549042 19.790762 13.806499
-194.72246 48.967606 19.835623 13.335999
-194.75864 49.364796 19.936939 13
-194.7827 49.688126 19.892662 13
-194.76753 50.290268 19.937738 13
-194.78479 50.964207 19.925907 13
-194.5378 51.834171 19.721371 14
-194.7131 52.167427 19.75104 14.111111
-194.74297 52.515034 19.616152 15
-194.51469 30.71352 20.282475 13.26175
-194.52647 30.979652 20.300747 13.5
-194.54913 31.431082 20.281839 13.214
-194.55006 31.914865 20.28002 13
-194.5751 32.109623 20.258844 13
-194.59525 32.516499 20.224131 13
-194.61922 33.047832 20.201395 13.267375
-194.62987 33.40863 20.1959 13
-194.64613 33.889515 20.151941 13
-194.61772 35.01313 20.137949 13
-194.74237 35.233273 20.092113 13
-194.75536 35.715797 20.049086 13
-194.78606 36.190613 20.01116 13
-194.72636 37.096508 20.301092 14.033251
-194.78828 38.271347 20.272221 15.058
-194.50955 39.431267 20.084116 15
-194.43643 41.791264 20.318338 13
-194.44614 42.392765 20.380592 13
-194.46298 42.609165 20.314711 13
-194.46539 43.039944 20.282967 13
-194.48837 43.482414 20.244644 13
-194.51071 43.814529 20.209724 13.333333
-194.50787 44.210152 20.175488 13.4
-194.51129 44.648838 20.25738 13
-194.55902 45.007614 20.197054 13
-194.5331 45.38818 20.16811 13
-194.5421 45.776016 20.142857 13
-194.58556 46.184326 20.10224 13
-194.58046 46.496365 20.121855 13
-194.60503 46.938328 20.09516 13
-194.59558 47.517105 20.075563 13
-194.58774 47.827061 20.068598 13
-194.64011 48.202965 20.159931 13.5
-194.66245 48.536724 20.149099 13.375
-194.70403 49.001812 20.0653 13
-194.71779 49.406742 20.054585 13
-194.71262 49.8936 20.047329 13
-194.74788 50.253223 20.032591 13
-194.76178 50.598637 20.014444 13
-194.72588 51.896969 20.1523 14
-194.75316 52.090611 20.205799 14
-194.53075 30.746315 20.550875 13.535
-194.53091 31.079275 20.526781 13.005
-194.57805 31.365744 20.440718 13
-194.56435 31.706293 20.402601 13
-194.59261 32.762981 20.607069 13.004749
-194.61168 33.097607 20.768244 13
-194.64224 33.43763 20.741739 13
-194.59998 33.829258 20.716913 13
-194.62857 34.1954 20.674309 13
-194.64345 35.115993 20.667866 13.4
-194.67529 35.432961 20.627958 13.2585
-194.73442 35.72789 20.563364 13.687667
-194.75072 36.174732 20.599537 13.25725
-194.76244 36.617886 20.552734 13
-194.75769 37.013885 20.574692 13
-194.74547 37.447952 20.612671 13.333333
-194.69365 37.728615 20.533167 13.6256
-194.78703 38.042583 20.791862 13
-194.52313 39.565693 20.61352 13
-194.76852 39.806633 20.671148 14
-194.54698 40.265503 20.564194 13.333333
-194.7923 40.435875 20.75363 14
-194.58292 41.004932 20.432447 13
-194.41698 41.909008 20.542248 13
-194.40977 42.286781 20.511673 13
-194.40845 42.644604 20.484095 13
-194.47655 43.555069 20.491116 13
-194.50557 43.911228 20.58744 13.723857
-194.48416 44.124313 20.525919 14
-194.4632 44.404804 20.414814 15
-194.64619 48.176949 20.540367 13.75
-194.7225 48.536114 20.537031 15
-194.75848 51.784077 20.65243 14
-194.74495 52.055321 20.629601 14
-194.42767 30.630968 21.065718 13
-194.46707 31.016861 21.009302 13
-194.48431 31.339384 21.019268 13.294428
-194.52798 31.743103 20.962944 13
-194.5394 32.162594 21.027107 13.228945
-194.58574 32.602634 20.992199 13.187272
-194.5779 33.008255 20.950024 13.294357
-194.556 33.325661 21.022339 13.228833
-194.60434 33.774471 20.999062 13.206751
-194.61192 34.194691 21.046282 13
-194.62671 35.098915 21.039597 13.343083
-194.72063 35.46986 21.047754 13
-194.72169 35.833378 21.034653 13
-194.68962 36.267597 21.07163 13.444445
-194.70532 36.639118 21.049618 13.454545
-194.71117 37.063313 21.010126 13.555555
-194.71541 37.443314 20.978109 13.625
-194.70139 37.82473 20.990938 13.857142
-194.73053 38.251102 20.938881 13.833333
-194.72667 38.607265 20.900713 14
-194.72874 38.91164 20.916824 14
-194.63211 39.506401 21.001686 14.261
-194.75967 39.733242 20.98822 14
-194.77429 40.204788 21.09906 14
-194.78181 40.600777 21.057093 14
-194.72241 40.898571 21.089153 14.525499
-194.42778 42.011612 21.067085 15.0675
-194.41806 42.671669 21.191267 15
-194.42986 42.920109 21.160656 15
-194.44687 43.304222 21.113411 15
-194.62646 43.811749 20.939207 13.4
-194.58595 44.220905 20.947798 14.5
-194.51901 44.63612 20.957567 15
-194.52179 44.870476 20.927805 15
-194.62531 45.381592 20.893396 15
-194.75153 45.758831 20.883827 15
-194.56262 46.214573 21.176189 14
-194.57631 46.631344 21.145241 14
-194.57034 46.912205 21.120531 14
-194.61125 47.31419 21.099113 14
-194.63522 47.719429 21.073233 14
-194.59393 48.17094 20.91102 14
-194.66425 48.545643 21.01656 14
-194.69643 48.960819 20.9937 14
-194.66512 49.405766 21.0837 14.003001
-194.72784 49.795948 20.940054 14
-194.71542 50.190689 21.103643 14
-194.72775 50.571842 21.012817 13.779
-194.76093 51.042789 21.052773 14
-194.77223 51.39613 21.079967 14
-194.79701 51.891445 21.106436 14
-194.53197 30.626631 21.32736 13
-194.50145 30.909622 21.381468 13
-194.52 31.359688 21.337637 13
-194.50723 31.784996 21.293421 13
-194.5191 32.205322 21.322035 13
-194.51189 32.661018 21.335285 13.222222
-194.52408 33.005981 21.375929 13.375
-194.54546 33.436787 21.390852 13.5
-194.53021 33.839836 21.39151 13.515167
-194.56851 34.161076 21.348412 13.6
-194.45302 34.769287 21.598892 13.0075
-194.5318 35.146896 21.286642 14
-194.58394 35.46867 21.258635 14
-194.59004 35.795738 21.323576 14
-194.59671 36.134884 21.403008 14.003799
-194.6067 36.636555 21.524958 14
-194.58585 37.019035 21.474031 14.26125
-194.6515 37.460556 21.344761 14.003599
-194.66379 37.847908 21.44553 14
-194.63567 38.178371 21.343218 14.261126
-194.69415 38.503098 21.406925 14
-194.69765 39.530308 21.468113 13.603999
-194.76202 39.963451 21.412661 14
-194.68129 40.504066 21.334538 14
-194.72708 40.891747 21.30599 14
-194.72147 41.501827 21.231039 14
-194.40186 42.424587 21.220577 15
-194.51065 43.37878 21.480333 13.75
-194.42841 43.815044 21.367977 14
-194.4832 44.262562 21.437721 14
-194.5555 44.628738 21.373217 14
-194.48557 44.921383 21.453228 14
-194.50002 45.341476 21.421099 14
-194.52113 45.767509 21.390806 14
-194.54218 46.185799 21.44187 14
-194.55763 46.519802 21.418684 14
-194.58313 47.008984 21.361094 14
-194.6028 47.423031 21.358486 14
-194.61722 47.78204 21.334251 14
-194.63022 48.25325 21.301348 14
-194.63913 48.531204 21.340763 14
-194.65793 48.960316 21.298502 14
-194.67891 49.368073 21.289047 14
-194.69589 49.779076 21.263716 14
-194.74809 50.179085 21.325182 14
-194.76181 50.462353 21.308989 14
-194.77274 50.888363 21.282461 14
-194.79301 51.312187 21.259083 14
-194.69002 51.958328 21.539345 14
-194.69621 52.141041 21.562149 15
-194.70833 52.482456 21.528292 15
-194.74942 52.929111 21.493174 15
-194.75272 53.385075 21.445181 15
-194.7901 53.841351 21.409491 15
-194.79933 54.292442 21.365713 15
-194.77905 56.19405 21.48683 15
-194.45076 56.543167 21.39782 15
-194.73776 57.407387 21.489567 15
-194.7527 57.627014 21.48119 15
-194.67366 31.070421 21.712959 15.0595
-194.40436 31.937706 21.738913 14
-194.4274 32.283798 21.700304 14
-194.45044 32.645695 21.715515 14
-194.48169 33.30793 21.778755 14.333333
-194.48378 33.824963 21.646055 14
-194.53783 34.152138 21.841526 14.666667
-194.49049 35.04073 21.691694 14
-194.54958 35.384666 21.647722 14.2
-194.6002 35.716412 21.671934 14.5
-194.58345 36.187798 21.627203 14
-194.50887 37.411076 21.617411 14
-194.59041 39.024014 21.821489 13.0065
-194.41367 43.493504 21.697798 14
-194.43881 43.871979 21.670673 14
-194.606 48.224754 21.914297 14.333333
-194.54073 48.478138 21.946642 15
-194.55225 48.8312 21.906145 15
-194.53268 49.344898 21.920902 15
-194.5864 49.819756 21.88698 15
-194.59285 50.190205 21.817528 15
-194.64911 50.606503 21.842461 15
-194.66869 51.016327 21.750654 15
-194.66435 51.417679 21.726585 15
-194.68311 51.779015 21.875624 14.857142
-194.65961 52.175373 21.882748 15
-194.63919 52.561352 21.890028 15
-194.71086 53.015858 21.910061 15
-194.71684 53.426601 21.902395 15
-194.53445 53.808067 21.89859 15
-194.52336 54.237534 21.863142 15
-194.60846 54.625488 21.817379 15
-194.56084 54.99255 21.875349 15
-194.53159 55.393272 21.878443 15
-194.54565 55.821331 21.85647 15
-194.54004 56.190342 21.785751 15
-194.58701 56.612518 21.762098 15
-194.60008 56.993179 21.805464 15
-194.61111 57.356716 21.768084 15
-194.65448 57.803768 21.778837 15
-194.66812 58.221226 21.761507 15
-194.71201 58.638718 21.82057 15
-194.73711 59.02803 21.80942 15
-194.73557 59.414047 21.724936 15
-194.75111 59.768063 21.713711 15
-194.41805 30.766481 22.033117 14
-194.72209 30.914186 22.045406 14
-194.44215 32.336544 22.139589 15
-194.48102 32.605793 22.107098 15
-194.51463 33.023735 22.0497 15
-194.68201 36.216129 22.346601 14
-194.69252 36.970016 22.3237 14
-194.73859 37.409401 22.270658 14
-194.73131 37.999027 22.280718 14
-194.76659 38.185329 22.267937 14
-194.78394 38.447609 22.137392 14
-194.59315 39.448822 22.147125 13.6028
-194.43784 43.765781 22.22126 14
-194.41882 45.807812 22.335903 15
-194.44556 46.26775 22.293711 15
-194.47591 46.736881 22.252552 15
-194.44704 46.981625 22.194754 15
-194.45132 47.450584 22.217367 15
-194.50374 47.766098 22.260826 15
-194.59279 48.179955 22.162027 14.671666
-194.55943 48.565025 22.152695 15.0065
-194.57838 49.022861 22.138512 15.0032
-194.62616 49.399151 22.028257 15
-194.62251 49.636414 22.08217 15
-194.62537 50.214573 22.114231 15.003875
-194.64584 50.624115 22.094267 15
-194.62833 50.918495 22.081244 15
-194.66837 51.342171 22.044836 15
-194.6564 51.745304 22.209618 15
-194.60266 52.170998 22.266268 15
-194.41669 52.544453 22.117786 15
-194.43672 52.898975 22.098087 15
-194.45955 53.388103 22.070126 15
-194.46605 53.756039 22.04623 15
-194.49858 54.11964 22.031597 15
-194.51463 54.607883 22.00382 15
-194.73138 56.57275 22.106127 15
-194.69083 57.071125 22.064005 15
-194.71771 57.561832 22.044983 15
-194.73831 58.052799 22.024855 15
-194.74687 58.421368 22.008097 15
-194.44724 32.105366 22.704496 14.003499
-194.50201 32.59708 22.70928 14
-194.51685 33.107079 22.709265 14
-194.51239 33.414013 22.655981 13.835
-194.55054 33.787457 22.658245 13.875
-194.5511 34.111156 22.674404 14.261375
-194.57405 34.586155 22.751701 13
-194.54813 35.029552 22.527412 13.778666
-194.61015 35.448162 22.567797 14.009
-194.64931 35.73283 22.477535 14
-194.64314 36.189083 22.536963 13.75
-194.67239 36.636044 22.49791 13.75
-194.69994 36.885303 22.491335 14
-194.73286 37.339626 22.452097 14
-194.74348 37.800404 22.406816 14
-194.73637 39.148457 22.473953 13
-194.6953 39.331932 22.627363 13.333333
-194.77448 39.669697 22.758146 13
-194.78847 40.090321 22.729221 13
-194.43185 43.551514 22.429329 14
-194.55312 43.818867 22.515854 13.5585
-194.5251 44.088474 22.530537 14.666667
-194.61612 48.239002 22.657679 14.25
-194.68388 48.503162 22.669697 14.666667
-194.73555 52.131866 22.608349 14.857142
-194.66075 30.696091 23.029232 13.672666
-194.4312 30.972061 22.929043 14.333333
-194.42767 31.360744 22.932625 14.1495
-194.45108 31.784779 22.848417 14
-194.45235 32.221767 22.85253 14
-194.46063 32.671978 22.847582 14.011499
-194.42522 32.957413 22.899906 13
-194.4982 33.416702 22.889915 13.333333
-194.46219 33.821484 22.881235 13
-194.50301 34.238064 22.85388 13
-194.51837 34.711811 22.84477 13
-194.57286 35.125057 22.821232 13
-194.64474 36.716335 22.963099 13
-194.67094 37.159557 22.932755 13
-194.66368 37.589031 22.897381 13
-194.69168 37.987766 22.871462 13
-194.73468 38.403721 22.847349 13
-194.74187 38.82777 22.816008 13
-194.54933 39.493252 22.839472 14
-194.78767 41.191959 23.041491 15
-194.45766 41.533962 23.14011 15.008167
-194.79868 41.823116 23.152014 15
-194.57159 42.8927 23.056099 15.0075
-194.50526 43.834618 22.988705 14.333333
-194.58179 44.138752 22.960802 14.6
-194.61676 44.548885 22.895082 15
-194.64259 45.061924 22.850542 15
-194.61334 45.458893 22.801157 15
-194.60529 47.964672 23.077757 14
-194.58443 48.254597 22.948618 14.444445
-194.61128 48.514931 22.92577 14.666667
-194.7088 51.830063 23.00919 14.6
-194.69107 52.142155 23.026283 15
-194.57372 39.553158 23.597898 15
-194.68976 39.74374 23.312382 15
-194.43484 40.281246 23.311241 15.0085
-194.73228 40.456509 23.307987 15
-194.76723 40.829094 23.270399 15
-194.43478 43.766754 23.260834 14
-194.54094 44.089687 23.326277 14.2
-194.58775 48.219124 23.422894 14.272727
-194.59665 48.428101 23.354895 14.6
-194.70253 51.884106 23.490461 15
-194.73817 52.139118 23.493893 14.666667
-194.63124 30.664759 23.96138 15.07
-194.41934 35.143791 23.817322 14.691334
-194.40753 35.307457 23.92971 15
-194.56908 39.663536 23.639486 15.03525
-194.46014 42.500652 23.961365 14
-194.51883 42.83707 23.948225 14
-194.57854 43.333275 23.955 14
-194.45659 43.821682 23.728336 14
-194.57993 44.023998 23.850447 15
-194.51497 44.603748 23.898884 14
-194.54588 45.123367 23.864622 14
-194.5517 45.471798 23.911415 14
-194.55202 45.825085 23.884069 14
-194.59262 46.252689 23.861155 14
-194.63799 46.559345 23.923235 14
-194.62102 46.974289 23.788853 14
-194.66264 47.386456 23.793325 14
-194.70328 47.810055 23.77249 14
-194.59267 48.22047 23.797775 14.571428
-194.62997 48.489941 23.725389 14.5
-194.72285 48.969242 23.793903 14
-194.76175 49.445492 23.858255 14
-194.77042 49.68832 23.733803 14
-194.77457 50.05872 23.819719 14
-194.79515 50.564564 23.681778 14
-194.75742 51.882565 23.70208 15
-194.78282 52.111565 23.845411 15
-194.44728 30.616129 24.323847 14
-194.52162 30.913252 24.307137 14
-194.53426 31.286337 24.265896 14
-194.55974 31.601915 24.235035 14
-194.58842 32.111767 24.182526 14
-194.65935 32.603695 24.143444 14
-194.70081 36.604115 24.364464 14
-194.748 37.112385 24.330261 14
-194.79247 37.470623 24.317848 14
-194.69984 37.778866 24.330042 14
-194.71255 38.210606 24.291979 14
-194.72658 38.567051 24.261723 14
-194.79018 38.826656 24.166496 14
-194.68089 39.524548 24.189547 14.6
-194.72641 39.84967 24.22868 14
-194.7729 40.357178 24.193802 14
-194.78387 40.723625 24.163382 14
-194.41385 42.302029 24.205999 14
-194.44171 42.669468 24.112028 14
-194.44586 43.078678 24.163147 14
-194.44153 43.42004 24.102926 14
-194.46825 43.74794 24.164976 14
-194.50323 44.060314 24.142 14.4
-194.59024 44.56295 24.170012 14
-194.56726 45.12854 24.128576 14
-194.58722 45.368481 24.3006 14
-194.63374 45.805069 24.302198 14
-194.65788 46.334148 24.243299 14
-194.65733 46.657715 24.291636 14
-194.62027 46.921192 24.11677 14
-194.7027 47.243237 24.185959 14
-194.71049 47.774284 24.124378 14
-194.61928 48.218948 24.21594 14.8
-194.73309 48.574974 24.096685 14
-194.74405 49.014545 24.142355 14
-194.75591 51.978874 24.117687 15
-194.76294 52.266117 24.04764 15
-194.42825 30.702394 24.525322 14
-194.43257 31.060011 24.574606 14
-194.48322 31.395958 24.578949 14
-194.48787 31.799799 24.514578 14
-194.541 32.097675 24.654003 14.024834
-194.47746 32.581718 24.713684 14
-194.5002 32.933762 24.681774 14
-194.53795 33.279766 24.654518 14
-194.53987 33.655514 24.615509 14
-194.5658 34.004261 24.585585 14
-194.43019 35.11414 24.543459 15
-194.59746 35.221287 24.468647 14
-194.6183 35.755222 24.432442 14
-194.65318 36.090164 24.407511 14
-194.53123 37.062557 24.445578 14
-194.60185 37.604576 24.410036 14
-194.41873 40.551254 24.732208 14
-194.42093 40.904125 24.701754 14
-194.42786 41.404854 24.589323 14
-194.43507 41.771961 24.55932 14
-194.47388 42.211815 24.554707 14
-194.50542 42.594299 24.46825 14.037333
-194.50806 43.103352 24.535652 14
-194.51666 43.46944 24.507593 14
-194.40512 43.917271 24.603088 15
-194.54858 44.004322 24.471846 14
-194.5831 44.55077 24.470556 14.056749
-194.57568 44.887142 24.407936 14
-194.73251 46.330879 24.543173 14.0045
-194.57999 47.985283 24.480391 15
-194.72433 48.205162 24.434958 14.333333
-194.75562 51.914661 24.632706 15
-194.79416 52.196625 24.624376 15
-194.61127 53.338047 24.765411 14.1155
-194.42134 30.989031 24.873026 14
-194.44217 31.545324 24.81703 14
-194.49757 33.580204 25.042767 15.046
-194.48267 35.191135 25.17584 15
-194.52245 35.763454 25.113123 15
-194.58316 36.630707 25.047834 15
-194.64441 37.025589 25.128939 15
-194.63162 37.394337 24.986019 15
-194.68179 37.723602 24.96093 15
-194.71886 38.346878 24.993149 15
-194.73273 38.566628 25.109028 15
-194.60846 39.488586 24.9659 15
-194.77252 39.849087 25.073477 15
-194.79936 40.318813 25.148268 15
-194.51547 46.516747 25.194815 15
-194.53107 46.96069 25.160204 15
-194.54941 47.269329 25.138826 15
-194.59921 47.697163 25.117191 15
-194.59344 48.16819 24.976065 15
-194.66362 48.522289 24.967995 15
-194.62599 49.030811 25.102682 15
-194.69055 49.465824 25.176004 15
-194.70169 49.911205 25.144066 15
-194.72424 50.353745 25.116533 15
-194.76163 50.793224 25.094336 15
-194.76822 51.074184 25.075188 15
-194.77176 51.503506 25.044445 15
-194.77802 51.936085 24.926371 15
-194.7701 52.218716 24.815266 15
-194.74176 53.479923 25.010441 14.1155
-194.40581 33.409534 25.391489 15
-194.44789 33.610172 25.516233 15.01
-194.43028 34.011997 25.317049 15
-194.49506 35.027527 25.466413 15
-194.58521 35.300667 25.458891 15
-194.58081 35.838932 25.476511 15
-194.60909 36.224571 25.437399 15
-194.64322 36.641041 25.427549 15
-194.6498 37.061012 25.329657 15
-194.64612 37.344482 25.393326 15
-194.67076 37.79163 25.323217 15
-194.64638 38.243961 25.306032 15
-194.63225 38.645294 25.33329 15
-194.69241 39.527344 25.251396 15
-194.79485 39.821964 25.344202 15
-194.4361 43.945671 25.587578 15
-194.49963 44.24152 25.391359 15
-194.51051 44.66008 25.357861 15
-194.56871 44.997971 25.343647 15
-194.47762 45.405628 25.373039 15
-194.48053 45.846428 25.333353 15
-194.55702 46.233311 25.406639 15
-194.60355 46.683399 25.467102 15
-194.61432 47.129345 25.430784 15
-194.64502 47.501461 25.407583 15
-194.6586 47.877659 25.3792 15
-194.68924 48.324871 25.350481 15
-194.68088 48.70319 25.316298 15
-194.68619 48.988354 25.375513 15
-194.76962 49.426811 25.364733 15
-194.79657 49.875526 25.336529 15
-194.64243 50.323685 25.404242 14.410667
-194.71555 52.460155 25.444748 14.1155
-194.4453 34.07407 25.639383 15
-194.53377 35.082935 25.685534 15
-194.55376 35.535385 25.635 15
-194.42342 39.644917 25.782423 15.0725
-194.42317 41.479321 25.887415 15.073
-194.42772 41.995392 25.953354 15
-194.44315 42.304676 25.925861 15
-194.45558 42.614288 25.897726 15
-194.47838 43.076603 25.857557 15
-194.44939 43.512722 25.719435 15
-194.5215 43.828129 25.795351 15
-194.5209 44.293522 25.749565 15
-194.58292 44.742641 25.724716 15
-194.56961 45.054775 25.690893 15
-194.58173 45.514278 25.651196 15
-194.60461 45.970402 25.615623 15
-194.60533 46.845528 25.977936 15
-194.52673 47.294376 25.940252 14.55825
-194.65033 47.79491 25.907789 15
-194.70416 48.223568 25.887259 15
-194.63559 48.653542 25.917105 15
-194.66772 48.992035 25.811304 15
-194.68208 49.264236 25.859123 15
-194.72394 49.719219 25.835123 15
-194.7283 50.187073 25.821613 15
-194.73453 50.631912 25.871635 15
-194.75114 51.342731 25.833263 15
-194.75784 51.692417 25.906164 15
-194.7791 52.108376 25.834854 15
-194.79761 52.600716 25.988737 15
-194.79532 53.064831 25.956299 15
-194.72701 43.089436 26.372427 15
-194.57559 43.462784 26.349918 15
-194.72685 43.705975 26.310854 15
-194.48013 44.154087 26.233101 15
-194.46481 44.618874 26.26786 15
-194.47762 45.020634 26.278934 15
-194.51706 45.27618 26.157902 15
-194.51384 45.709721 26.182117 15
-194.5201 46.136677 26.21253 15
-194.52922 46.53944 26.192598 15
-194.54111 46.952877 26.212915 15
-194.56125 47.363785 26.149492 15
-194.56831 47.81284 26.19381 15
-194.59477 48.155266 26.219902 15
-194.59189 48.552124 26.232679 15
-194.58676 48.969196 26.197577 15
-194.62086 49.405647 26.230289 15
-194.63152 49.772171 26.240086 15
-194.64803 50.1702 26.259659 15
-194.672 50.597698 26.25189 15
-194.70645 51.056908 26.199512 15
-194.74557 51.513325 26.049904 15
-194.7261 51.762421 26.212364 15
-194.75485 52.195919 26.161497 15
-194.76215 52.660065 26.166723 15
-194.79599 53.507256 26.172964 15
-194.56357 43.354095 26.637146 15
-194.55984 43.759109 26.713797 15
-194.52946 44.183762 26.595379 15
-194.54709 44.565304 26.718264 15.003
-194.48502 45.549358 26.455696 15
-194.4845 45.85598 26.428139 15
-194.54205 47.358364 26.4562 15
-194.58131 47.710129 26.503189 15
-194.59297 48.061241 26.477873 15
-194.54416 48.568584 26.455536 15
-194.55313 49.047943 26.420385 15
-194.62038 53.238918 26.604975 14.1075
-194.73889 54.245731 26.466204 14.1085
-194.72876 55.117985 26.785753 14.1075
-194.4938 43.128353 26.825167 15
-194.53366 43.797703 26.863552 15
-194.07326 44.004036 4.5223899 9.0500002
-194.32979 40.61372 10.129049 10.007
-194.37006 37.151943 10.697586 10
-194.39003 37.539631 10.676085 10
-194.39795 37.795162 10.661235 10
-194.3728 35.440464 10.874594 10
-194.28271 35.163223 11.798815 10
-194.28864 35.567795 11.771796 10
-194.31187 35.816246 11.758503 10
-194.33347 36.215168 11.734736 10
-194.3459 36.617229 11.709397 10
-194.34247 36.876789 11.691241 10
-194.38606 37.258423 11.672706 10
-194.24226 34.577526 12.20897 11.02275
-194.30142 35.010536 12.135345 11
-194.3223 35.278408 12.115833 11
-194.27966 35.770546 12.158265 11.045
-194.00421 38.763893 12.694972 11
-194.20032 40.170471 12.584599 11.0085
-194.05582 40.5522 12.581164 11
-194.16673 40.999825 12.54567 11
-194.22859 41.346783 12.53264 11
-194.2516 41.780415 12.490519 11
-194.27843 42.251854 12.463971 11
-194.29842 42.636799 12.442232 11
-194.29976 43.03307 12.419998 11
-194.2708 43.319332 12.406293 11
-194.33377 36.589848 13.073605 11.021
-194.18681 37.752766 13.115568 11
-194.21912 38.184864 13.088677 11
-194.23718 38.768291 13.000153 11
-194.28697 39.031086 12.967675 11
-194.10274 39.522354 13.07464 11
-194.13702 39.908413 13.054048 11
-194.15715 40.267365 13.032921 11
-194.28516 34.532871 13.479568 11
-194.3194 35.121105 13.40036 11.01875
-194.26141 35.372196 13.322999 11
