# .PCD v0.7 - Point Cloud Data file format
VERSION 0.7
FIELDS x y z intensity
SIZE 4 4 4 4
TYPE F F F F
COUNT 1 1 1 1
WIDTH 1231
HEIGHT 1
VIEWPOINT 0 0 0 1 0 0 0
POINTS 1231
DATA ascii
-19.397396 142.2592 -4.7230902 2.1875
-19.401724 142.57629 -4.7455754 2.5789473
-19.436342 142.95894 -4.7398982 2.3571429
-19.460804 143.4433 -4.728261 2.6153846
-19.376095 143.78917 -4.7310209 2.8
-19.417961 144.22562 -4.733676 2.5999999
-19.348295 144.47046 -4.7468686 3.8
-19.455374 145.00732 -4.7628193 2
-19.33441 145.38464 -4.7694812 3.5
-19.458483 145.92676 -4.7760634 2.5
-19.421021 146.23792 -4.7740269 2.5
-19.446917 146.54431 -4.7877498 1.8
-19.321173 146.9753 -4.788465 2.75
-19.503019 147.47534 -4.7748346 3
-19.476892 149.73523 -4.6839147 6
-19.395737 120.18794 -4.2115369 2.5833333
-19.370491 120.56367 -4.1802053 2.5384614
-19.3888 121.02103 -4.1494856 2.3076923
-19.365173 121.40192 -4.2047863 2.1666667
-19.391342 121.78508 -4.212534 2.4736843
-19.449093 122.24551 -4.2288551 3.5
-19.367527 122.5704 -4.2359476 2.3636363
-19.360924 122.99947 -4.1614556 3.8571429
-19.478842 123.43165 -4.2333269 2.8499999
-19.354738 123.72851 -4.2388811 2.4444444
-19.420792 124.27496 -4.307003 3.5454545
-19.383469 124.58567 -4.2919798 2.7142856
-19.462059 125.00127 -4.277369 2.5454545
-19.424479 125.4465 -4.3099647 2.5263157
-19.428579 125.86452 -4.3104529 2.909091
-19.404749 126.24986 -4.3082519 2.7272727
-19.452188 126.5983 -4.3627906 2.8461537
-19.361132 126.96758 -4.3316555 2.7142856
-19.391844 127.35345 -4.3348527 3.2222223
-19.453142 127.74535 -4.3026657 3
-19.383142 128.10579 -4.3853993 2.3333333
-19.432976 128.6846 -4.2801609 4.25
-19.30541 129.16655 -4.3369966 4.5
-19.458162 129.27182 -4.2796507 3.5
-19.413019 129.78847 -4.3452849 4.8000002
-19.334879 130.08383 -4.301229 3
-19.318039 130.43132 -4.3198452 4
-19.45467 130.93419 -4.3274455 3.3333333
-19.444492 131.45265 -4.3295288 4.3333335
-19.410149 131.83188 -4.3391681 3
-19.426102 132.33226 -4.3743672 4.5
-19.421007 132.65982 -4.365715 3.25
-19.311598 132.92653 -4.3913417 5
-19.382645 133.44064 -4.3894877 3.5
-19.493679 142.37383 -1.7968659 8.1455002
-19.483324 120.79069 -0.11930432 9
-19.327902 120.88351 -0.049372539 10.333333
-19.402973 120.16844 0.27974573 13.512625
-19.42445 120.70245 0.17924231 12.364989
-19.480608 120.88221 0.16360925 11.027513
-19.59866 120.04322 0.60752434 12.009
-19.398472 120.64046 0.48147118 13.881101
-19.338974 120.8041 0.70797414 13
-19.382257 120.51861 0.87030661 14.58725
-19.356108 120.83215 1.0190881 12.69175
-19.374485 125.9792 1.9420586 10.1435
-19.375151 120.97356 5.0723219 14.450541
-19.386019 120.9549 5.2658978 13.56525
-18.937069 145.88504 -5.2015738 6
-18.84049 141.87701 -4.8122807 4.5
-18.946957 142.63071 -4.8131037 5
-18.977802 143.19418 -4.8065262 0
-19.00222 143.44533 -4.8213325 3.2142856
-19.067011 143.80106 -4.830431 1.875
-18.955835 144.20821 -4.8361435 3.2857144
-19.052362 144.60646 -4.832902 2.3333333
-18.913019 144.93904 -4.8418694 2.5
-19.070816 145.37129 -4.8414235 2.5833333
-19.031229 145.82008 -4.8568726 3.8571429
-18.970531 146.17017 -4.877769 2.3333333
-19.083855 146.60129 -4.8554735 3.8333333
-19.071207 146.98811 -4.871407 3.4000001
-18.966707 147.34322 -4.872076 2.8
-18.951494 147.79134 -4.8820043 3.0999999
-19.060328 148.24133 -4.9147081 3.0714285
-18.961969 148.64088 -4.8949699 3.2222223
-18.948545 148.99591 -4.8808184 2.0833333
-19.030054 149.38266 -4.9043193 3.8888888
-19.03863 149.80107 -4.9259825 3.4666667
-19.12965 125.79343 -4.4145055 5.5
-19.066708 126.61525 -4.4121809 3
-18.992994 127.07253 -4.4025545 2.5
-19.050501 127.41692 -4.4146509 4
-18.954834 127.83205 -4.413744 3
-19.02672 128.28107 -4.4146175 4.5714288
-18.9818 128.64722 -4.4321418 1.1428572
-19.01643 129.01019 -4.4322276 3
-19.017193 129.41878 -4.4344878 2.4615386
-19.031679 129.70671 -4.4391465 2.5
-19.010876 130.20537 -4.4511294 2.909091
-18.978601 130.64223 -4.4580598 2.5
-18.978708 131.09515 -4.4657826 3.5454545
-19.068947 131.43796 -4.4708643 1.6363636
-18.991125 131.7784 -4.4856291 2.75
-18.974251 132.20937 -4.4921827 2.6470587
-19.002071 132.56432 -4.5073385 2.3333333
-19.053879 132.9346 -4.5026598 2.9166667
-18.983183 133.40829 -4.5140729 2.75
-19.056707 133.85059 -4.5289035 2.5384614
-18.964384 134.1519 -4.5109806 3.5
-18.996275 134.6521 -4.5200572 2.4444444
-19.061401 135.01044 -4.5489221 2.2105262
-19.006895 135.38023 -4.525507 2.9333334
-18.987339 135.80484 -4.571147 2.6428571
-19.047701 136.2487 -4.6028557 2.5294118
-18.986172 136.61423 -4.6189094 2.909091
-18.958607 136.98386 -4.6159325 2.7142856
-18.998774 137.42485 -4.6180406 2.625
-18.991175 137.81676 -4.6418023 2.6666667
-19.068573 138.1653 -4.6452026 3.0833333
-19.005623 138.62834 -4.6590462 2.5333333
-19.074497 138.96779 -4.6673965 2.2
-19.013191 139.43504 -4.6763124 3.3846154
-18.99741 139.83913 -4.7099895 2.6818182
-18.998211 140.28238 -4.6901102 2.0999999
-19.000933 140.60957 -4.7131448 2.7692308
-19.047112 141.03194 -4.7206883 2
-18.992935 141.51276 -4.7223973 2.2631578
-18.983082 141.82703 -4.7184935 2.3333333
-19.042374 142.24219 -4.7274556 1.8333334
-18.94895 142.5742 -4.7388864 2.5833333
-19.04727 142.98421 -4.7253637 2.8666666
-19.0413 143.46567 -4.7255249 2.5
-19.001524 143.84288 -4.73066 3
-18.977598 144.20985 -4.7378678 3
-18.918299 144.62979 -4.7509084 3.75
-19.060482 145.034 -4.7479749 2
-19.014458 145.42346 -4.7709775 3.5714285
-18.999855 145.91754 -4.771997 0.5
-19.02247 146.20354 -4.7735457 2.2857144
-18.967264 146.59932 -4.7910237 1.3333334
-18.978638 146.93794 -4.793366 1.6
-19.08618 147.53738 -4.7787604 3
-19.165266 149.60411 -4.4624095 5
-19.027239 120.19713 -4.2130718 3.4444444
-18.901043 120.57461 -4.2413392 4
-18.969116 121.0051 -4.2041931 2.4000001
-18.970398 121.34989 -4.2037206 2
-19.027767 121.81787 -4.2423224 3.5625
-19.070826 122.1647 -4.2245464 2.8571429
-18.968901 122.58418 -4.2371392 2.7857144
-19.02335 122.96755 -4.2221074 3
-19.060476 123.46899 -4.265986 3.1578948
-19.022448 123.7798 -4.2621927 2.4000001
-18.96303 124.28442 -4.2765613 3.0769231
-19.007339 124.62263 -4.3057933 2.5882354
-19.037237 125.06264 -4.3401752 3.7777777
-19.009823 125.35367 -4.2939239 3.3181818
-19.024765 125.71194 -4.3149271 1.9090909
-18.975193 126.15866 -4.306644 3.3076923
-19.047354 126.56997 -4.3671079 2.2307692
-18.978056 127.01128 -4.2949891 3.2
-18.903791 127.36219 -4.3223605 3
-19.036938 127.82619 -4.3530684 2.2857144
-18.925201 128.16272 -4.3883719 3
-19.063189 128.72731 -4.2470975 4
-19.177181 129.18796 -4.2800188 3
-18.990057 129.34631 -4.2887554 3
-18.977343 129.7475 -4.3542728 5.1999998
-18.906309 130.29254 -4.3486433 4.5
-18.863865 130.55438 -4.3164005 4
-19.084887 130.91412 -4.3237514 3.75
-19.003574 131.49615 -4.3534012 3.75
-19.075216 131.72377 -4.3125229 3
-19.021814 132.65773 -4.3521047 3.3333333
-18.937078 132.91557 -4.3783617 3.3333333
-19.131039 133.62538 -4.3832684 3
-18.996868 120.95193 -0.12052965 9.3032141
-19.006092 120.2282 0.21282952 12.653568
-19.000786 120.69189 0.15049469 13.154751
-19.005899 120.96802 0.19741362 11.334536
-19.073332 120.27988 0.58141601 12.080313
-18.897871 120.77857 0.56185257 13
-18.942762 120.96015 0.63193285 12.460175
-18.984291 120.35742 0.84535503 14.179
-18.990585 120.71529 0.98869991 14.031667
-18.961054 120.96178 0.98233449 13.069471
-18.942207 120.99043 1.3809205 12.957151
-18.960888 120.78959 1.6471527 15
-18.971663 121.01317 1.7686955 12.617022
-18.955502 121.03282 2.2096536 13.562086
-18.953379 121.04108 2.5926056 13.520197
-18.942921 121.0361 3.0021484 13.832258
-19.002703 121.05069 3.3465583 12.435714
-18.938288 121.04841 3.740175 13.869571
-18.95216 121.0333 4.198596 14.311
-18.900805 121.0045 4.5731473 14.571428
-19.025364 121.08658 4.9665623 12.968248
-19.046974 121.06239 5.232553 14
-18.411621 141.93285 -4.8034997 4
-18.59174 142.68517 -4.8089609 5
-18.612488 142.9962 -4.8150644 1.4
-18.550243 143.44868 -4.8084736 2.7142856
-18.600685 143.80911 -4.8174715 1.6875
-18.527308 144.23288 -4.8433981 3
-18.520987 144.60966 -4.8273101 2.2
-18.595728 144.90013 -4.8398829 1.6
-18.623985 145.444 -4.8500247 3.25
-18.514605 145.88332 -4.8616123 2.8571429
-18.571724 146.21162 -4.8750944 1.375
-18.596983 146.66992 -4.8655434 3.75
-18.613762 147.04269 -4.8678904 3.6363637
-18.540308 147.39621 -4.894865 3.3888888
-18.631916 147.81291 -4.8720922 3.1666667
-18.632153 148.27664 -4.9113045 3.1333334
-18.654787 148.61314 -4.9131131 3.7777777
-18.613369 148.95505 -4.8841248 2.9333334
-18.596483 149.42694 -4.9452434 3.7142856
-18.625828 149.81793 -4.9380941 3.9333334
-18.665911 126.94102 -4.4069376 1.5
-18.679138 127.32116 -4.4028087 4
-18.578779 127.80762 -4.4157577 2.3333333
-18.591825 128.2083 -4.4175081 2.7272727
-18.621122 128.62836 -4.4291801 1
-18.626104 129.02667 -4.4415212 3.6923077
-18.575638 129.41086 -4.4386368 2.4545455
-18.631935 129.76157 -4.4465446 1.8125
-18.612667 130.1787 -4.4379902 3
-18.514124 130.6041 -4.4483676 2.6666667
-18.585537 130.97935 -4.4648218 3.2142856
-18.587921 131.29192 -4.4748292 2.3333333
-18.599562 131.76822 -4.4679675 2.4000001
-18.577797 132.21997 -4.5011373 2.4166667
-18.634335 132.70073 -4.4846954 2.1428571
-18.622852 133.03517 -4.5008669 4
-18.582216 133.44907 -4.5115213 2.625
-18.658644 133.83723 -4.5352407 2.9285715
-18.581261 134.10965 -4.5110745 3.375
-18.634762 134.6245 -4.5214772 2.3846154
-18.655064 135.04352 -4.5338597 2.5714285
-18.547274 135.35504 -4.555038 2.7
-18.593384 135.75792 -4.569118 1.9285715
-18.566523 136.21152 -4.5854735 3.3
-18.637543 136.55626 -4.6072001 2.2
-18.649473 137.00272 -4.6049752 3.0666666
-18.595385 137.42293 -4.6053567 3.125
-18.583509 137.80138 -4.6515117 2.5
-18.600401 138.17671 -4.6509614 2.6470587
-18.635908 138.60684 -4.669764 2.2
-18.551943 138.96034 -4.657577 2.2222223
-18.621361 139.42572 -4.6668 2.5333333
-18.571772 139.83354 -4.7006717 2.5416667
-18.539167 140.18303 -4.701139 2.8125
-18.573984 140.70201 -4.7056813 2.1904762
-18.64167 140.98578 -4.7104344 2.4000001
-18.585827 141.39384 -4.7228146 2
-18.607903 141.79243 -4.7373457 2.0999999
-18.563295 142.20264 -4.7215991 2.4210527
-18.593267 142.56982 -4.7378273 2.5714285
-18.632982 143.01556 -4.7416835 3.0952382
-18.646814 143.44077 -4.7046556 2
-18.573622 143.81375 -4.7210045 3.1428571
-18.651373 144.28833 -4.7354469 2.8
-18.567709 144.59425 -4.7395363 2.3333333
-18.582989 144.95529 -4.751183 2.3333333
-18.62607 145.44519 -4.762394 3.2
-18.661215 145.73279 -4.7762289 3
-18.618235 146.24306 -4.7743306 1.6666666
-18.516516 146.77695 -4.7895122 2
-18.585293 147.08485 -4.7888651 2.3333333
-18.568865 147.64197 -4.7833743 3
-18.589529 149.69389 -4.4195085 5
-18.622776 120.24168 -4.1912503 2.3333333
-18.504082 120.56113 -4.2088614 3.7142856
-18.597424 121.03302 -4.192131 2.3076923
-18.549618 121.36715 -4.2322593 2.75
-18.630348 121.84126 -4.2612123 3.2307692
-18.60046 122.17091 -4.2515178 3
-18.662714 122.66529 -4.2365742 2.7
-18.642998 123.02711 -4.2532339 2.1538463
-18.61186 123.39776 -4.2569036 3.032258
-18.584242 123.82057 -4.2634621 2.375
-18.535879 124.25795 -4.2613683 2.75
-18.589828 124.59766 -4.2939658 2.0526316
-18.593269 125.025 -4.2746038 3.375
-18.547571 125.38908 -4.3085351 3.2727273
-18.628195 125.73653 -4.3015246 2.1666667
-18.573236 126.18647 -4.3245659 2.7272727
-18.60314 126.60709 -4.3351116 1.6470588
-18.61121 127.05581 -4.3664341 2.8571429
-18.544529 127.31275 -4.3011065 2.625
-18.63866 127.83156 -4.3419571 2.8181818
-18.591806 128.18015 -4.3901577 2.7777777
-18.660778 128.66458 -4.2417364 4
-18.661812 128.94212 -4.3099074 3.6666667
-18.568153 129.41483 -4.2702694 3.3333333
-18.61816 129.77147 -4.343339 4.8333335
-18.529959 130.26413 -4.2968373 2.5
-18.607496 130.72853 -4.3199167 3.6666667
-18.716618 130.87521 -4.3100243 2
-18.642067 131.38831 -4.3219485 3.5999999
-18.574089 131.75061 -4.3168845 2.5
-18.640303 132.26166 -4.3518896 3
-18.51473 132.63762 -4.3682151 4
-18.633783 133.0249 -4.3749733 2.25
-18.459818 133.94957 -4.3853498 3
-18.618641 134.90955 -4.3971791 2
-18.539793 121.08564 -0.099742785 9.5
-18.714981 132.71072 -0.064495683 9.1444998
-18.58803 120.20518 0.22321886 12.984082
-18.596989 120.60059 0.18601272 13.005593
-18.596674 121.02354 0.17808945 12.129066
-18.453413 121.32428 0.12424394 10.112
-18.741436 120.79497 0.62106735 15
-18.575369 120.95135 0.54721248 14.063083
-18.652679 120.67638 0.8792299 14.59525
-18.572994 121.00376 0.98065758 13.762856
-18.775969 120.98917 1.3912793 10.137751
-18.747564 120.87315 1.6000956 10.119
-18.755482 120.922 2.5822976 13
-18.667469 120.92905 2.9720933 11.1165
-18.776178 120.93571 3.4500248 14
-18.794092 120.93365 4.3382902 15
-18.732889 120.93723 4.5894713 13.55825
-18.726475 121.11673 5.0430484 14.368
-18.559116 121.2056 5.044591 14.084875
-18.636971 121.16657 5.207489 14
-18.597317 121.2488 5.2000051 13.131
-18.313332 139.08617 -5.1233678 6
-18.136879 139.88202 -5.1361561 6
-18.13249 140.24937 -4.8039246 5
-18.277416 141.34744 -4.8058271 5
-18.341991 141.90135 -4.8224339 5
-18.078392 142.08824 -4.8470955 5
-18.341026 142.64215 -4.8201728 2.5
-18.058134 143.14618 -4.8144674 3
-18.271263 143.56113 -4.8116455 2.8
-18.185228 143.79318 -4.8158278 1.6666666
-18.122105 144.28947 -4.8329792 2.8888888
-18.221621 144.57866 -4.8362765 1.5555556
-18.162056 144.9567 -4.8497596 2.4444444
-18.199404 145.42204 -4.8493009 3.4166667
-18.180569 145.80331 -4.8560481 3.3333333
-18.179556 146.26561 -4.8633251 3
-18.200205 146.6597 -4.8682313 3.6363637
-18.247585 147.04474 -4.8796005 3.9000001
-18.153383 147.40698 -4.8915267 3.0714285
-18.221933 147.78557 -4.9045014 2.8571429
-18.212351 148.21819 -4.8990984 3.1538463
-18.203793 148.63652 -4.9097366 2.090909
-18.198347 149.01166 -4.9008927 2.8695652
-18.15662 149.36113 -4.9073529 3.6153846
-18.204552 149.85268 -4.9374866 3.8333333
-18.300505 122.86261 -4.4084206 6
-18.057678 123.3617 -4.4172058 6
-18.260965 126.6272 -4.4363384 5
-18.323557 127.04759 -4.4149466 3
-18.303385 127.25851 -4.401567 5
-18.174448 127.81013 -4.4086671 3
-18.232456 128.24672 -4.4145532 2.1428571
-18.219084 128.59465 -4.4364243 3.125
-18.181545 129.02042 -4.4359798 3.5714285
-18.182508 129.42644 -4.4493418 3
-18.184847 129.77925 -4.4396696 2.4666667
-18.181252 130.19406 -4.4351578 3.5333333
-18.14637 130.60922 -4.4481616 1.3076923
-18.261274 130.94499 -4.4704757 2.9166667
-18.130571 131.33687 -4.4847608 1.7142857
-18.140778 131.81056 -4.4668984 3.2222223
-18.186243 132.24626 -4.5018673 2.9375
-18.217104 132.5498 -4.4945593 2.3571429
-18.201027 133.01825 -4.5017729 3.8888888
-18.195652 133.42757 -4.4841185 2.2727273
-18.227299 133.76367 -4.5168934 3.0769231
-18.219425 134.17944 -4.524879 2.6923077
-18.257317 134.5558 -4.5060639 2.5789473
-18.217163 135.08069 -4.5135179 2.7142856
-18.223461 135.33992 -4.5574832 2
-18.203463 135.78787 -4.560576 2.4444444
-18.170261 136.27638 -4.584681 3
-18.26767 136.57939 -4.5896587 1.7333333
-18.197355 137.01135 -4.5953579 2.875
-18.169743 137.42461 -4.5972352 2.7619047
-18.148474 137.74028 -4.647398 1.9
-18.248903 138.26627 -4.6457334 3
-18.277103 138.6552 -4.6559381 3.1538463
-18.17222 138.9567 -4.6605825 2.3333333
-18.236368 139.47244 -4.6886935 2.7333333
-18.203117 139.84323 -4.6831307 3.0666666
-18.20002 140.13405 -4.689281 2.0999999
-18.186375 140.6451 -4.7185335 2.4210527
-18.22278 140.97894 -4.7189541 2.2692308
-18.167633 141.4539 -4.7206473 2.5
-18.252615 141.80583 -4.7265215 2.625
-18.172478 142.19861 -4.723074 2.0769231
-18.165255 142.58347 -4.7377534 2.8181818
-18.251373 142.96358 -4.7452517 2.9523809
-18.18965 143.44817 -4.7212114 1.5454545
-18.23737 143.83649 -4.7162299 3
-18.194559 144.1367 -4.7332788 1.6666666
-18.293877 144.66432 -4.7466474 4.25
-18.136328 144.95325 -4.7366614 1.2857143
-18.186062 145.48064 -4.7600389 3.5999999
-18.289417 145.75296 -4.7694464 2.3333333
-18.227606 146.31871 -4.7734103 1.6666666
-18.103354 146.46384 -4.7865334 2
-18.184216 147.01976 -4.7899551 1.4
-18.017138 147.27452 -4.7977128 2.5
-18.161745 147.75464 -4.7863026 3
-18.110409 149.29248 -4.4036808 5
-18.215776 120.21143 -4.1970181 3.3333333
-18.138094 120.61037 -4.2129612 2.8
-18.217644 121.04537 -4.2015462 1
-18.181791 121.39851 -4.2283058 3.4000001
-18.170061 121.88274 -4.2525945 3.3888888
-18.255428 122.24249 -4.2529459 1.1666666
-18.193867 122.67551 -4.2247171 3.3571429
-18.277534 123.00841 -4.2449961 2.9166667
-18.206995 123.38733 -4.2484708 3.05
-18.194798 123.75156 -4.299767 2.090909
-18.185305 124.26684 -4.2582541 2.25
-18.204767 124.5964 -4.2837591 2.1052632
-18.21369 125.02613 -4.3069291 4
-18.186504 125.35893 -4.3097005 2.2380953
-18.238909 125.75847 -4.2800002 2.3636363
-18.236717 126.23639 -4.3192868 2.8333333
-18.225321 126.63136 -4.3227 2
-18.184071 127.11479 -4.3696818 3
-18.176285 127.39466 -4.3274579 2.2222223
-18.266798 127.71591 -4.2882872 3.6666667
-18.154911 128.1386 -4.3598399 2.909091
-18.097574 128.67699 -4.3344836 3.3333333
-18.231312 128.91684 -4.2959723 3.5
-18.251825 129.46602 -4.2725596 2.8
-18.152645 129.71776 -4.3212953 4.3333335
-18.18968 130.62909 -4.3075943 3
-18.147137 131.11118 -4.3090072 1.5
-18.248987 131.42201 -4.3186445 3.3333333
-18.121471 131.86545 -4.3356147 1.6666666
-18.030582 132.00371 -4.3230734 2
-18.140255 132.54457 -4.3511658 3.3333333
-18.207724 133.00768 -4.3766112 3
-18.272285 133.30827 -4.3829446 2
-18.220531 133.89111 -4.3649998 2
-18.208076 134.06821 -4.3877897 3
-18.048008 134.82162 -4.388803 2
-18.176241 121.17341 -0.020770106 10.554874
-18.1229 121.22504 -0.11837053 9.0498333
-18.212502 120.21163 0.22283313 13.109605
-18.222404 120.62424 0.13445838 13.10805
-18.200148 121.04875 0.18800485 12.414454
-18.155573 121.26984 0.18196185 11.750719
-18.331306 120.5126 0.67989218 13.1755
-18.192125 121.0443 0.55596149 13.187833
-18.357441 120.52894 0.82541609 14.177999
-18.137804 121.04584 0.92824584 14.295666
-18.182421 121.25494 1.1047144 13.780167
-18.07638 120.32905 1.4184086 14.0885
-18.004681 120.60616 1.3452858 15.0875
-18.153261 121.19666 4.300704 14.1785
-18.136393 121.26128 5.0773664 14.1649
-18.123884 121.28335 5.4325271 13.1095
-17.674999 140.24138 -4.8030314 5
-17.608067 141.4319 -4.8326025 5
-17.906298 141.86989 -4.8213162 4.5
-17.91832 142.56926 -4.8172226 3.5
-17.871202 143.11458 -4.8122582 2
-17.77459 143.4454 -4.8099194 2.5714285
-17.822973 143.81543 -4.8167853 1.8461539
-17.836075 144.21887 -4.8259835 2.5
-17.729013 144.67458 -4.8414283 3.5
-17.725374 145.01291 -4.8405266 1.9
-17.847469 145.37798 -4.8534317 1.8666667
-17.828011 145.78467 -4.8572316 3.2
-17.758041 146.23288 -4.8689828 2.3636363
-17.801554 146.62628 -4.867794 2.7272727
-17.821749 147.04869 -4.8742933 3
-17.743273 147.35269 -4.8950353 2.909091
-17.776127 147.81757 -4.8935595 3.6428571
-17.822165 148.28615 -4.9039016 3.090909
-17.856743 148.59967 -4.9026518 2.4615386
-17.789431 149.047 -4.8970346 3.2666667
-17.764858 149.38005 -4.8980703 3
-17.802181 149.83731 -4.942678 2.8888888
-17.784233 123.83732 -4.4283223 6
-17.719921 125.73448 -4.4082999 5
-17.93857 126.97665 -4.4417458 5
-17.725216 127.3896 -4.4173994 3.1428571
-17.81753 127.72551 -4.4070086 2.75
-17.858952 128.26653 -4.4167666 1.8
-17.763933 128.57385 -4.4249029 1.3333334
-17.824242 128.9472 -4.4336681 4.6666665
-17.771107 129.47946 -4.4334531 1.4
-17.826431 129.82474 -4.4434576 3.0714285
-17.749439 130.3042 -4.4859767 3.4000001
-17.779633 130.61119 -4.4583507 2.2222223
-17.821579 130.99332 -4.453011 2.4285715
-17.79076 131.39931 -4.4843569 2.1111112
-17.748775 131.83064 -4.477294 2.8181818
-17.818623 132.24081 -4.5037546 2.7
-17.835411 132.55379 -4.4909225 2.7272727
-17.795208 132.99431 -4.5141525 3.25
-17.767174 133.35567 -4.5282059 1.625
-17.833353 133.75827 -4.5180788 3
-17.806976 134.19293 -4.5262289 2.2
-17.835684 134.59056 -4.5039697 2.7
-17.813044 135.0302 -4.5319033 2.7333333
-17.815933 135.38499 -4.5451469 2.1600001
-17.795614 135.86687 -4.5483255 3
-17.775923 136.24458 -4.5703197 2.8333333
-17.853889 136.54143 -4.6051435 1.7647059
-17.78706 136.98775 -4.6025505 2.6666667
-17.784235 137.43941 -4.6201429 3
-17.729414 137.73729 -4.6326213 2.3
-17.832455 138.25652 -4.6461158 2.7368422
-17.814178 138.61232 -4.6603832 2.5833333
-17.808662 138.98299 -4.663712 2.0588236
-17.785084 139.44025 -4.6782699 2.0769231
-17.866261 139.83325 -4.701736 3.125
-17.7887 140.15901 -4.6745987 2.4615386
-17.790989 140.59735 -4.7304616 2.2105262
-17.841999 140.94931 -4.7078037 2.5238094
-17.808348 141.40608 -4.7506313 1.25
-17.766619 141.7711 -4.7187963 2.3888888
-17.791363 142.21199 -4.7454662 1.8421053
-17.836782 142.57167 -4.7527156 2.0526316
-17.838783 143.02319 -4.7439194 2.5
-17.859901 143.35916 -4.7464361 2.6363637
-17.793467 143.85989 -4.7188458 2.8
-17.792305 144.21561 -4.7277875 2.625
-17.870813 144.62929 -4.7404404 3.6666667
-17.767212 144.97749 -4.7557421 3.5
-17.848358 145.46591 -4.7570643 3.25
-17.837147 145.82983 -4.7668052 2.3333333
-17.871361 146.31113 -4.7664475 0.66666669
-17.79146 146.54666 -4.7849212 2.3333333
-17.793663 147.01576 -4.785213 1.3333334
-17.825254 147.28255 -4.7824402 2.25
-17.763962 147.89836 -4.7877755 3
-17.787586 120.25355 -4.1804304 2.7857144
-17.779434 120.55914 -4.2403274 4
-17.811079 120.98775 -4.1807723 1.7
-17.807028 121.37878 -4.2378278 3
-17.783957 121.79077 -4.2180929 2.8181818
-17.823383 122.19849 -4.2478752 2.0526316
-17.792589 122.71937 -4.1874728 3.25
-17.835266 123.01996 -4.2318683 2.875
-17.779295 123.40189 -4.2292342 2.9444444
-17.840057 123.72023 -4.2976942 2.6428571
-17.75005 124.24143 -4.2671475 2.2142856
-17.754423 124.56995 -4.2885418 2.0625
-17.860857 125.0292 -4.2596092 3.3
-17.780825 125.4074 -4.2897649 2.8461537
-17.84337 125.75087 -4.2978425 2.4285715
-17.821821 126.22089 -4.2900982 3
-17.789433 126.59705 -4.3058405 2.125
-17.806183 127.10859 -4.3570738 2.2727273
-17.822256 127.38712 -4.3137555 1.7
-17.798174 127.76015 -4.3161836 3.1428571
-17.852186 128.16882 -4.3569055 2.1818182
-17.712751 128.6183 -4.2811251 4
-17.801907 129.03238 -4.287035 2.1428571
-17.805813 129.47078 -4.3109202 2.6666667
-17.827042 129.70367 -4.3105807 3.875
-17.812487 130.64651 -4.3063531 2.7142856
-17.850229 130.93985 -4.343338 4
-17.838913 131.36743 -4.3121772 2.7777777
-17.667641 131.68877 -4.3461332 3.6666667
-17.72151 132.09668 -4.3340611 1.5
-17.806608 132.61137 -4.3517437 2.8
-17.817656 132.86613 -4.3707414 3
-17.781498 133.38858 -4.3850751 2.6666667
-17.674835 133.80269 -4.3583174 2
-17.819962 134.22296 -4.3886676 3
-17.860769 121.19123 -0.018053999 10.071
-17.808374 121.29012 -0.11451016 9.5307503
-17.784576 134.73235 -0.13058032 9.1459999
-17.802509 120.19561 0.18594795 12.977891
-17.797405 120.64867 0.23151621 12.800625
-17.783558 121.09783 0.16953668 12.656939
-17.762821 121.32447 0.18990365 11.554498
-17.789253 121.18855 0.60775626 14
-17.659374 121.36541 0.5912559 12.462671
-17.78797 120.71174 1.1687216 13.072
-17.703438 121.19988 0.93016839 14.0785
-17.662838 121.37491 1.0037451 12.553384
-17.95116 120.18253 1.2665921 13.0715
-17.847967 120.62922 1.3837544 14.701901
-17.606281 121.16949 1.5115014 15
-17.651712 121.40714 1.3909297 12.892858
-17.647081 121.42426 1.7988219 13.793103
-17.641342 121.41712 2.2014315 13.792423
-17.65856 121.43127 2.5555806 13.757906
-17.646606 121.44174 2.9999022 14.455834
-17.629913 121.44051 3.3258183 14.135
-17.699024 121.45472 3.8975208 14.5
-17.661911 121.39638 4.2547178 13.7425
-17.634558 121.4443 4.4774466 14.049
-17.792299 121.41283 5.0628963 13.83605
-17.861265 121.66624 5.1854196 14
-17.819633 121.35736 5.2716546 15
-17.367781 126.48469 -4.9316578 6
-17.220942 140.29918 -4.8089676 5
-17.366621 141.09592 -4.8260078 5
-17.464399 141.2168 -4.8009496 5
-17.527967 141.99475 -4.8016019 4
-17.312796 142.14145 -4.8013945 2.6666667
-17.5145 142.74661 -4.8282938 5
-17.346603 143.05164 -4.8090057 2.2
-17.460756 143.31235 -4.8026409 2.25
-17.399683 143.77249 -4.8137312 2.3636363
-17.474678 144.14261 -4.8308077 2.5555556
-17.378519 144.58397 -4.8477659 2
-17.371082 144.97124 -4.8407774 2.1111112
-17.403219 145.44257 -4.8442965 3.2
-17.414141 145.7276 -4.844018 4
-17.405733 146.25841 -4.874218 2.0999999
-17.373114 146.57329 -4.8694606 2.9000001
-17.415279 146.96265 -4.8617363 4.4000001
-17.361511 147.37491 -4.8949113 2.625
-17.38855 147.80098 -4.8949203 2.6875
-17.424706 148.16551 -4.8740149 2.9000001
-17.47682 148.56702 -4.8929334 2.8
-17.377262 149.02597 -4.9069529 3.3157895
-17.352579 149.38351 -4.9157991 3.5
-17.393476 149.80502 -4.9614086 2.4615386
-17.546921 124.33723 -4.4377885 6
-17.337254 124.84599 -4.4461637 6
-17.266603 126.1914 -4.4161534 5
-17.402756 127.52888 -4.4157238 1.5
-17.40764 127.77347 -4.4138265 2.8571429
-17.388264 128.21973 -4.4151163 2.5
-17.362803 128.62219 -4.4240608 1.2222222
-17.432955 128.97234 -4.4359293 4.125
-17.39019 129.44818 -4.4310613 1.7
-17.427132 129.81325 -4.4362845 2.9473684
-17.398064 130.30515 -4.4564958 1.75
-17.419357 130.65718 -4.4673066 2.8181818
-17.418642 130.95976 -4.466753 3.1176472
-17.408497 131.37978 -4.4817472 2.5
-17.358706 131.86769 -4.4768691 2
-17.411469 132.20804 -4.5009861 2.4000001
-17.416124 132.57857 -4.4733877 3.2
-17.344728 133.01038 -4.5094762 3.625
-17.392069 133.41161 -4.5286574 1.9166666
-17.385702 133.75716 -4.5417933 2.4666667
-17.406593 134.21194 -4.5096374 2.2
-17.429897 134.60432 -4.5093765 2.8
-17.417198 135.05582 -4.513905 3.0714285
-17.405392 135.37717 -4.5539889 1.95
-17.476357 135.82388 -4.5564928 3.4444444
-17.360989 136.22189 -4.5741768 3.125
-17.366802 136.63727 -4.6135011 2.3913043
-17.394531 137.07193 -4.5993781 2.6666667
-17.402578 137.3967 -4.6140051 2.9411764
-17.379517 137.80139 -4.6284137 2.3571429
-17.425505 138.21828 -4.6510963 2.4761906
-17.377478 138.59029 -4.6440401 2.5555556
-17.399639 138.97319 -4.6505399 2.1666667
-17.36063 139.40082 -4.6841111 2.3333333
-17.424633 139.78931 -4.7041192 2.4347825
-17.392601 140.18042 -4.7060785 1.5454545
-17.431355 140.55013 -4.6991735 2.5333333
-17.420351 140.97726 -4.7153306 2.6800001
-17.402491 141.35849 -4.7271576 1.8571428
-17.422108 141.82661 -4.7214861 2.625
-17.421055 142.20927 -4.7326179 1.7222222
-17.302246 142.56339 -4.7218227 3.5
-17.436369 143.00206 -4.7352233 2.4000001
-17.399687 143.41302 -4.7133236 2.4444444
-17.430128 143.78448 -4.694356 2.25
-17.393494 144.20464 -4.7127581 2.75
-17.234869 144.4136 -4.7256904 0
-17.355957 144.99339 -4.7275648 1.875
-17.492481 145.50443 -4.7520051 3
-17.397049 145.74582 -4.7633028 3
-17.336599 146.24564 -4.7591586 1
-17.38962 146.57495 -4.7784319 2
-17.332546 147.09396 -4.7869987 1.5
-17.480303 147.3497 -4.7881999 2.5
-17.269043 148.09108 -4.7914972 3
-17.398457 120.14126 -4.2044721 3.3333333
-17.392372 120.55334 -4.1689458 2.090909
-17.399132 121.01807 -4.1995549 1.9473684
-17.377163 121.40582 -4.1949949 2.7
-17.451153 121.80997 -4.2033553 3.0769231
-17.407839 122.18969 -4.2434087 2.2272727
-17.368567 122.70579 -4.192996 2.4705882
-17.47374 123.07077 -4.2370811 3.2222223
-17.395647 123.42098 -4.2260361 2.1500001
-17.40251 123.78008 -4.3102102 2.909091
-17.334471 124.25837 -4.2735434 2.7272727
-17.355717 124.56541 -4.2785101 2
-17.419386 124.98003 -4.2761002 2.9000001
-17.392447 125.37888 -4.2950258 2.7272727
-17.430544 125.74426 -4.2918782 1.3636364
-17.415882 126.19698 -4.3009272 3.2
-17.401638 126.55923 -4.3092299 1.6842105
-17.430456 127.07793 -4.303493 2.2307692
-17.361406 127.42933 -4.3111014 2
-17.386402 127.82975 -4.3131475 3.2857144
-17.435604 128.18683 -4.3531823 2.6666667
-17.461813 128.64296 -4.2874827 2
-17.422102 128.91586 -4.2772508 2.6666667
-17.410833 129.45883 -4.3169494 3.5
-17.413242 129.70955 -4.2855558 3.8
-17.478397 130.00645 -4.2766285 1
-17.404249 130.65681 -4.3018384 2
-17.416105 131.05473 -4.3245549 3.3333333
-17.438313 131.43219 -4.3094487 3
-17.374508 131.73814 -4.3157048 2.5
-17.370869 132.25589 -4.3335228 1.5
-17.428091 132.58763 -4.352047 3.4000001
-17.404919 132.85744 -4.3622646 2.75
-17.432125 133.42372 -4.3833084 2.8
-17.257156 133.7079 -4.3651886 2.5
-17.339991 134.39824 -4.3900928 3
-17.408463 134.76346 -4.3819199 2
-17.410477 121.36448 -0.049500223 9.7670717
-17.433668 120.17498 0.18340738 13.101945
-17.404383 120.63876 0.18295404 13.832864
-17.400467 121.08222 0.2069051 12.794826
-17.384222 121.37242 0.15758303 11.711888
-17.289669 121.73345 0.17431439 11.0995
-17.518866 121.14597 0.52602458 13.381339
-17.530895 121.35323 0.65562916 12.233942
-17.440783 121.14331 1.06429 13.932728
-17.465105 121.39079 1.021301 12.731147
-17.556297 121.17799 1.5087072 15
-17.539042 121.39255 1.3622617 13.017406
-17.505465 121.17236 1.787858 15
-17.534861 121.39053 1.7887893 12.918568
-17.536942 121.39957 2.2502246 12.8
-17.528713 121.3806 2.5994241 13.276301
-17.529179 121.38042 2.9637456 12.888643
-17.547237 121.40509 3.4740212 13.888889
-17.519527 121.41582 3.8160925 14.003917
-17.422365 121.39592 4.2315111 14
-17.527031 121.38837 4.659184 14.349889
-17.435503 121.4693 4.9714971 14.246424
-17.245571 121.49943 5.3574862 13.11
-16.992151 140.59882 -4.816237 5
-17.028114 141.2346 -4.8026104 5
-16.901794 142.01776 -4.8008904 4
-17.094357 142.7029 -4.8156867 3.5
-16.953762 142.8965 -4.8092122 1.25
-16.986134 143.44547 -4.805337 2
-16.986235 143.83716 -4.8155394 1
-16.974529 144.28851 -4.8478045 3.875
-16.981993 144.67036 -4.8318796 1.4285715
-16.991234 145.05772 -4.8355837 3
-16.988155 145.38979 -4.8510504 2.8571429
-17.009092 145.71835 -4.8420529 3.1666667
-17.00156 146.13287 -4.8573112 3.4285715
-16.980524 146.52188 -4.8549981 3.25
-16.951376 147.03505 -4.8584671 3.875
-16.998051 147.49785 -4.8901758 2.0999999
-16.989729 147.79279 -4.9279733 3.75
-17.037289 148.19336 -4.8651843 3.0833333
-17.073212 148.60258 -4.9075227 2.5833333
-17.009068 149.04395 -4.9043546 3.4705882
-16.950579 149.47 -4.898972 1.8
-16.995522 149.79814 -4.9564643 2
-16.920435 126.52497 -4.4241138 5
-16.947336 127.4006 -4.4039068 2
-17.009069 127.87478 -4.4177189 2.2857144
-17.04734 128.24597 -4.4224572 2.8333333
-16.934038 128.57092 -4.4225197 2.6666667
-16.957607 128.91943 -4.4418516 4.3333335
-16.948988 129.40694 -4.4347281 2.1111112
-17.035873 129.78209 -4.4295683 2.3913043
-16.993433 130.26398 -4.4595385 2.6666667
-17.036964 130.62125 -4.4648862 2.4705882
-17.01531 130.97209 -4.4506693 2.3
-17.009537 131.36948 -4.4841619 2.5833333
-16.899246 131.83389 -4.4785566 2.2727273
-17.018139 132.18329 -4.5026569 3.2857144
-16.98008 132.59996 -4.4914961 3.2352941
-16.956499 133.01883 -4.5283618 2.5999999
-16.990524 133.4563 -4.5105081 2.875
-17.025835 133.80896 -4.5359817 3.2857144
-17.005093 134.20914 -4.491538 2.4545455
-16.968985 134.52945 -4.5451393 2.3333333
-16.991102 135.05223 -4.5248365 3.3888888
-17.023512 135.37885 -4.5404263 2.0999999
-16.996704 135.83977 -4.5593543 3.0999999
-17.011314 136.26115 -4.5726099 2.6923077
-17.029028 136.55188 -4.6019726 2.2307692
-17.023552 137.05185 -4.6066937 2.9230769
-17.015104 137.36629 -4.6122556 2.9523809
-17.028013 137.85626 -4.640326 3.5
-17.002079 138.16776 -4.6287832 2.0666666
-17.007738 138.5666 -4.6348653 2.6923077
-16.99367 138.97705 -4.6344633 3.2727273
-16.94887 139.39185 -4.6794662 2.1764705
-17.017294 139.80928 -4.7056971 2.4285715
-16.987673 140.2218 -4.6786675 2.6428571
-16.995558 140.62135 -4.6724315 3
-16.985779 141.0262 -4.7232747 2.2272727
-16.979315 141.36151 -4.6953716 1.6666666
-16.992844 141.81171 -4.7147532 2.8888888
-17.001591 142.19817 -4.7318592 2.25
-16.937172 142.6366 -4.733871 2.0999999
-16.965067 143.04042 -4.7185545 2.7857144
-17.095711 143.38994 -4.6948881 3.1428571
-17.047188 143.82524 -4.7074084 2.6666667
-17.005737 144.24564 -4.7251406 3
-16.896288 144.50641 -4.755444 4
-16.960302 145.02504 -4.7352266 2.5714285
-17.010021 145.42107 -4.7540736 3.8
-17.038849 145.74571 -4.7589364 3.4000001
-16.888878 146.2796 -4.7545266 0.5
-16.992401 146.61122 -4.7730556 2
-16.930756 147.17094 -4.7830071 1.5
-16.99979 147.44617 -4.7875776 2.2
-16.952509 147.64764 -4.7739749 3
-17.060225 120.18393 -4.192359 3.1666667
-17.036097 120.53852 -4.1450543 2.875
-16.9771 121.04582 -4.1851068 1.2105263
-17.017256 121.39632 -4.1966877 2.8888888
-16.999063 121.8214 -4.239552 3.3333333
-17.015882 122.17797 -4.2359538 2.1666667
-16.994509 122.66426 -4.1882119 3.2222223
-17.027035 123.01181 -4.2319617 2.8823528
-16.970249 123.40864 -4.2199721 2.3913043
-17.016512 123.78905 -4.2964644 1.7777778
-16.965929 124.25107 -4.2702837 2.8
-16.962008 124.57247 -4.2792869 2.9411764
-16.991634 124.97823 -4.2458882 2.5
-17.035065 125.37001 -4.2902627 2.4615386
-17.051603 125.76947 -4.3185616 2
-16.99081 126.20052 -4.3211713 2.875
-16.987558 126.56682 -4.3007874 1.6842105
-17.01685 127.07368 -4.3141985 2.5384614
-16.970613 127.45203 -4.2855682 2.0833333
-16.992224 127.78829 -4.3255467 3.3333333
-17.031492 128.20082 -4.3471694 2.4615386
-17.02652 128.66127 -4.2724028 2.4285715
-16.978931 128.9469 -4.2880526 3.4000001
-16.995148 129.39719 -4.3078718 3.4285715
-17.04118 129.78839 -4.2900748 3.7142856
-17.087978 130.17131 -4.2727818 1
-16.928928 130.54517 -4.2954092 2.75
-16.99654 130.99701 -4.3007593 2.2222223
-17.008673 131.40526 -4.3235564 4.4444447
-17.016388 131.7191 -4.3119793 2
-17.024605 132.38029 -4.347609 1
-16.995319 132.59207 -4.339221 2.5
-16.969395 133.05028 -4.36235 2.4000001
-17.109995 133.37956 -4.3857989 4
-16.9109 133.73116 -4.3665032 2
-17.047604 134.04819 -4.3989277 4
-16.939844 134.62593 -4.3841548 2.5
-17.043169 120.45619 -3.9889455 1
-17.041109 121.47451 -0.14065018 9.1372499
-17.001041 120.18439 0.17712444 12.5253
-17.015284 120.6259 0.20840983 13.769053
-17.011717 121.01505 0.201066 13.996657
-16.980694 121.3914 0.150611 12.243394
-16.977592 121.64049 0.25516567 11.739333
-17.003805 121.13394 0.65621001 13.916536
-16.985765 121.31555 0.48062271 13.853002
-17.053024 121.07623 0.87633687 14.087749
-16.975355 121.38321 1.022651 13.523318
-17.053329 121.61164 1.1422592 14.172
-16.895386 120.6795 1.3623151 14.420667
-16.881069 120.94324 1.5111178 14.141
-17.141895 121.50311 1.3846021 11.58625
-17.19392 121.46677 2.8985598 11
-16.814842 121.61067 3.9761634 12
-17.060413 121.55472 5.1050496 13.389834
-17.055891 121.66052 5.0474825 13.483285
-17.174032 121.58347 5.2126617 13.13
-17.087772 120.74781 12.286986 15.088
-16.760403 140.34497 -4.8144855 5
-16.591454 141.23685 -4.8034077 5
-16.618713 142.57616 -4.8034134 2
-16.793728 142.88713 -4.8114305 3
-16.591228 143.43048 -4.8194976 1.2857143
-16.661324 143.79716 -4.818459 1.2
-16.58013 144.23654 -4.8419204 3.4285715
-16.634291 144.5204 -4.8266935 1.5
-16.566221 145.01753 -4.8416672 2.1176472
-16.679661 145.41161 -4.8449531 2.4444444
-16.534306 145.79469 -4.8427544 3.2
-16.577139 146.19693 -4.8576875 2.7857144
-16.576017 146.43431 -4.807488 4
-16.531031 146.99934 -4.9033222 3.5
-16.565741 147.38272 -4.8998199 3.1818182
-16.61591 147.73422 -4.906867 3.4545455
-16.602951 148.23502 -4.875598 3
-16.588501 148.60959 -4.892961 2.9333334
-16.639238 149.00722 -4.896502 2.75
-16.555542 149.39026 -4.8812895 2.5
-16.581568 149.73218 -4.9512525 2.8333333
-16.696932 126.74918 -4.4294791 5
-16.43408 126.97502 -4.4601836 5.5
-16.548914 127.35018 -4.4048343 2
-16.592468 127.85028 -4.4063082 2.6666667
-16.618532 128.22342 -4.4204669 1.8571428
-16.590578 128.65282 -4.4298906 2.7
-16.507057 129.07596 -4.4334579 3.6666667
-16.572962 129.32753 -4.430656 2.125
-16.641876 129.74934 -4.4291668 2.7272727
-16.66144 130.25755 -4.4591002 2.2857144
-16.567499 130.54994 -4.4636302 3.0588236
-16.637594 130.94783 -4.4580979 1.9230769
-16.560566 131.37505 -4.4855275 2.3333333
-16.632328 131.77643 -4.4857416 2.5
-16.620491 132.13408 -4.5005484 3.2307692
-16.600597 132.60606 -4.4824839 3
-16.567825 132.95799 -4.5253887 2.8
-16.587471 133.44034 -4.5140738 3.1333334
-16.64039 133.76747 -4.5413713 2.8
-16.628119 134.24399 -4.4999757 2.0714285
-16.612616 134.54866 -4.5193658 2.625
-16.624514 135.0627 -4.5148373 3.1764705
-16.612984 135.39397 -4.5602422 2
-16.626917 135.80495 -4.5649996 2.9000001
-16.605915 136.23013 -4.5540781 2.75
-16.603867 136.52823 -4.5948534 1.55
-16.565586 137.05095 -4.6119986 3.2
-16.599806 137.40506 -4.6100407 2.2380953
-16.580505 137.85013 -4.6638622 2.4375
-16.608675 138.14932 -4.60742 2.5
-16.627493 138.61871 -4.6399021 2.5789473
-16.574265 139.01328 -4.6707006 2.2
-16.597357 139.43417 -4.6786442 2.5
-16.59166 139.78456 -4.6898298 2.6111112
-16.588665 140.18683 -4.678391 2.3333333
-16.597172 140.61163 -4.6961994 2.6315789
-16.650982 140.99426 -4.7247353 2
-16.633436 141.38144 -4.7012115 2.0769231
-16.619122 141.8344 -4.7318511 2.8181818
-16.645748 142.12207 -4.7106819 2.2222223
-16.534649 142.60489 -4.7399402 1.8888888
-16.635454 143.00459 -4.7342777 2.625
-16.610367 143.41731 -4.7164879 3.0769231
-16.613386 143.7589 -4.7077436 1.8
-16.676733 144.21979 -4.7179809 2
-16.542278 144.48994 -4.7172956 2.25
-16.570498 145.04144 -4.7296796 2.4000001
-16.577946 145.33269 -4.7357626 1.6
-16.616716 145.84647 -4.7593093 3.3333333
-16.635088 146.61836 -4.7628908 1.6
-16.408632 146.81032 -4.781229 2
-16.537586 147.37598 -4.785234 1.5
-16.569695 147.81084 -4.7764778 3
-16.789646 148.31767 -4.7942858 3
-16.498541 148.44992 -4.7982659 3
-16.658461 120.20427 -4.1780252 3.5999999
-16.674742 120.55161 -4.1623163 3
-16.6098 120.97172 -4.1798506 1.6875
-16.586857 121.34077 -4.1620359 2.2
-16.633722 121.77544 -4.2182398 3.5384614
-16.656002 122.14412 -4.2304521 1.8636364
-16.591042 122.64014 -4.1839762 3
-16.609928 123.03548 -4.2270107 3.2857144
-16.551003 123.43397 -4.2086601 2.8
-16.579569 123.76653 -4.2783022 2.4000001
-16.563334 124.24329 -4.2445922 1.6153846
-16.573784 124.57114 -4.2713218 2.8
-16.622139 125.09009 -4.2396502 2.3571429
-16.62339 125.41128 -4.2973371 2.625
-16.682098 125.76344 -4.2625628 2.9000001
-16.572275 126.20773 -4.3034105 2.9545455
-16.576246 126.5812 -4.3020329 2.3333333
-16.634615 127.04593 -4.3357568 2.9375
-16.576651 127.35077 -4.2991152 2.5999999
-16.615538 127.72702 -4.3318877 2.1428571
-16.638258 128.22165 -4.3349314 2.8181818
-16.637157 128.6235 -4.2641034 1.8
-16.585369 129.02364 -4.2708583 2.8
-16.562296 129.43639 -4.2927465 2.25
-16.610006 129.81125 -4.284605 3.75
-16.721148 130.18135 -4.2741561 2
-16.520088 130.60966 -4.3134217 3.5
-16.576132 131.03748 -4.2994347 2.5714285
-16.551079 131.39612 -4.3076158 2.8333333
-16.61694 131.79926 -4.3101678 1.8333334
-16.509298 132.0854 -4.3311901 1.5
-16.602634 132.6143 -4.3438058 2.5714285
-16.559912 133.12329 -4.3666544 2.8
-16.688469 133.36884 -4.3833928 4.3333335
-16.590633 133.77357 -4.3769941 1.8
-16.579842 134.18398 -4.3984089 2
-16.636681 134.67456 -4.3828411 2.5
-16.493574 135.2617 -4.3998384 1
-16.665155 120.51933 -3.9872961 1
-16.643513 121.57166 -0.11114013 9.0991669
-16.544258 121.66024 -0.071412317 9.1505003
-16.610132 120.19675 0.20252346 12.739488
-16.582088 120.57531 0.18777514 12.77996
-16.594227 120.98425 0.21201953 12.7436
-16.577744 121.4667 0.14997871 12.179699
-16.621555 121.66451 0.15517904 10.870501
-16.572025 121.15247 0.60594344 13
-16.609354 121.36598 0.60964847 14.050284
-16.471119 121.67249 0.61001933 11.6525
-16.742769 121.09837 0.93463171 14.506599
-16.638725 121.48776 0.98516101 13.251057
-16.454903 121.65828 1.0554641 12.54325
-16.612257 120.71296 1.4563655 13.594501
-16.582853 120.99525 1.3619933 14.101206
-16.618658 121.36278 1.4639916 13.083333
-16.482588 121.82537 1.3490537 11
-16.771303 120.72146 1.610641 12.171
-16.666206 120.97675 1.757344 14.15147
-16.445658 121.6759 2.2385359 11.13225
-16.785959 121.58422 2.6947117 11
-16.501928 121.86264 2.5754678 12
-16.478073 121.82116 3.7440827 12.56625
-16.697311 121.46975 4.9530745 15.0705
-16.638325 121.75909 5.0547266 12.903001
-16.514917 121.71343 5.2896428 13.1105
-16.30533 140.33522 -4.8154979 5
-16.022507 140.67992 -4.8054285 5
-16.159544 141.21565 -4.8025546 5
-16.248074 142.67404 -4.8156447 3.75
-16.337696 143.15044 -4.8466101 6
-16.239622 143.27426 -4.818151 3.5
-16.189339 143.79549 -4.8185554 1.5
-16.195717 144.22081 -4.8320913 1.9285715
-16.274717 144.735 -4.8337617 2.8
-16.168613 144.97798 -4.8398032 2.4444444
-16.278954 145.47514 -4.8490424 2.8
-16.202953 145.81778 -4.8526521 3.4444444
-16.1696 146.21191 -4.8595023 2.6666667
-16.247707 146.69992 -4.8972182 3.3333333
-16.240278 147.02084 -4.8777232 2.6666667
-16.178944 147.44763 -4.9082584 3.4000001
-16.225924 147.81059 -4.900774 4
-16.146503 148.25699 -4.8815651 3.4285715
-16.256536 148.56447 -4.897366 2.875
-16.207268 149.01611 -4.8985515 3
-16.212355 149.40997 -4.900835 2.875
-16.246506 149.76012 -4.963779 2.25
-16.210897 127.18722 -4.402679 0
-16.236124 127.3703 -4.4243922 2.5
-16.129553 127.77701 -4.438735 4.3333335
-16.239599 128.25362 -4.4126401 2
-16.229193 128.55081 -4.4235759 2.4615386
-16.206532 129.01547 -4.4451237 3.5714285
-16.16563 129.46623 -4.4325404 2.375
-16.183937 129.74464 -4.4308023 1.6666666
-16.233828 130.22475 -4.4657741 3.6666667
-16.202177 130.67311 -4.4627252 2
-16.203547 130.96915 -4.4545622 2.1428571
-16.252026 131.32185 -4.4794445 3.5
-16.191679 131.81908 -4.4780483 2.7692308
-16.193892 132.12308 -4.4952879 2.0833333
-16.256502 132.6353 -4.5035281 3.8
-16.161877 132.97423 -4.5078506 3
-16.169409 133.44157 -4.5159926 2.8
-16.300087 133.82664 -4.5436988 3.4000001
-16.258759 134.22917 -4.5073709 2.1176472
-16.142265 134.60043 -4.576858 2.625
-16.236328 135.07814 -4.5129657 3.3125
-16.197723 135.40785 -4.5291033 1.5
-16.261988 135.8318 -4.5555463 3.2
-16.148344 136.21918 -4.5636449 3.1764705
-16.267433 136.54332 -4.5826087 2.3571429
-16.132746 137.04051 -4.6171622 2.625
-16.186211 137.38051 -4.585422 2.3
-16.169273 137.80644 -4.6361561 2.5
-16.179354 138.28021 -4.6031141 2.4166667
-16.187307 138.5937 -4.6332436 1.4615384
-16.191219 139.00194 -4.6673231 1.8461539
-16.201769 139.44339 -4.6782517 2.1578948
-16.181065 139.78932 -4.6717529 2.5714285
-16.217144 140.20747 -4.6830182 2.5999999
-16.185696 140.61839 -4.6887107 2.4117646
-16.229954 140.98105 -4.6987453 2.0952382
-16.218328 141.46837 -4.6930947 2.5999999
-16.182844 141.81662 -4.7364025 2.8
-16.196875 142.1933 -4.7226224 1.9615384
-16.228697 142.60336 -4.7379498 2.2727273
-16.260616 143.03717 -4.7356501 2.1538463
-16.245491 143.39699 -4.7108111 2.25
-16.202494 143.81197 -4.684577 1.5
-16.2153 144.2415 -4.7008896 3.125
-16.151932 144.57184 -4.7279739 3
-16.189129 145.1104 -4.7223239 2.25
-16.165514 145.4413 -4.7387028 2.3333333
-16.164425 145.85355 -4.7618008 3.5
-16.228937 146.16422 -4.753726 1
-16.238079 146.67232 -4.7630939 1
-16.161154 146.93994 -4.770339 2.6666667
-16.16157 147.44228 -4.7841725 1.75
-16.227425 147.75389 -4.7994494 4
-16.229904 148.12538 -4.7871833 2
-16.199297 120.2072 -4.1858096 3.4166667
-16.313381 120.57607 -4.1410551 2.8333333
-16.162878 120.9444 -4.1787887 1.4210526
-16.2195 121.35239 -4.1859508 2.4545455
-16.190285 121.82162 -4.2281871 3.1764705
-16.250696 122.21238 -4.1993041 2.1500001
-16.22595 122.61969 -4.1967726 3.4666667
-16.207003 123.0496 -4.2392898 3.0689654
-16.16778 123.46447 -4.2456799 2.6111112
-16.185959 123.79653 -4.213202 2.75
-16.123009 124.23167 -4.2526774 1.5333333
-16.164841 124.5606 -4.2633247 2.8
-16.180317 125.00534 -4.2500925 3.3333333
-16.208662 125.40622 -4.28477 2.5
-16.168152 125.79993 -4.2684789 3.7142856
-16.187492 126.24055 -4.3021688 2.5294118
-16.187269 126.56416 -4.2948332 2.375
-16.182373 126.98205 -4.3197412 2.5
-16.155649 127.32908 -4.2983241 2.1818182
-16.163273 127.80093 -4.3247504 1.6
-16.154253 128.13797 -4.2527013 2.8
-16.228743 128.59692 -4.2544842 1.8571428
-16.172401 129.02678 -4.2747478 2.4000001
-16.215088 129.38324 -4.2978134 4.25
-16.230173 129.77182 -4.2854514 2.8
-16.256124 130.11111 -4.265995 2.5
-16.135963 130.55559 -4.3013377 3
-16.158058 131.03618 -4.2992377 2.375
-16.108833 131.46507 -4.288569 2.25
-16.167473 131.77074 -4.3143444 1.4
-16.194578 132.14273 -4.3232346 1.5
-16.194942 132.63844 -4.3415008 2.375
-16.265434 133.11781 -4.3596101 1
-16.224213 133.33356 -4.3746591 2.8
-16.185898 133.81343 -4.3711019 1.75
-16.222994 134.21628 -4.3963819 1.6666666
-16.286488 134.73415 -4.3824553 2.5
-16.078058 135.27164 -4.3983216 1
-16.379019 120.53812 -3.9817667 1
-16.148056 132.83981 -1.8472843 8.1455002
-16.23049 121.67318 -0.1243595 9.0688753
-16.247406 120.21243 0.17511213 12.73
-16.160282 120.62572 0.16275153 13.818115
-16.152687 120.96967 0.1799719 12.925624
-16.222094 121.44946 0.1622477 12.63078
-16.183252 121.72353 0.19715653 11.573058
-16.177311 121.49447 0.56616336 13.840064
-16.242945 121.74441 0.60732394 12.153319
-16.326763 121.18183 0.90436417 15.0905
-16.194029 121.48822 0.97761154 14.344023
-16.252363 121.74651 1.006986 12.81254
-16.328438 120.79437 1.3009009 14.0915
-16.186581 121.56905 1.3157154 14.5
-16.253649 121.78074 1.3922491 13.035206
-16.156328 121.5695 1.7677565 14.674556
-16.256456 121.78108 1.7434525 13.276114
-16.248234 121.78501 2.2107451 13.554529
-16.228882 121.78799 2.586014 13.680061
-16.257689 121.79115 2.9565833 14.507149
-16.221869 121.78587 3.4340181 14.025153
-16.199614 131.55621 3.2874153 11.1475
-16.199972 121.77854 3.770884 13.942867
-16.183662 121.80012 4.2487273 14.8002
-16.210203 121.81812 4.672493 14.525167
-16.218994 121.77683 5.0534167 13.6964
-16.21196 122.04948 5.0309062 14
-16.302666 120.20728 12.27938 15.0875
-15.643717 141.36702 -4.8151712 5
-15.762198 142.60594 -4.8133526 3
-15.775117 143.1161 -4.8335376 3
-15.703161 143.52702 -4.8169813 2.5999999
-15.834476 143.75266 -4.8155284 2
-15.769337 144.19228 -4.8196611 3.5999999
-15.802194 144.64172 -4.8326917 2.5833333
-15.798944 144.9185 -4.8382449 1.7142857
-15.773779 145.41676 -4.863687 2.625
-15.855084 145.77899 -4.8656249 4
-15.743984 146.17953 -4.8617053 2.5999999
-15.825518 146.65373 -4.8594956 2.4285715
-15.84527 147.03194 -4.8681407 2.6666667
-15.819725 147.41229 -4.8955436 3.6428571
-15.849302 147.81262 -4.8785005 3
-15.792916 148.25079 -4.9134431 3.0555556
-15.836074 148.63542 -4.923727 3.1428571
-15.818247 148.99332 -4.9064145 3.1538463
-15.786648 149.41019 -4.8986239 2.8333333
-15.771878 149.75462 -4.9310617 2.7058823
-15.770523 127.69012 -4.4214358 2.6666667
-15.846095 128.24014 -4.4133587 1.8
-15.805056 128.71205 -4.4251399 2.2857144
-15.826846 129.10092 -4.4436536 3.75
-15.757359 129.46591 -4.4415474 2.5999999
-15.779502 129.78938 -4.4372177 1.8181819
-15.810412 130.0835 -4.4283595 3.5454545
-15.78634 130.62912 -4.458015 2.7727273
-15.750793 130.95779 -4.4624372 1.75
-15.804489 131.32088 -4.4735112 3.1111112
-15.829627 131.78719 -4.4808359 3.2222223
-15.733719 132.15282 -4.5058079 2.7
-15.795093 132.58374 -4.4907689 3.1818182
-15.790015 132.94571 -4.4983354 2.3
-15.814314 133.46375 -4.5246615 3.5
-15.811201 133.77454 -4.5291686 2.909091
-15.845282 134.24347 -4.488699 2.4117646
-15.770952 134.55243 -4.5358195 2.1428571
-15.788947 134.96869 -4.5633445 3.3333333
-15.818685 135.3315 -4.5320125 2.2857144
-15.798685 135.78702 -4.540751 2.8333333
-15.782675 136.2399 -4.5549922 3.1333334
-15.833669 136.55016 -4.5591116 1.8235294
-15.789607 137.02539 -4.5994296 3.1818182
-15.792839 137.3855 -4.5692067 2.6428571
-15.792006 137.80615 -4.651372 2
-15.743376 138.23856 -4.6525536 2.0666666
-15.781142 138.60252 -4.6423054 2
-15.783689 138.99928 -4.6574225 2.3043478
-15.846646 139.44217 -4.6633124 1.7857143
-15.784149 139.81462 -4.6914387 2.0625
-15.835299 140.19011 -4.7141495 2.1333334
-15.770475 140.62614 -4.6900129 2.5
-15.810266 140.979 -4.7105579 1.92
-15.811531 141.44762 -4.6947527 2.3846154
-15.84643 141.81189 -4.7403169 2.25
-15.781606 142.18344 -4.7293243 1.9285715
-15.818513 142.55763 -4.7318711 1.9333333
-15.799376 143.07535 -4.7594266 2.25
-15.845284 143.34613 -4.6919208 2.8888888
-15.833755 143.7578 -4.6775913 1
-15.803412 144.19632 -4.7006636 2.3333333
-15.841357 144.54256 -4.7048979 2.75
-15.73492 145.1068 -4.7404199 3.25
-15.854249 145.30374 -4.7201719 1.3333334
-15.788662 145.75951 -4.7560682 3.4444444
-15.961814 146.12589 -4.7309084 1
-15.848055 146.67842 -4.7574821 0.66666669
-15.803681 146.95396 -4.7791424 2.8
-15.762575 147.44957 -4.7819915 1.875
-15.783052 147.74554 -4.793376 2.6666667
-15.894198 148.24229 -4.7904215 2
-15.848553 120.20918 -4.1965737 3.3684211
-15.793516 120.53746 -4.1252904 2.8461537
-15.777396 121.02646 -4.1703134 1.7142857
-15.819058 121.342 -4.1594691 2
-15.768292 121.82359 -4.2269392 3.4615386
-15.820403 122.20827 -4.2059789 1.5
