# .PCD v0.7 - Point Cloud Data file format
VERSION 0.7
FIELDS x y z intensity
SIZE 4 4 4 4
TYPE F F F F
COUNT 1 1 1 1
WIDTH 1207
HEIGHT 1
VIEWPOINT 0 0 0 1 0 0 0
POINTS 1207
DATA ascii
-27.086458 69.455696 -2.5448067 5
-26.980721 69.90612 -2.6194746 4
-26.952848 70.586838 -2.6256273 4
-26.971636 70.986443 -2.4481561 5.75
-26.804682 71.379425 -2.5026429 6
-27.131626 71.854057 -2.5533326 5
-27.086569 72.248886 -2.5572879 5.3333335
-26.998365 72.611977 -2.5134025 5.6666665
-26.864672 73.040497 -2.5449889 5.6666665
-26.928339 73.474991 -2.5724618 5
-26.953337 73.752792 -2.4877913 5.5
-26.932056 74.057884 -2.5191729 5
-26.870268 74.531837 -2.4936383 5.75
-27.182816 75.364067 -2.6808727 5
-27.008442 76.282822 -2.6989293 6
-27.089262 76.491211 -2.5721684 6.3333335
-26.991018 76.801056 -2.6457608 7
-27.112234 77.563957 -2.6404607 5
-26.993988 77.90403 -2.524488 5
-26.942513 78.949471 -2.6402123 6.5
-26.933426 81.398514 -2.6734576 6.2857141
-26.993675 81.802368 -2.6805851 4.3333335
-27.027651 83.018837 -2.6772063 5
-26.919617 83.937622 -2.7211483 6
-27.160709 84.134377 -2.5414453 4
-26.978943 84.587173 -2.7290502 8.0885
-27.071234 85.917442 -2.6581464 3
-26.899508 86.157913 -2.6260543 3.6875
-26.846895 86.652901 -2.6682255 6
-27.040112 87.174225 -2.6727648 5
-27.001009 87.389641 -2.4886932 8.0959997
-26.968477 60.166378 -2.3938997 5
-27.174446 61.768368 -2.3740854 5
-26.986876 62.170124 -2.3815312 5
-26.835258 62.585308 -2.3872929 5
-27.128647 63.655964 -2.3666346 7
-26.856768 66.121643 -2.294076 5
-26.976244 66.9842 -2.2830758 6.3659997
-27.057411 67.334633 -2.275861 5.7142859
-27.011583 67.788155 -2.3107238 5
-27.186651 68.189674 -2.199594 5.5
-27.051018 68.78051 -2.2940736 5
-26.966312 69.131355 -2.2558398 6.6666665
-27.085739 69.374474 -2.3414249 5
-26.836157 69.976326 -2.1571901 6.3333335
-26.823784 70.313736 -2.2736814 5
-27.012421 70.606178 -2.2685244 5.181818
-27.056381 71.034355 -2.2923284 5.4285712
-26.970982 71.37178 -2.2108614 6
-26.884361 71.643623 -2.2871425 7
-26.819645 76.459442 -2.3558171 6
-26.979483 84.296585 -2.206728 5.5
-26.855112 86.241425 -2.1821802 5.7857141
-26.864267 86.651985 -2.0928361 7
-27.153278 66.55526 -1.7555839 6
-27.133144 67.026352 -1.8416054 8.1025
-26.844374 69.132309 -1.9706365 6
-26.917477 70.706055 -1.8861818 6
-27.009047 71.034538 -1.8394178 6.2727275
-26.994902 71.369553 -1.8147086 6.439786
-26.870071 71.670128 -1.8403041 6
-26.888851 84.62397 -1.7510505 7.4008217
-26.889978 86.170792 -1.7232982 7.6723928
-26.814127 86.666763 -1.6851853 7
-26.828159 66.901863 -1.2319547 7
-27.067738 67.618904 -1.4018236 8.0839996
-26.804279 70.902596 -1.4450761 7
-26.946112 71.373413 -1.4017184 7.3642497
-26.804928 84.817764 -1.4971025 9.1429996
-26.874029 86.14257 -1.4406068 8.5660906
-26.984444 86.707672 -1.3248017 8.0562859
-27.134804 86.958992 -1.4115053 9.3396873
-27.06027 87.231339 -1.4743819 8.0432501
-27.012939 66.714134 -0.94142473 8.1231661
-26.858841 66.922356 -1.0338843 7.7134995
-26.935642 67.501221 -0.93449241 8.1215
-26.914991 67.718697 -0.99524158 8.1027222
-26.932312 70.670273 -0.89869064 8.085
-27.043449 71.042252 -0.84508151 8.1025
-26.965864 71.522621 -1.0890577 8.0859995
-26.836821 71.633873 -1.1891611 8.0939999
-26.916637 86.166229 -0.95532978 10.201408
-26.963959 86.664497 -1.0022258 9.8276253
-27.043865 86.954773 -1.0188646 10.336812
-26.993168 87.361511 -0.927064 8
-26.990557 66.287918 -0.55334347 8.3998127
-27.037939 66.643799 -0.59540433 8.3783331
-26.882694 67.00824 -0.67502826 8.1043329
-26.899105 67.288727 -0.60641468 8.4873743
-26.953407 67.818047 -0.7099176 8.2264996
-26.937197 68.162529 -0.75359118 8.0790005
-27.15671 69.753227 -0.50682509 8.1014996
-27.104284 70.097511 -0.44286713 9.1394997
-26.849413 70.505981 -0.63385755 9.1280003
-26.905815 81.015396 -0.46217984 8
-26.923979 81.409401 -0.50533599 10.1248
-26.990734 81.796227 -0.41716781 9.8181658
-26.952738 84.798347 -0.50158244 12.111
-26.831039 85.905487 -0.51310503 9.4673338
-26.959585 86.262474 -0.5888471 11.406871
-26.984394 86.514404 -0.56844467 11.378204
-26.998041 87.011292 -0.61361462 10.125978
-27.009729 87.353989 -0.56450927 10.163007
-27.036823 87.770172 -0.50025189 9.947875
-27.048609 88.214882 -0.52090341 10.564569
-27.178106 88.659149 -0.42815125 9.0823755
-26.931927 88.94043 -0.79890877 8.1289997
-27.079195 65.941841 -0.03152483 9.1604996
-27.085226 66.141319 -0.16842049 9.0311937
-26.893772 66.602684 -0.16178611 9.0797005
-26.96176 66.986549 -0.23214698 9.0127277
-26.956787 67.314293 -0.17359345 8.684
-26.949383 67.824051 -0.064577527 9.1090002
-27.021791 68.209137 -0.14041872 9.2006111
-27.03335 68.451164 -0.079774909 9.0909996
-27.162083 69.059052 -0.011443951 9.1599998
-27.183304 69.562622 -0.061803915 9.158
-27.069927 69.841995 -0.25486049 8.7949171
-27.012117 70.165367 -0.1611674 8.9697504
-27.095478 70.652206 -0.30355686 9.1087494
-27.037241 70.997246 -0.20523259 8.5876245
-26.919327 71.965424 -0.22365054 9.08675
-26.937141 72.28669 -0.01776021 10.1415
-27.028549 73.572128 -0.0034378653 9.1005001
-27.190348 74.027939 -0.016051307 9.1029997
-27.027737 74.439743 -0.1816694 9.092
-27.129478 80.321793 -0.16434988 9.6582499
-26.934855 80.707138 -0.25096792 9.8210001
-27.029551 81.060471 -0.1825157 10.230125
-27.070307 81.354935 -0.23599471 9.5055504
-27.11297 81.776939 -0.17986768 10.670401
-27.098045 84.28009 -0.23608057 8.9134998
-27.181969 84.60775 -0.10989857 10.1645
-26.923841 85.111443 -0.31372008 11.10525
-27.029299 85.700241 -0.1152231 9.1630001
-26.891928 86.252243 -0.23167603 11.722977
-26.86017 86.513313 -0.23995569 12.2665
-26.969448 87.122444 -0.18721308 11.5818
-27.031361 87.430397 -0.26988038 10.57974
-26.991209 87.7342 -0.20762083 11.613281
-27.047649 88.217911 -0.25496653 10.137456
-26.970663 88.540581 -0.23336148 11.356474
-27.01199 88.920441 -0.17477968 8.5405006
-26.824884 89.304619 -0.26324919 10.4725
-26.98407 65.862488 0.17418143 9.6966677
-27.066368 66.114403 0.25737879 9.7262497
-26.990614 66.519188 0.21502656 10.142083
-26.99395 67.10025 0.087421112 10.11975
-27.00795 67.322098 0.1329906 9.7466669
-27.06184 67.635315 0.32309225 10.1495
-26.888323 68.172989 0.21964209 9.8958006
-27.08522 68.543549 0.29985878 10.123334
-27.124794 69.197449 0.17965825 9.0909996
-27.197166 69.656845 0.042810597 9.1634998
-27.081579 70.203331 0.002575282 9.1599998
-26.953968 71.860626 0.26622847 9.3451252
-26.961435 72.185341 0.25478774 10.266583
-26.988745 72.541458 0.16647908 9.9007998
-26.850374 73.068932 0.38818306 10.607
-26.852957 73.419693 0.2587879 10.639999
-26.911524 73.824074 0.27376151 10.675038
-26.916292 74.096321 0.25251481 10.122999
-27.063705 80.317398 0.17201804 9.8799992
-27.032677 80.59758 0.16663128 10.091893
-27.124384 80.989052 0.21357174 11.272834
-27.137268 81.32782 0.14864439 10.1535
-26.999012 84.351662 0.23883826 11.961428
-27.066404 84.58493 0.30154267 12.042666
-27.014473 85.039879 0.068997271 12.470333
-27.008625 85.472229 0.26609659 12.790584
-27.037754 85.831474 0.22564594 13.261179
-26.954815 86.243347 0.15674116 13.359
-26.923183 87.048653 0.12737389 11.468374
-27.043491 87.405197 0.12898874 10.135797
-26.964273 87.752632 0.1803183 11.214846
-26.929951 88.206024 0.2391014 10.516371
-26.970953 88.504639 0.22579409 10.774513
-26.822653 89.119659 0.10398731 11.172
-27.024855 66.324883 0.44957107 9.7269993
-27.060293 66.620506 0.58886963 10.451089
-27.036501 66.940567 0.60508722 10.374291
-26.971312 67.365601 0.56639433 10.471384
-27.003588 67.782921 0.55958337 10.449779
-26.9657 68.198112 0.62197161 10.541651
-26.882139 68.492088 0.54996556 10.157
-26.967119 69.790405 0.6358766 8.1120005
-26.943159 71.583862 0.60650533 11.049
-26.88015 71.768112 0.59353483 11.071751
-27.005789 72.296341 0.51687068 10.616834
-26.973717 72.564766 0.55273056 10.748773
-26.968021 73.003525 0.54510766 10.660858
-26.971697 73.3946 0.56357217 10.247893
-26.944021 73.766342 0.54622614 10.723834
-26.906265 79.825256 0.655334 8.1709995
-26.83943 80.229958 0.70677477 11.648251
-26.865875 80.516525 0.71207392 10.03825
-27.052296 81.098175 0.66141605 10.3375
-27.041328 81.344971 0.6482296 10.6903
-27.019529 84.336304 0.45915851 10.1005
-26.915375 84.538742 0.42824492 14.089001
-26.9277 85.46962 0.437839 15.1545
-26.903164 85.833061 0.59644449 11.666715
-27.013651 86.177429 0.54408193 10.918999
-27.001415 86.529488 0.64416772 9.0666666
-26.932501 87.129723 0.47075185 11.394834
-26.930771 87.404343 0.5863595 11.473077
-27.047501 87.831802 0.54319638 11.209031
-26.980463 88.249237 0.46245703 10.003572
-27.069712 88.582016 0.56677383 11.302273
-27.003237 67.010025 0.90165114 11.032044
-27.046993 67.345352 0.96089369 10.654805
-27.060389 67.762947 0.97878122 10.369357
-26.922506 68.263817 0.93602914 11.065834
-26.811146 68.52021 0.93036139 11.423667
-27.160582 68.965744 0.91057968 9.0904999
-26.914043 72.543365 0.8493818 11.26605
-26.807547 73.096626 0.87836593 11.079999
-26.830866 73.347046 0.93292063 11.04
-26.883949 74.201599 1.0977416 11.11375
-26.823437 74.512505 1.1006614 9.7328329
-26.817652 75.083435 0.98252851 9.0970001
-26.850925 79.691856 0.92323142 8.1584997
-26.926199 80.21032 1.0050054 11.451851
-27.034595 80.564713 0.86717469 11.520862
-26.979601 81.044922 0.99582291 12.478188
-27.017811 81.377022 0.98415756 12.399231
-26.940577 81.7743 1.1419513 12.118625
-26.907463 85.753006 0.96143752 10.14325
-27.068415 86.210091 1.0225703 10.856812
-27.029894 86.566269 0.99184692 9.3371248
-26.839279 87.539612 1.0009218 12.603
-27.026512 87.817276 0.9646219 11.442806
-26.960892 88.232384 1.0069176 10.699139
-26.918306 88.611954 1.0262786 10.980886
-26.805565 89.03241 1.112556 10.1065
-26.80353 66.986549 1.5860578 9.0909996
-27.125427 73.106491 1.5358276 12.057699
-27.162754 73.410881 1.485299 10.12675
-26.999308 73.92141 1.4643106 9.7729588
-27.059946 74.261955 1.417207 11.031055
-26.963009 74.523994 1.3731599 10.858459
-26.980862 74.841957 1.4495119 13.088751
-26.981382 80.291832 1.5241933 10.737416
-27.069738 80.532379 1.4421328 11.38345
-26.93928 81.066078 1.3848947 12.024521
-27.003145 81.402084 1.3908358 12.735976
-27.01194 81.73156 1.3587615 12.106915
-27.069397 84.742851 1.5224321 11.0795
-26.912445 85.037651 1.4834473 11.779834
-26.877777 85.255882 1.4481864 11.65725
-27.034494 85.726685 1.4280081 11.492583
-27.008997 86.240166 1.4259477 10.3194
-27.006853 86.626595 1.4340261 12.18957
-26.990456 87.052361 1.4544563 11.560454
-26.968927 87.419395 1.4730775 10.523118
-26.923496 87.973503 1.4342028 11.019751
-26.974594 88.220543 1.3636554 11.662322
-26.893675 88.539665 1.3172814 11.636417
-26.903652 88.824608 1.3159024 13.17
-26.807566 63.975288 1.6988773 9.0935001
-26.846478 64.022728 1.742617 9.0935001
-27.02198 73.037247 1.7945362 12.356923
-27.125755 73.381554 1.8550965 12.289156
-26.986769 73.74633 1.799771 12.331388
-27.085152 74.222519 1.8428162 12.84484
-26.967417 74.603775 1.7637504 12.913649
-26.922518 74.813118 1.792255 13.041
-27.070864 79.876572 1.9363314 11.164249
-26.972563 80.085197 1.7687855 12.043966
-27.02426 80.541824 1.7122712 11.998525
-26.967352 81.017456 1.7625791 12.343083
-26.982485 81.354866 1.7740312 12.078874
-27.031511 81.711502 1.6640289 12.5805
-27.004827 84.781067 1.6175946 11
-27.014839 84.970589 1.8222634 11.904605
-27.087618 85.329712 1.7996298 11.931779
-27.15362 85.666504 1.7187537 10.422333
-27.050104 86.238708 1.6966082 10.922999
-26.810276 86.688675 1.7920628 12.168
-26.953566 86.967903 1.7407696 12.251285
-26.935175 87.388412 1.7585382 12.486616
-27.033911 87.889328 1.7639965 11.393938
-26.965191 88.222107 1.8411056 11.881681
-27.136415 88.441658 1.8150847 10.792125
-26.807646 68.219597 2.0941706 9.0950003
-26.84009 72.713562 2.393461 13.1565
-26.993507 73.069901 2.236944 13.150911
-27.04405 73.385529 2.1926892 12.612
-26.943573 73.997864 2.0137732 14.054
-27.057589 74.183746 2.1562474 13.419833
-26.928566 74.552208 2.2432659 12.568188
-26.87991 74.879822 2.2278159 11.167
-27.094414 79.949463 2.0242946 13.10775
-27.069157 80.253151 2.2442369 12.598375
-26.991194 80.569267 2.2143767 12.5576
-26.92416 81.004799 2.2461402 13.615875
-27.094616 81.411903 2.0368481 12.418
-27.132454 83.963997 2.2914078 10.0755
-26.895105 84.309433 2.3414872 11.7011
-26.950644 84.570091 2.2404411 12.810688
-27.010612 85.029137 2.211014 13.111209
-26.963444 85.279053 2.2611892 11.0595
-27.167347 85.645958 2.0706878 11
-27.056078 86.76712 2.0355833 13.074
-26.95594 87.013046 2.1697228 12.99925
-26.924368 87.346642 2.2766616 12.735111
-27.002644 87.872047 2.1736791 12.063821
-27.012934 88.183472 2.1489952 12.472244
-27.068718 88.433914 2.135623 12.877625
-27.133652 71.610367 2.6359534 9.1485004
-26.932156 72.795456 2.5414562 14.428666
-26.9624 73.054932 2.540539 13.160749
-27.001341 73.391068 2.6225526 12.781025
-26.836958 73.89312 2.6726925 14.0985
-26.815115 74.51339 2.4557326 13.1575
-26.80496 74.981071 2.5567505 15.056
-27.080433 80.349861 2.5132852 13.316376
-26.893248 80.594162 2.5321341 12.103
-26.838022 80.885918 2.4507549 12.104
-26.851398 84.26545 2.6233215 12.3252
-26.9175 84.544243 2.5352819 12.270858
-26.992027 84.964188 2.6571968 12.335199
-27.010983 85.366928 2.7035744 12.062428
-26.965025 85.858101 2.466383 11.0135
-26.964382 86.494499 2.6652052 8.0089998
-26.96826 87.11721 2.4588723 10.750501
-27.022821 87.464172 2.6417556 11.7715
-27.057838 87.807976 2.5787692 11.289142
-26.940924 88.175514 2.6735787 11.51116
-26.953478 73.052071 3.0212743 13.995611
-26.915474 73.354538 3.0817533 13.653299
-26.863497 73.773895 2.9419794 15.056749
-26.863237 80.049927 3.1609337 14.006
-26.942518 84.620758 2.9485328 13.551799
-27.066256 85.015007 3.003773 13.199
-27.140619 85.54425 2.8519332 13.162
-27.096685 85.788506 3.0043743 12.85175
-27.05092 86.187019 3.087688 14.0785
-27.065228 86.550117 3.0960057 14.392501
-27.010244 87.075439 2.8988712 14.309
-27.073057 87.491112 2.9758217 11.446084
-26.962448 87.835815 3.0349395 12.577498
-26.95718 88.163925 2.9698465 12.640834
-26.978664 73.072624 3.3487256 13.062389
-26.935347 73.375694 3.4078212 12.92806
-26.808533 84.397278 3.5151715 14.0935
-26.978668 84.635376 3.4031038 13.573649
-26.96983 84.972061 3.4168632 13.99327
-27.064199 85.317505 3.4327593 13.286499
-27.043573 85.63681 3.512846 12.1055
-27.027935 86.194511 3.4380801 11.668928
-27.004148 86.6623 3.5421724 11.126
-26.815218 86.997116 3.4222345 12
-26.954048 87.429077 3.443027 12.148889
-26.958193 87.821274 3.3795564 12.111111
-26.943605 88.102928 3.2650831 13.762
-27.027403 73.010925 3.6262157 15.0865
-26.829401 73.374771 3.694886 14.096
-27.017052 84.535828 3.6467624 13.801375
-26.986095 84.944527 3.7252889 14.752167
-26.900591 85.842278 3.677063 12.596166
-26.989944 86.326416 3.8055792 12.787499
-26.987789 86.582611 3.9129393 12.501332
-26.92906 86.899895 3.8872404 10.359263
-26.952927 87.380928 3.6816049 13.354029
-26.89237 87.622658 3.804487 11.568624
-26.853832 73.285309 4.0554261 9.0360003
-26.974203 86.595123 4.1042523 12.767357
-27.063742 86.962334 4.1741686 12.94
-26.868168 87.335854 4.027761 12.1765
-27.060728 86.660843 4.5309668 12.62125
-27.03072 86.93718 4.5327768 13.63525
-26.496901 80.419281 -5.0729294 8.0974998
-26.693867 89.537704 -3.6889417 4.8571429
-26.56637 89.730515 -3.6613367 4.2857141
-26.660471 85.923782 -3.2331455 8.0959997
-26.625992 87.536194 -3.3276761 7
-26.616356 88.068237 -3.27176 4.5
-26.511608 88.546776 -3.3232236 4
-26.535677 88.984734 -3.3460975 5.2941175
-26.599348 89.40937 -3.4133792 4.173913
-26.559351 89.732521 -3.4626482 3.5714285
-26.685114 66.572144 -3.0382926 7
-26.472965 66.985977 -2.8932855 8.0895004
-26.47109 67.450256 -3.0694935 7
-26.590961 68.397552 -2.9376137 7
-26.490704 74.292259 -2.8662233 7
-26.664097 77.807175 -2.8384421 7
-26.635546 79.849365 -2.8056691 5
-26.596983 80.15284 -2.8344944 5.8000002
-26.473837 80.792198 -2.8578446 5.6666665
-26.5541 81.08493 -2.8153906 5
-26.652054 81.291153 -2.828115 5.25
-26.595602 81.753113 -2.8707688 4.3333335
-26.636534 82.21106 -2.8692789 5.4000001
-26.601059 82.601128 -2.9044082 6
-26.437681 83.006569 -2.9369452 5
-26.545553 83.344093 -2.9113462 5
-26.621925 83.740242 -2.8543029 5
-26.704533 84.929291 -2.9210978 3
-26.736837 85.307045 -2.8199239 5
-26.781149 86.252472 -2.801795 2.6666667
-26.566425 86.479179 -2.8723688 3.5333335
-26.796339 86.902687 -2.8549118 6
-26.661964 87.445961 -3.0237906 4.6666665
-26.715498 88.228249 -3.069828 4
-26.562756 88.608482 -2.9271729 4.560606
-26.561638 88.990982 -2.9357624 4.6923075
-26.631582 89.235657 -3.1073554 4
-26.491741 60.218224 -2.5386281 4.8571429
-26.616468 60.655727 -2.5815589 5
-26.675224 60.901741 -2.5680373 5
-26.546364 61.460995 -2.4125218 7
-26.643412 62.212986 -2.4891596 6
-26.648361 62.73008 -2.515713 5.8333335
-26.555405 63.041084 -2.6273537 4
-26.579849 63.417519 -2.5494847 5.125
-26.716652 63.719982 -2.4510484 5
-26.589338 64.204842 -2.4702375 6.1999998
-26.578033 64.501007 -2.5348535 4.6666665
-26.524683 65.099731 -2.6119859 5
-26.69165 65.428871 -2.7193096 4
-26.596144 65.803886 -2.5919914 5.1999998
-26.665535 66.159538 -2.5183017 4.8571429
-26.613886 66.557007 -2.5524251 4.4000001
-26.636211 67.004272 -2.555135 5.5
-26.497215 67.390656 -2.5391798 4.5
-26.712103 67.896095 -2.5337422 5
-26.435966 68.671448 -2.4644427 5
-26.534252 69.304932 -2.4086239 6
-26.532389 70.055405 -2.6085627 4
-26.619915 70.537506 -2.4297757 5
-26.638781 71.37645 -2.5468161 6.75
-26.693174 71.760735 -2.429841 7
-26.609798 72.044556 -2.5510776 5
-26.468655 72.594727 -2.5260794 5
-26.60635 73.024216 -2.518549 5.1999998
-26.693069 73.270309 -2.5386796 5.5
-26.798792 73.981575 -2.5730491 6
-26.647371 74.293968 -2.521421 5.6666665
-26.648687 74.487198 -2.47419 6
-26.589495 74.958847 -2.4337702 5
-26.786716 75.257286 -2.4493837 5
-26.749981 75.801575 -2.5615115 5.5
-26.647795 76.183044 -2.5472724 5.181818
-26.59236 76.610733 -2.5785737 5.25
-26.550108 76.959564 -2.5869091 5
-26.540899 77.424858 -2.4727833 5.3333335
-26.70381 77.799171 -2.5527937 5.3333335
-26.528061 78.27861 -2.5641253 7
-26.464962 79.505836 -2.5161414 5.3333335
-26.501808 79.734634 -2.5756147 5.5999999
-26.646032 80.175247 -2.7120583 6
-26.579468 80.76825 -2.6580849 7
-26.617577 81.013687 -2.5170326 5.75
-26.647022 81.387749 -2.5901513 6.375
-26.576435 82.216675 -2.6197686 5
-26.529438 82.467133 -2.7095668 4.5
-26.750364 83.539665 -2.6441424 6
-26.640007 84.415863 -2.7847056 4
-26.549595 84.991722 -2.7492485 4.6666665
-26.578653 85.877525 -2.628751 5.8233099
-26.674431 86.189125 -2.587255 5.9345884
-26.53421 86.564171 -2.6524074 5.3611112
-26.665964 87.341484 -2.7511532 5
-26.589598 88.264023 -2.4909298 4.5999999
-26.550705 88.645439 -2.6025655 4.4140348
-26.556631 89.018082 -2.5929968 4.3056431
-26.642679 60.208935 -2.3505342 5.5
-26.555027 60.617878 -2.3801737 6
-26.455347 60.958466 -2.3495679 5.6666665
-26.64769 61.366886 -2.3849239 7
-26.625666 61.96431 -2.3267817 7
-26.699198 62.949364 -2.378691 5.6666665
-26.652266 65.850517 -2.3132343 7
-26.664495 66.051193 -2.3167968 7
-26.562868 67.119637 -2.1771555 5.181818
-26.611065 67.34481 -2.1096432 6.5
-26.457785 67.71946 -2.0488548 7.0469999
-26.57206 68.15567 -2.2801733 5.6666665
-26.673132 69.041611 -2.2557521 6.4000001
-26.586508 69.494202 -2.2189512 6
-26.561234 69.761086 -2.2053852 5.8421054
-26.600067 70.151848 -2.2613778 5.5294118
-26.640362 70.53672 -2.1630268 6
-26.645424 71.380989 -2.3259928 5.5
-26.672606 71.765984 -2.3293765 5.4000001
-26.517393 72.08149 -2.3038473 6
-26.42775 73.456154 -2.3926101 5
-26.552149 73.746834 -2.3845279 5
-26.589617 74.200684 -2.34518 5.3333335
-26.586538 74.562057 -2.3659117 5.75
-26.410078 80.766624 -2.2966249 6
-26.555103 81.01709 -2.1527433 6.0833335
-26.631964 81.324074 -2.3559306 6
-26.628586 85.986656 -2.189275 6.3333335
-26.680361 86.138535 -2.1455746 6.1179485
-26.58275 86.490967 -2.18448 6.3725491
-26.564877 87.860237 -2.1093717 6.5
-26.466137 88.257439 -2.2272363 5.4285712
-26.494307 88.591293 -2.2328551 5.4821429
-26.500616 88.985199 -2.2361794 5.3800001
-26.58452 89.350998 -2.1954033 5.5
-26.561451 66.571854 -1.7676727 8.0865002
-26.600847 67.098488 -1.737235 6.256958
-26.507597 67.402664 -1.6841192 6
-26.577419 69.446434 -1.9071176 6
-26.694609 69.723785 -1.9980046 6
-26.496912 70.152779 -1.802757 6
-26.613033 70.50444 -1.8935581 6.5
-26.716648 70.988388 -1.8611131 6.5
-26.656012 71.541229 -1.8169922 6.75
-26.796452 71.794968 -1.828666 6
-26.623842 74.193321 -1.9745246 6
-26.400148 80.046814 -1.9790059 6
-26.49567 80.893852 -1.6463904 7
-26.778862 84.754501 -1.6652349 7
-26.508627 85.909622 -1.7203341 7.7699766
-26.607059 86.208565 -1.7594441 7.4648533
-26.56518 86.523552 -1.7499108 7.6915932
-26.571074 87.532196 -1.6812373 8.1992502
-26.538515 87.692482 -1.8376288 7.4382501
-26.522297 88.261742 -1.879415 7
-26.483433 88.624237 -1.8952461 7
-26.469942 88.954926 -1.9377496 6.6666665
-26.677164 67.051247 -1.283993 7.4358001
-26.571566 67.423271 -1.328017 7.2958636
-26.548111 67.669983 -1.2702518 7.4359999
-26.752729 69.063896 -1.2219589 8.1344995
-26.732622 71.312057 -1.5602827 7
-26.647072 80.602188 -1.2550267 8.0799999
-26.474819 80.883186 -1.3473344 8.0115004
-26.682911 84.662971 -1.5347714 8.0970001
-26.73982 84.887604 -1.3092835 9.2258129
-26.536333 85.880104 -1.3944741 8.4736128
-26.617369 86.207527 -1.4559053 8.3459616
-26.56119 86.584259 -1.3998177 8.4536619
-26.63064 86.925789 -1.2812277 9.2189589
-26.563723 87.401306 -1.4328275 8.5969582
-26.478159 87.706665 -1.5093122 8.3282251
-26.455107 66.471848 -0.92545587 8.1190004
-26.592081 67.115005 -1.0597596 7.6420007
-26.620949 67.33503 -1.0085509 7.9905415
-26.620615 67.777359 -1.0952317 8.0263824
-26.46653 68.084564 -0.80749261 8.0880003
-26.485657 70.555145 -0.82047713 8.1175003
-26.599911 74.593513 -0.9978891 8.4280005
-26.645962 80.646935 -0.99809307 8.0760002
-26.617308 85.067253 -1.0428971 9.4213533
-26.596581 85.211876 -0.8836922 9.1261663
-26.475508 85.790504 -0.99134338 9.4462299
-26.664814 86.233673 -1.0061373 9.3718958
-26.527527 86.586304 -1.0321971 9.5894985
-26.53594 86.926544 -0.99795818 9.8460236
-26.507053 87.373741 -1.0462028 9.3204575
-26.498524 87.785637 -0.93211913 10.098393
-26.528389 88.12149 -0.96125573 10.518357
-26.670774 66.65918 -0.42195249 9.1210003
-26.712784 66.960732 -0.62858021 8.083786
-26.686285 67.33448 -0.65434474 8.3224583
-26.62851 67.68483 -0.69963729 8.0942001
-26.73637 68.10083 -0.45348117 8.64575
-26.615583 70.212662 -0.72318882 8.1110001
-26.59956 71.22924 -0.78853005 8.0410004
-26.597635 73.029495 -0.48929504 8.9013004
-26.622637 81.020164 -0.50343925 9.4371109
-26.64941 81.365036 -0.51250988 9.1418753
-26.760071 81.838303 -0.40816683 9.1035004
-26.526373 84.03772 -0.46015793 12.114
-26.632372 84.560234 -0.53611678 10.816
-26.62298 85.010674 -0.54427856 12.459867
-26.50736 85.377525 -0.6342175 10.912218
-26.495718 85.768829 -0.6543088 11.30547
-26.674814 86.253006 -0.60809529 10.727237
-26.565004 86.589096 -0.6127708 11.127781
-26.539528 86.936417 -0.62622792 10.303914
-26.558748 87.424828 -0.58134162 9.7535009
-26.571293 87.75174 -0.55893809 9.9647217
-26.74827 88.258202 -0.56978017 9.0314999
-26.618975 88.411644 -0.59559476 9.1417503
-26.656557 89.078117 -0.49329391 10.85778
-26.725792 89.213501 -0.54056847 9.0819998
-26.657597 65.922806 -0.15127346 8.9060001
-26.638414 66.190704 -0.18609996 8.9141998
-26.558887 66.665504 -0.15762947 8.9684229
-26.568583 66.98394 -0.178422 8.9389496
-26.618923 67.419144 -0.17323206 8.9869747
-26.677782 67.984665 -0.25395733 9.1447496
-26.70858 68.100685 -0.1779725 9.1331882
-26.606144 68.497719 -0.16857401 9.0631666
-26.763491 70.089218 -0.28449464 8.1754999
-26.715841 70.704025 -0.16942121 9.0284996
-26.650934 72.178909 -0.15283884 9.1529999
-26.77911 72.465683 -0.17028013 9.0942497
-26.607529 72.990326 -0.19625054 9.5986662
-26.485542 73.295647 -0.25369403 9.0959997
-26.450247 73.940651 -0.096377224 9.1564999
-26.523069 74.121292 -0.24199198 9.4009295
-26.548946 75.083801 -0.10689221 9.0930004
-26.458031 80.737671 -0.34987915 9.3188753
-26.56526 81.117661 -0.33110714 8.9891996
-26.61591 81.367973 -0.24796358 10.314125
-26.667694 81.648445 -0.32502109 9.1029997
-26.415051 84.312698 -0.27826408 7
-26.492628 84.6511 -0.19682717 10.385
-26.595497 85.021637 -0.29160714 10.369838
-26.547268 85.398811 -0.2281709 12.045895
-26.504097 85.711052 -0.26191792 11.405778
-26.646793 86.258362 -0.21044265 11.782378
-26.594959 86.594772 -0.22930111 11.602726
-26.589359 86.966698 -0.24434009 10.509132
-26.621819 87.386932 -0.21254471 10.208344
-26.629944 87.802879 -0.19794887 12.302591
-26.604733 88.220131 -0.20316772 10.826022
-26.600103 88.645927 -0.14242281 11.038694
-26.612114 89.007858 -0.1817282 11.096911
-26.55752 89.30249 -0.20321617 11.673015
-26.670818 65.945023 0.16291516 10.136499
-26.554995 66.150215 0.15136307 10.132
-26.480654 66.63205 0.14907932 10.099667
-26.635454 67.053169 0.19820242 10.133334
-26.534277 67.328957 0.21532696 9.753583
-26.642483 67.871094 0.23685725 10.090821
-26.54941 68.177536 0.12489399 9.3661251
-26.487082 68.540192 0.32941034 10.149
-26.69112 71.864265 0.38768491 11.13625
-26.660952 72.21035 0.31701711 10.439083
-26.652592 72.436745 0.23190375 9.0927505
-26.668159 73.452354 0.29041681 10.2535
-26.577545 73.753128 0.223535 10.087357
-26.584669 74.164955 0.20819117 10.4929
-26.434183 74.964684 0.26510063 10.07825
-26.579823 80.240486 0.21524546 9.2199163
-26.638803 80.632767 0.2415271 10.13645
-26.74148 81.031502 0.23231764 10.082
-26.614017 81.397926 0.35227478 12.139667
-26.490961 81.742142 0.2351293 12.7047
-26.569546 82.101761 0.39246625 13.0525
-26.533783 84.704498 0.011274887 7
-26.583069 84.858444 0.2166106 9.0965004
-26.614313 85.400597 0.19154441 11.337062
-26.526098 85.697357 0.17335777 10.914083
-26.43853 86.363869 0.19000557 10.383834
-26.610491 86.593971 0.15904559 12.198485
-26.603361 86.941017 0.162312 12.592523
-26.666916 87.392372 0.1334933 12.44975
-26.620914 87.845016 0.17637275 10.541323
-26.614014 88.224915 0.18928203 10.383408
-26.64888 88.611465 0.17724003 10.612422
-26.619192 88.973717 0.079688154 10.130569
-26.594061 89.25914 0.18596694 14.0005
-26.552797 66.193771 0.47319543 10.069625
-26.617645 66.643494 0.62956715 10.04725
-26.665997 67.013992 0.52710444 10.0747
-26.645487 67.412521 0.63147122 10.564786
-26.619688 67.839256 0.67009509 10.605208
-26.518303 68.247322 0.50159699 10.099167
-26.522026 68.568062 0.54413724 10.413286
-26.77286 71.559135 0.43597308 11.1295
-26.729902 71.755997 0.56700873 10.231937
-26.637005 72.171272 0.54160231 10.349912
-26.533628 72.622513 0.58805287 10.263857
-26.621607 73.004303 0.61780936 10.753205
-26.630358 73.393288 0.52493209 10.780917
-26.629774 73.782387 0.57429278 10.463965
-26.607883 74.160049 0.56488037 10.5299
-26.630157 74.678474 0.4480724 9.0839996
-26.554321 79.349876 0.58639604 10.756249
-26.599152 79.806442 0.64983845 9.8662004
-26.563066 80.197769 0.62340009 9.9717503
-26.579676 80.580185 0.66574675 11.011115
-26.602402 81.023155 0.57198095 10.0624
-26.669199 81.44313 0.68613154 12.37575
-26.568544 81.755585 0.58437026 11.469843
-26.488659 82.07402 0.72329253 15.1405
-26.537237 85.476082 0.53785557 9.7823334
-26.7083 85.791412 0.60303533 9.7348003
-26.794024 86.004028 0.63080466 9
-26.584459 86.641617 0.56351745 11.298
-26.540081 87.077736 0.65747452 9.8088121
-26.618776 87.394287 0.62951702 10.53718
-26.607967 87.735329 0.57034427 10.528167
-26.603243 88.267921 0.51975888 11.220668
-26.649176 88.588593 0.70196521 10.058499
-26.712969 88.848358 0.58893085 9.0985003
-26.412636 66.66777 0.84126675 11.051
-26.671288 67.002014 0.85444778 11.08325
-26.739016 67.413162 0.90492028 11.0495
-26.730293 68.193161 0.88845927 11.1385
-26.605986 68.582382 0.9949438 10.5615
-26.731461 72.503242 0.90396136 10.428166
-26.501768 72.965439 0.9328298 11.308636
-26.593666 73.288574 0.92019522 10.581501
-26.620028 73.757446 0.89984155 11.06225
-26.59782 74.215828 0.98742175 10.083
-26.706099 74.602943 1.0750433 10.222643
-26.573511 74.82103 1.0966365 9.0865002
-26.531677 79.558182 1.1377724 11.057
-26.584755 79.779999 0.97746593 11.596527
-26.685034 80.170326 0.97824907 11.255834
-26.524569 80.533974 1.0902815 10.379213
-26.62878 80.973419 0.93030655 11.119249
-26.685055 81.332619 0.8889935 13.0535
-26.601992 81.768974 1.0152199 13.768416
-26.546144 82.101265 1.0821574 12.411499
-26.699621 85.494675 1.1338282 9.0974998
-26.591274 85.753769 0.99171877 11.370375
-26.576481 86.203323 0.9907341 13.115749
-26.532253 86.646591 0.97334582 11.786999
-26.579836 87.059174 0.94773191 10.389529
-26.636744 87.375488 0.95832568 11.276345
-26.674923 87.77597 0.99088007 11.822917
-26.584473 88.24807 1.0708114 10.587523
-26.670488 88.604935 1.0114216 11.661098
-26.713602 88.858665 1.138253 10.10675
-26.481634 63.620518 1.5252855 9.0939999
-26.753864 73.979118 1.5040381 12
-26.517832 74.353378 1.5863032 10.3535
-26.576864 74.554993 1.3776895 12.465364
-26.687033 74.952873 1.5059996 10.0955
-26.491701 76.962296 1.5293655 13.14275
-26.629715 79.462769 1.3685 12.111667
-26.577171 79.814621 1.3980432 11.704206
-26.690948 80.083786 1.4908332 11.76939
-26.64982 80.544319 1.2997831 12.286625
-26.60677 80.918457 1.3454661 13.231667
-26.602118 81.353256 1.3908077 12.097665
-26.649399 81.682976 1.3927113 11.439667
-26.704773 82.032532 1.2777829 13.058
-26.463488 83.911621 1.357651 11.626124
-26.416903 84.207787 1.5745716 11.105
-26.505938 84.752296 1.4890589 10.16775
-26.542322 85.028801 1.428201 10.776666
-26.6833 86.104614 1.5989602 10.178
-26.597403 86.59391 1.4030125 11.207438
-26.596535 87.030243 1.3860372 11.80426
-26.677921 87.34716 1.4749478 11.668
-26.640354 87.822105 1.3947607 12.191285
-26.619738 88.230736 1.3418585 11.707199
-26.68808 88.587502 1.2740721 11.638909
-26.779152 63.962532 1.6968629 9.0935001
-26.503115 67.400429 1.822934 9.0908327
-26.6681 67.837288 1.9332887 9.0909996
-26.58802 73.726448 1.8599449 14.133
-26.635399 74.234276 1.9296823 10.454333
-26.627619 74.617218 1.7650901 12.58171
-26.719969 74.887749 1.8320785 13.7655
-26.682362 79.843529 1.7802089 13.136999
-26.627258 80.217102 1.7822386 11.7285
-26.560289 80.574341 1.7881405 12.1255
-26.661081 81.039528 1.7844634 14.5865
-26.663458 81.313538 1.6727906 11.835375
-26.608252 81.618622 1.6332051 10.0175
-26.70249 84.323685 1.8591397 12.159
-26.687262 84.598289 1.7574316 11.316385
-26.748276 84.99913 1.8784833 12.774786
-26.607788 85.318588 1.7846298 10.983501
-26.797503 85.945251 1.645198 12.0425
-26.784712 86.248734 1.6190844 9.1735001
-26.663254 86.699348 1.7196778 13.3155
-26.659658 87.07756 1.7798691 12.582633
-26.597324 87.381721 1.7148893 11.543916
-26.611279 87.824043 1.8052089 11.833195
-26.615328 88.208679 1.8080202 11.151341
-26.549835 88.493607 1.8728679 13.7045
-26.598995 67.433075 2.0778403 9.0955
-26.436642 71.616989 2.3310304 15.137
-26.620825 72.724106 2.2627397 13.651875
-26.596218 72.880363 2.3303323 13.153999
-26.605795 73.446281 2.221678 12.346499
-26.634239 73.815071 2.2322042 12.9745
-26.672031 74.133789 2.162575 12.8255
-26.584991 74.641426 2.3313866 14.095428
-26.590862 74.947029 2.3069615 15.13475
-26.547758 75.20369 2.3990183 15.137
-26.578875 79.93364 2.2661114 14.2771
-26.590509 80.173607 2.232754 11.942584
-26.589752 80.610153 2.1316898 11.699625
-26.65177 80.994469 2.2012088 12.749667
-26.54291 81.453934 2.2025156 12.175
-26.495951 83.98999 2.3355441 13.0785
-26.689533 84.152611 2.1895802 11.985583
-26.613834 84.581787 2.1587515 12.313168
-26.496616 84.992828 2.102639 12.053666
-26.675867 85.289543 2.35392 11.748668
-26.564495 85.801628 2.1456542 9.132
-26.575556 86.707878 2.1426635 10.676
-26.473169 86.946625 2.267519 11.359333
-26.555788 87.445602 2.2787886 12.726072
-26.629723 87.825211 2.210778 11.427144
-26.591595 88.162834 2.0976794 12.139679
-26.456011 71.448769 2.46924 13.5755
-26.650799 71.990334 2.6766093 14.0765
-26.564186 72.075279 2.6008759 14.349375
-26.657778 73.018196 2.5787196 13.718963
-26.642252 73.454086 2.6255772 13.246955
-26.622984 73.755821 2.6102586 14.112436
-26.56074 74.188759 2.5760131 13.727926
-26.570486 74.637688 2.6159174 13.254478
-26.548321 74.998703 2.6097345 12.409812
-26.549965 75.211624 2.654465 15.042
-26.54224 79.880455 2.5764253 13.229389
-26.560488 80.203941 2.5611565 12.444762
-26.515341 80.537125 2.5510385 12.390389
-26.571953 81.004532 2.5950968 13.254601
-26.650959 81.273811 2.7744858 15.011
-26.601402 83.912186 2.6277196 15.1525
-26.737854 84.166283 2.6107426 14.111
-26.689064 84.549217 2.5340211 11.615085
-26.716057 84.948776 2.6313384 11.962167
-26.666191 85.424828 2.6923187 11.9315
-26.794102 85.96228 2.7047303 9.1344995
-26.499842 86.566788 2.6392212 10.523375
-26.550432 87.104462 2.572922 10.5
-26.515362 87.341461 2.543155 11.8686
-26.588669 87.848923 2.6218736 11.417731
-26.643087 88.13652 2.6119089 12.355549
-26.444046 71.175842 3.0730319 14.0835
-26.457767 71.542061 3.0606887 14.740167
-26.430325 71.806618 2.9971232 12.722167
-26.653116 73.045326 3.0745971 12.859301
-26.672239 73.360001 2.9896202 14.072875
-26.522285 73.864952 2.8450785 11.92875
-26.611223 74.195007 2.8897314 14.554313
-26.443964 74.486992 2.8693595 13.098334
-26.497694 75.044434 2.8619363 12.827499
-26.666666 79.860474 2.9535348 13.697
-26.57535 80.257896 3.0135567 12.640575
-26.543064 80.516403 2.9871619 13.687726
-26.443211 80.93248 2.9562299 14.0935
-26.565197 84.206963 2.992187 12.628499
-26.685108 84.576134 2.990195 13.254546
-26.588144 84.92482 2.9129822 12.749499
-26.55475 85.368576 2.9686 13.3155
-26.752844 85.605469 3.1525455 13.1685
-26.677771 86.062767 3.0445366 12.0495
-26.526587 86.663277 2.9489074 10.392333
-26.527243 87.088676 3.0195684 11.723083
-26.602186 87.400368 3.0206308 12.431112
-26.584545 87.801338 2.9388101 11.96638
-26.706192 88.127975 2.9581847 12.235065
-26.799456 88.449509 2.8752666 10.1005
-26.593121 73.023857 3.3851857 13.022041
-26.630299 73.383835 3.4928658 13.870625
-26.549175 73.7939 3.4413874 10.832375
-26.539274 80.190498 3.2670579 14.537625
-26.52384 80.640396 3.3124263 13.550063
-26.555218 81.064346 3.4912868 10.08
-26.590555 84.350731 3.2816494 13.759167
-26.58976 84.619583 3.4530003 12.996722
-26.513599 85.021515 3.4824531 12.19675
-26.591827 85.411407 3.2885177 12.917
-26.602905 86.293915 3.5006754 13.8535
-26.736506 86.445389 3.4499111 12.16375
-26.602652 87.058861 3.5206668 13.53815
-26.633141 87.400215 3.4175074 13.133
-26.637472 87.792252 3.363517 12.653025
-26.564541 73.482788 3.7113168 15.1215
-26.435455 73.809814 3.67259 11.58375
-26.649334 84.66275 3.7639625 12.836875
-26.56636 85.028786 3.7464609 13.524
-26.734051 85.433708 3.8150525 14.136668
-26.476402 85.943581 3.8613226 12.087
-26.559372 86.201797 3.8901999 14.118143
-26.680124 86.774643 3.7893839 11.775
-26.587067 87.022354 3.8202996 13.522362
-26.547186 87.40107 3.8150306 13.262334
-26.475561 85.151062 4.0578146 12.6665
-26.573397 85.416878 4.1313419 13.465167
-26.566494 85.837234 4.2206254 13.091
-26.559879 86.317688 4.1281209 13.073125
-26.538816 86.609482 4.1425991 13.127501
-26.593031 86.995537 4.2206254 12.529332
-26.606813 87.299614 4.1268492 13.468501
-26.518074 86.609955 4.5902457 12.3289
-26.596272 86.972694 4.5020633 11.726001
-26.039221 69.791496 -3.8616958 7
-26.238922 89.552094 -3.6339865 7
-26.178469 89.831085 -3.6630213 4.8571429
-26.290941 88.042976 -3.2582388 5
-26.35224 88.552963 -3.2139814 5
-26.26726 89.093811 -3.3745339 4.909091
-26.227541 89.44532 -3.3490946 4.1333332
-26.209259 89.752029 -3.4261661 4
-26.247051 66.1436 -3.1142082 7
-26.113373 77.778664 -2.8053353 7
-26.113914 79.444084 -2.80479 7
-26.358027 79.675995 -2.8085785 7
-26.228811 80.709175 -2.8280656 6.3333335
-26.3577 80.925247 -2.8958192 6
-26.268087 81.780937 -2.8995526 5.3333335
-26.322765 82.147087 -2.8586423 6
-26.210791 82.527336 -2.8982539 5
-26.125671 83.018265 -2.9029222 4.25
-26.283913 83.401398 -2.8876426 5.5
-26.193636 84.262856 -2.8211381 6
-26.276104 84.605415 -2.8681967 6.3333335
-26.144829 85.065674 -2.8621347 6
-26.383162 85.433891 -2.8487155 6
-26.031271 85.811096 -2.8231778 6
-26.213865 86.314903 -2.8859675 6.5
-26.322561 86.55397 -2.8481307 6
-26.215736 86.979645 -2.8466187 5.3333335
-26.126486 87.341301 -2.9878652 4.2222223
-26.130159 87.797874 -3.0465007 3.5
-26.221407 88.192772 -3.0537629 5.2857141
-26.165785 88.643745 -3.0379407 5
-26.283117 89.04895 -2.9604077 5.1999998
-26.124969 89.345764 -2.9977772 5.5999999
-26.261375 60.183372 -2.5689797 5
-26.26589 60.627998 -2.5388207 4.3333335
-26.064953 61.034245 -2.5459759 4.25
-26.243176 61.419266 -2.5554831 4.6666665
-26.319981 61.8218 -2.5836055 4
-26.152693 62.100605 -2.5808716 4
-26.292713 62.62125 -2.5524004 5.6666665
-26.20303 62.976875 -2.5896552 5
-26.20505 63.521084 -2.5270791 5.5
-26.197348 63.835941 -2.6008625 4.3333335
-26.138166 64.22467 -2.5904937 4.3333335
-26.340399 64.718643 -2.6871538 4
-26.216457 64.980057 -2.5703847 5.6666665
-26.041349 65.386986 -2.570977 5.3333335
-26.262493 65.75602 -2.5669513 5.25
-26.206053 66.154205 -2.5247154 5.5999999
-26.205074 66.668449 -2.5365317 4.25
-26.183083 66.992928 -2.4220152 5
-26.132996 67.344513 -2.5343707 5.2804999
-26.000605 68.261627 -2.4542015 5
-26.168289 69.048218 -2.4658267 5
-26.233688 69.397095 -2.4892008 5
-26.388584 70.229637 -2.7863426 7
-26.20709 71.090828 -2.5639942 7
-26.06023 71.396118 -2.4316857 5
-26.202906 71.6604 -2.5285237 6.5619998
-26.263365 72.203537 -2.4034228 5
-26.26503 72.744926 -2.4031115 5
-26.033728 72.869316 -2.6327822 5
-26.036451 73.50592 -2.5151386 6
-26.216835 73.822632 -2.6386743 5.5
-26.340801 74.315521 -2.4147196 5
-26.35774 74.666008 -2.5600317 5
-26.187546 74.978088 -2.4876866 5
-26.096916 75.36142 -2.4531481 5
-26.246086 75.804642 -2.5407586 5.1999998
-26.242855 76.311623 -2.6486788 6
-26.214834 76.671906 -2.6695316 6.5
-26.041227 76.922966 -2.4435616 7
-26.157597 77.372398 -2.5370359 5.5
-26.151928 77.747826 -2.5723679 5.9166665
-26.152836 78.321579 -2.6046023 5.1999998
-26.224556 78.709381 -2.517256 5.5
-26.265505 79.096573 -2.5304608 5
-26.201668 79.43795 -2.6547735 5.25
-26.299643 79.730095 -2.6761465 6.0714288
-26.346291 80.150879 -2.6766748 5.3333335
-26.235958 80.669418 -2.5796971 6.5111766
-26.220543 80.859962 -2.6260295 6.5419998
-26.187756 81.359428 -2.7914283 6
-26.265554 82.239197 -2.5919342 5
-26.157677 82.496201 -2.607491 4.5
-26.143963 83.074478 -2.6884251 5.3333335
-26.387699 83.367851 -2.6418071 6
-26.074686 83.858429 -2.5894113 6
-26.161509 84.195801 -2.6151972 5
-26.084196 84.694786 -2.5967195 4
-26.04504 84.986992 -2.597239 4
-26.199152 85.892868 -2.6589546 6
-26.226383 86.235146 -2.5739958 5.4000001
-26.219036 86.509834 -2.6853578 6.1666665
-26.138657 87.170944 -2.6620049 5
-26.189119 87.356598 -2.7496915 3.6666667
-26.220638 88.723213 -2.593991 4.1666665
-26.218285 89.053322 -2.6915023 6
-26.168398 89.284386 -2.5875893 3.8249998
-26.232494 60.152477 -2.3771856 5
-26.394733 60.937943 -2.3987269 5
-26.288185 61.366409 -2.3822474 5
-26.255762 61.779057 -2.3867133 5.6666665
-26.143288 62.154087 -2.3872418 5
-26.044367 62.626308 -2.393826 5
-26.081778 65.922134 -2.1204476 7
-26.072771 66.121559 -2.2367985 7
-26.035725 66.751022 -2.1242733 5
-26.126163 66.946129 -2.1676612 5.3333335
-26.083921 68.157822 -2.2147763 5.4000001
-26.148331 68.614937 -2.2243512 5.2857141
-26.19084 68.985687 -2.1671002 5.5
-26.159082 69.401825 -2.096724 6.25
-26.302448 69.738724 -2.1772952 6
-26.268763 70.212395 -2.1685536 6.4000001
-26.069698 71.592133 -2.0973232 6
-26.070856 71.804573 -2.1384318 6.5999999
-26.044117 73.108696 -2.3955779 5
-26.202751 73.424088 -2.3821301 5
-26.146032 73.884933 -2.3771074 5.5
-26.189575 74.238342 -2.2103477 5.6666665
-26.007389 75.847694 -2.3767099 6
-26.268089 76.119133 -2.381753 6
-26.218857 76.564606 -2.3619134 6
-26.364445 76.8843 -2.353828 6
-26.124372 77.368988 -2.3837936 6
-26.33321 77.642944 -2.3921137 6
-26.248547 79.96273 -2.294075 7
-26.320356 80.087494 -2.1563582 6
-26.24161 80.663582 -2.1753473 6.2173915
-26.190229 80.854759 -2.2307734 6.125
-26.120335 85.852936 -2.1816559 7
-26.178347 86.24691 -2.2136335 6.8456855
-26.208 86.476646 -2.1546454 6.8413334
-26.218269 87.893616 -2.1651962 7
-26.233391 88.143143 -2.2259252 5.9047623
-26.386757 88.618973 -2.2075386 5
-26.25404 89.04187 -2.1935725 6.3048439
-26.195114 89.354263 -2.2062685 5.3846154
-26.270483 66.303566 -1.7142217 6
-26.391443 67.164421 -1.8607067 7
-26.281071 67.311653 -1.972865 6.6666665
-26.289259 67.996353 -1.76416 8.1075001
-26.377262 68.540855 -1.9696622 6
-26.25985 68.948952 -1.9425215 6
-26.277508 69.42318 -1.9022368 6
-26.221411 69.78064 -1.9321132 6
-26.285135 70.091042 -1.9539996 7
-26.261395 70.508774 -1.9186651 7
-26.120014 71.011871 -1.874198 6
-26.061926 71.434151 -1.9854335 6
-26.208147 71.736153 -1.8932526 6
-26.194733 74.161247 -1.926089 6
-26.274477 80.289589 -1.8166866 7.369
-26.237724 80.640091 -1.7601422 7.3043518
-26.18401 80.842773 -1.8346635 7.1834583
-26.127886 85.963959 -1.7295246 8.4309998
-26.205795 86.254379 -1.7470584 7.7241955
-26.247478 86.532303 -1.7748368 7.7537179
-26.297468 87.597244 -1.8492012 7
-26.253637 88.203568 -1.9534692 6.375
-26.188213 88.664291 -1.8792821 7.4502668
-26.340385 89.004562 -1.9507133 6.4166665
-26.206861 89.258598 -1.9838358 5.75
-26.055882 68.231438 -1.2925279 8.1035004
-26.220726 69.777626 -1.5570937 8.1234999
-26.062504 76.868721 -1.2439065 8.0795002
-26.193928 80.662872 -1.4492959 7.7491889
-26.179371 80.849518 -1.3457078 8.0133524
-26.212259 85.931541 -1.4111555 8.6087694
-26.170506 86.203171 -1.4707643 8.2637548
-26.21553 86.561081 -1.4264704 8.4746742
-26.139698 87.001938 -1.373494 8.7830715
-26.127287 87.308434 -1.3252859 8.1031246
-26.163992 88.149261 -1.2016484 8.0830002
-26.152058 66.672066 -0.93489987 8.1198339
-26.141264 67.036484 -0.84922689 8.1184998
-26.21693 67.475739 -1.082213 7.6170554
-26.221434 67.679123 -0.99902844 8.0179005
-26.326174 71.622482 -1.1054612 8.1145
-26.241899 74.366508 -0.80202866 8.151
-26.210426 74.582336 -0.86934179 8.374157
-26.212975 80.644363 -1.0130436 8.5105247
-26.143959 80.848701 -0.94731903 8.7832775
-26.345974 85.559448 -0.88703853 8.1684999
-26.230307 85.878532 -0.97713238 9.4910212
-26.221571 86.300697 -1.0414003 9.0798969
-26.224537 86.611778 -0.99428433 9.5863581
-26.167068 86.914986 -0.98500121 9.7178831
-26.184849 87.384163 -0.94136816 8.4674997
-26.219313 87.839157 -0.87866127 9.507556
-26.257559 88.177116 -0.9121027 9.9823656
-26.113518 88.532143 -0.87319773 10.925893
-26.242584 66.311539 -0.65736735 8.1313505
-26.250875 66.513756 -0.70645881 8.1415005
-26.199724 66.951241 -0.6246838 8.0817995
-26.050886 67.34729 -0.71953756 8.2030554
-26.180401 67.776154 -0.59998959 8.3133497
-26.175547 68.16983 -0.67094082 8.1063004
-26.353222 73.69471 -0.43175033 9.1440001
-26.054371 74.312012 -0.7864275 8.1639996
-26.155571 74.489655 -0.7001912 8.7256498
-26.082891 79.166435 -0.43542045 9.1470003
-26.078981 79.535332 -0.78251833 10.1285
-26.026981 79.672974 -0.51119691 9.0980005
-26.065016 80.002548 -0.44007304 9.1435003
-26.238155 80.660088 -0.59055763 8.9697371
-26.157309 80.865379 -0.54853904 9.9580011
-26.385717 81.272987 -0.40658498 9.1035004
-26.186432 83.805847 -0.55652291 10.694583
-26.21891 84.088867 -0.47303423 12.198194
-26.35508 84.615593 -0.44886678 10.444334
-26.358587 85.1474 -0.71492773 9.0719995
-26.29987 85.42141 -0.5227375 9.4093332
-26.270561 85.818207 -0.60806155 10.709975
-26.247858 86.239433 -0.6266728 9.7437086
-26.264839 86.609818 -0.66360193 10.090712
-26.231873 86.966637 -0.58921826 11.962769
-26.200371 87.465782 -0.56087834 11.649403
-26.220524 87.824501 -0.63976181 11.218994
-26.200117 88.154915 -0.60869604 10.84076
-26.075022 88.598145 -0.64841741 11.464023
-26.309212 88.920265 -0.48344186 9.8217497
-26.125164 65.827568 -0.15393005 8.9298
-26.14039 66.110741 -0.14261615 9.0216875
-26.242863 66.596527 -0.14283875 8.8822184
-26.234924 66.971161 -0.12432632 9.1090508
-26.259834 67.412308 -0.13638371 9.0275164
-26.237116 67.828117 -0.19358505 9.1022749
-26.160627 68.171021 -0.097311132 8.7128181
-26.241339 68.534317 -0.18857558 9.119523
-26.389114 69.519135 -0.24070726 8.1315002
-26.139269 72.77372 -0.11515056 10.1285
-26.305792 72.974091 -0.073923714 10.136333
-26.071327 73.469788 -0.079728715 8.7003002
-26.206776 73.714668 -0.162909 9.805583
-26.076401 79.137421 -0.21453369 9.0997505
-26.117138 79.414948 -0.26893893 9.5867815
-26.095245 79.670822 -0.24371837 9.0561008
-26.145943 80.208237 -0.35263175 9.0880995
-26.257809 80.652695 -0.28054434 9.5888968
-26.182701 80.884209 -0.25174832 9.6583395
-26.225315 81.350067 -0.13649474 11.127999
-26.145067 83.854286 -0.31663629 9.5420008
-26.205076 84.180405 -0.23320225 10.488999
-26.257069 84.579216 -0.20284078 10.720971
-26.262125 84.969162 -0.1855208 11.296578
-26.321276 85.543457 -0.22576474 12.858056
-26.310183 85.763351 -0.24019668 11.80055
-26.263586 86.278427 -0.20758629 10.571046
-26.256933 86.547455 -0.30430725 10.810875
-26.274586 86.995995 -0.27059788 11.653844
-26.18474 87.469597 -0.27773124 9.9175005
-26.203926 87.819252 -0.22116967 10.231861
-26.201986 88.268051 -0.11730755 10.349166
-26.248228 88.597855 -0.19441244 10.000125
-26.331392 88.996277 -0.19952981 10.958652
-26.336327 89.272461 -0.17216073 13.682542
-26.145308 65.885147 0.070531726 9.6054993
-26.244867 66.218842 0.18134438 9.7963743
-26.173306 66.532722 0.2087803 9.3566866
-26.102282 66.981064 0.2153791 9.9315004
-26.20332 67.356071 0.20689182 9.1194162
-26.216228 67.759766 0.22745413 9.2159443
-26.191631 68.248993 0.2138426 9.5425835
-26.256588 68.50351 0.22406326 9.381999
-26.317469 70.888718 0.052685302 7
-26.109991 71.76902 0.28100944 10.09825
-26.123571 72.210526 0.29047498 9.5657501
-26.137463 72.614403 0.24960698 10.073
-26.240776 72.960258 0.22969973 9.84025
-26.237326 73.418625 0.24117875 10.069
-26.159864 73.779007 0.27529332 10.6125
-26.123516 74.152611 0.18677574 9.39575
-26.134171 74.636681 0.21872506 10.45025
-26.234543 74.93058 0.17968699 10.210818
-26.184208 75.229935 0.14185186 9.0959997
-26.267061 77.445694 0.32853886 12.1305
-26.133139 79.479744 0.19202144 10.17805
-26.101446 79.784004 0.25576857 9.7719173
-26.176437 80.209618 0.29991722 9.9078999
-26.265993 80.640167 0.21797886 9.9764118
-26.266813 80.925346 0.28979316 11.68635
-26.218285 81.495461 0.070517682 12.098499
-26.255787 81.645721 0.17626013 12.134
-26.327068 85.529633 0.25162047 10.455083
-26.245958 85.771973 0.18340792 13.978384
-26.151936 86.175957 0.13685048 12.433415
-26.320789 86.530228 0.056935038 13.204
-26.16251 87.002533 0.1701619 10.412724
-26.14226 87.396301 0.2952368 11.076
-26.179668 87.893082 0.17655988 10.907556
-26.222332 88.194061 0.15508698 10.267222
-26.3176 88.659393 0.051545419 11.520958
-26.239288 89.188065 0.12320387 13.002
-26.110779 66.394005 0.434854 10.151
-26.229116 66.648163 0.5259186 10.132249
-26.180975 66.968269 0.57201838 10.351528
-26.179213 67.454712 0.58196276 10.550472
-26.24868 67.725258 0.53389698 9.2496328
-26.230686 68.240601 0.60144651 9.6756868
-26.150412 68.583046 0.5180102 10.246667
-26.386776 69.003395 0.45390457 11.1285
-26.196102 71.835388 0.51406282 10.077126
-26.20957 72.631821 0.54782355 10.275857
-26.192842 72.941437 0.62929744 10.394178
-26.190559 73.339836 0.60306853 9.7640562
-26.176573 73.753143 0.61343253 10.61425
-26.191757 74.187996 0.60647649 10.760666
-26.142248 74.555389 0.6179713 10.759999
-26.033051 76.836555 0.57295716 9.0815001
-26.183535 77.475304 0.57230741 11.343375
-26.206095 77.681664 0.73365009 10.757833
-26.220612 79.442665 0.59302777 10.337
-26.170294 79.793846 0.68187648 10.693313
-26.254639 80.14991 0.68356001 10.719083
-26.246675 80.677979 0.58680433 11.34988
-26.161924 80.970726 0.58667523 11.446153
-26.188776 81.405441 0.61642998 12.002094
-26.157213 81.755501 0.52955872 12.452
-26.088175 84.617996 0.56482893 9.0874996
-26.218266 84.990707 0.64775431 10.11925
-26.283638 85.48542 0.55602103 9.8910313
-26.232687 85.736885 0.63684863 10.373751
-26.291204 86.538658 0.59271938 12.19725
-26.215675 87.083862 0.6462211 9.4788256
-26.197699 87.413193 0.58794051 9.364893
-26.214905 87.803246 0.5188483 10.7495
-26.107632 88.137886 0.57686031 12.004043
-26.19845 67.764992 0.84573191 10.09
-26.196192 72.6222 1.019374 11.311357
