# .PCD v0.7 - Point Cloud Data file format
VERSION 0.7
FIELDS x y z intensity
SIZE 4 4 4 4
TYPE F F F F
COUNT 1 1 1 1
WIDTH 725
HEIGHT 1
VIEWPOINT 0 0 0 1 0 0 0
POINTS 725
DATA ascii
-225.35771 98.928413 9.925704 11.0445
-224.80074 100.40025 9.8362103 11.044
-221.31088 95.305962 25.289873 15
-221.34543 95.613441 25.507088 15
-220.86505 94.816422 25.099838 15
-220.99866 95.083344 25.244379 15
-221.03477 95.34668 25.363605 15
-221.16823 95.435196 27.00432 14.1715
-220.41966 95.503395 20.208641 14
-220.42227 94.531181 21.574444 14
-220.69156 95.129494 21.495657 15.051
-220.49289 94.817116 21.745775 14
-220.66299 95.204903 23.678074 13.1705
-220.50035 94.296211 24.353621 15
-220.56476 95.612328 24.382198 13.0225
-220.49622 94.363609 24.496195 15
-220.48613 94.541824 24.758867 15
-220.63553 95.308762 24.629942 13.1715
-220.61046 94.570107 25.07283 15
-220.7054 94.984695 25.301401 15
-220.58597 94.881157 26.764816 14.008
-220.1541 95.308197 20.176174 14
-220.24188 95.035866 20.943871 15.04525
-220.10194 94.23407 21.527063 14
-220.18941 94.64286 21.746822 14.345833
-220.16356 94.647621 22.05056 14.1025
-220.23776 94.916008 22.331264 15.0365
-220.15262 94.752953 23.092081 13.17
-220.09691 93.868401 23.827364 15
-220.342 94.09362 23.854349 15
-220.08296 93.941101 24.071302 15
-220.29883 94.135368 24.169781 15
-220.22206 94.222572 24.59626 15
-220.21191 94.211159 25.027409 15
-220.27924 94.501419 25.150475 15
-220.35834 94.746246 25.306973 15
-220.06459 94.592728 26.615915 14.012
-219.664 94.793213 16.896206 13
-219.77847 94.581093 17.778301 14.046249
-219.66237 93.982544 18.085552 13
-219.81139 94.057175 18.010767 13
-219.82944 94.432838 18.950825 14.0385
-219.79205 94.981956 20.139885 14
-219.70486 93.586441 20.875599 14
-219.66583 93.753708 21.143045 14
-219.79614 94.700951 20.814444 15.0465
-219.79822 93.791878 21.418028 14
-219.78702 94.174194 21.509569 14.350333
-219.93573 94.330261 21.687523 14
-219.72174 94.443031 21.88002 15.039
-219.79715 94.298103 22.192125 14.1025
-219.61069 94.473557 22.406996 13.022
-219.98759 94.23362 23.020361 13.174
-219.82054 93.697372 23.880888 15
-219.83438 93.745972 24.173569 15
-219.74817 93.832161 24.539783 15
-219.92506 94.087578 24.690174 15
-219.80637 93.876717 24.977398 15
-219.8839 94.260704 25.135756 15
-219.62085 94.172653 25.284061 15
-219.92334 94.421455 25.322887 15
-219.7952 94.73597 25.768764 14.022
-219.89462 94.400597 26.580887 14.174
-219.52052 103.49019 9.8421316 9.0155001
-219.298 90.189964 12.107123 10.171
-219.41656 94.540268 16.879478 13
-219.28772 93.36998 17.908916 13
-219.54956 93.785706 17.973701 13
-219.37761 94.189758 17.841583 14.0445
-219.40213 93.751572 18.06398 13
-219.47589 94.186333 19.127171 12.096
-219.40012 93.286255 19.458817 12.177
-219.21106 94.49366 19.742594 14.069
-219.37515 94.130264 20.170219 12.0225
-219.29137 94.530449 20.090588 14
-219.49524 93.357063 20.63018 14
-219.33372 94.293182 20.647919 14.034
-219.41206 93.462326 21.011337 14
-219.2328 94.159966 20.874329 13.022
-219.36975 93.45372 21.37188 14
-219.39586 93.825516 21.430649 14.262875
-219.50919 93.962982 21.643049 14
-219.44209 94.277092 22.737795 13.169999
-219.49544 94.178749 23.057381 13.131625
-219.38588 94.115379 23.461203 13.121333
-219.36026 94.427597 23.54006 13.023
-219.43356 93.371483 23.834785 15
-219.29184 94.447998 23.730267 14.0235
-219.43105 93.41716 24.117718 15
-219.28918 94.313278 24.134705 14.022
-219.40021 93.636948 24.630823 15
-219.23729 93.424774 24.905867 15
-219.46373 93.751862 25.010485 15
-219.47871 94.02137 25.118704 15
-219.37009 93.917511 25.258968 15
-219.53659 94.531219 26.369671 14.17
-219.39772 94.282227 26.436592 14.0155
-219.47969 94.462738 26.485886 14.17
-219.33414 94.321053 26.828197 14.022
-219.02356 93.48642 14.648864 12.1035
-219.01537 93.558098 15.453403 13.0505
-218.98328 93.698174 15.669319 11.1725
-219.00192 93.51403 16.000675 11.1715
-219.18695 94.407639 16.560505 13.069
-218.91873 94.125023 16.836103 13
-218.88901 92.845245 17.457365 13
-218.96167 93.037704 17.844629 13
-219.06647 93.374161 17.933176 13
-219.13704 93.982025 17.666916 12.022
-218.95758 93.416321 18.021368 13
-218.99039 93.609192 18.366999 14.0505
-218.95816 93.016602 19.364607 12.0005
-218.86542 93.50145 19.553774 12.0185
-219.1879 93.039993 20.392462 14
-218.92389 94.211609 20.053438 14
-219.08495 93.03743 20.662497 14
-219.17557 93.150681 20.886139 14
-219.16444 93.311157 21.097223 14
-218.96701 93.122818 21.330671 14
-218.94624 93.392609 21.492899 14
-219.08759 93.614571 21.597868 14
-218.87074 93.683083 22.886049 13.0185
-218.99838 93.033287 23.877382 15
-218.91664 93.001831 24.113964 15
-219.15971 93.240135 24.205069 15
-219.05386 93.920128 24.13306 13.1715
-218.86264 94.031479 24.137609 13.1725
-219.14088 93.420746 24.600988 15
-218.979 93.18618 24.878712 15
-218.92358 93.451721 25.094412 15
-219.06964 93.662659 25.071075 15
-219.05338 93.704758 25.334974 15.05175
-218.80528 93.861427 26.261862 14.0185
-219.16821 94.521103 26.962742 15.0235
-218.50786 93.09127 12.958236 12.038
-218.77724 92.691086 14.404924 12
-218.787 92.961372 14.439112 12
-218.53865 93.088493 15.845727 11.793334
-218.60475 93.273232 15.665815 11.1715
-218.43614 93.705414 16.796743 13
-218.63963 92.521988 17.075464 13
-218.696 93.913597 16.819832 13
-218.42615 92.385651 17.288916 13
-218.65924 92.574806 17.285114 13
-218.50113 93.460083 17.458881 13.03475
-218.56693 92.68602 17.814837 13
-218.65398 92.995926 17.84889 13
-218.62656 93.564194 17.617388 14.045
-218.40776 93.220184 18.819647 14.037
-218.66229 92.60083 20.340483 14
-218.58012 93.77507 20.157621 14.012751
-218.66409 94.019592 20.023191 14
-218.60921 92.629112 20.580679 14
-218.45554 93.526947 20.468037 14.03475
-218.63046 93.686859 20.557673 15.04525
-218.76099 92.896713 20.951601 14
-218.43481 92.657257 21.280806 14
-218.65889 92.964561 21.364246 14
-218.65157 93.224091 21.43494 14
-218.76996 93.132866 22.744007 13.0005
-218.52887 93.807533 23.421505 15.0255
-218.56371 92.666054 23.78879 15
-218.77945 92.842163 23.951115 15
-218.62152 93.444077 23.836779 13.637
-218.56381 93.678421 23.658163 13.597
-218.56784 92.729584 24.071125 15
-218.77164 92.913483 24.297915 15
-218.72881 93.08297 24.553314 15
-218.42308 92.752411 24.809523 15
-218.59491 92.978226 24.889452 15
-218.70541 93.261612 24.994041 15
-218.73187 93.090233 26.249941 14.177
-218.77097 93.331619 26.230303 14.0005
-218.01111 92.234772 11.795419 10
-218.12471 91.599365 12.266429 10
-218.35654 91.614471 12.375698 10
-218.27155 92.785843 12.24826 12.052
-218.07213 92.736458 12.732689 12.04
-218.32706 92.931854 12.720851 12.038
-218.02975 93.06881 13.976709 10.0235
-218.17725 92.153854 14.180893 12
-218.16849 92.585907 14.428905 12
-218.21613 92.821159 15.113524 13.052
-218.01015 92.772346 15.550214 13.04
-218.26109 93.018433 15.461318 13.040001
-218.15709 91.770409 15.651423 11
-218.36206 92.794106 15.797514 11.1715
-218.05109 92.806953 15.620163 13.039
-218.1806 93.478683 16.776743 13
-218.14607 92.145264 17.168896 13
-218.12222 93.271637 17.150717 11.0235
-218.21355 92.26255 17.380255 13
-218.34862 92.537277 17.577625 13
-218.15594 92.326309 17.783573 13
-218.25352 92.666847 17.868147 13
-218.25235 92.818344 17.961842 13
-218.14474 92.951889 18.474104 14.0385
-218.06793 91.890244 19.049055 12
-218.18597 92.779388 18.927904 12.1705
-218.28763 92.962791 19.6348 12.1715
-218.07109 93.453346 19.971798 14
-218.03946 93.423531 20.336481 12.0235
-218.13562 92.231941 20.557058 14
-218.26126 92.512093 20.939293 14
-218.14122 92.94928 21.046007 15.05175
-218.18338 92.539001 21.301653 14
-218.22348 92.977005 21.388453 14.519
-218.2597 92.982841 21.72311 14.1035
-218.36694 93.281219 21.771378 15.037
-218.2579 93.118271 23.389807 13.404125
-218.04184 92.23645 23.866478 15
-218.24167 92.425659 23.850746 15
-218.23566 93.435242 23.623072 13.0975
-218.10013 92.355164 24.143583 15
-218.38632 92.56794 24.131165 15
-218.34412 93.406845 24.031532 13.172
-218.22177 92.633057 24.639721 15
-218.20847 92.750488 24.902334 15
-218.31764 93.030205 25.056328 15
-218.0164 92.232346 25.962648 14
-218.27954 93.17141 26.005484 14.1705
-218.30197 93.759552 26.838507 15.0225
-217.78786 91.892921 9.8192282 11
-217.94815 92.119118 9.9549818 11
-217.84367 91.720596 10.77827 9
-217.61154 92.059448 11.868174 10
-217.72102 91.797104 12.025991 10
-217.64064 93.34053 12.888092 10
-217.72903 91.770699 13.967313 12.0915
-217.62425 92.444344 13.838076 10
-217.93085 92.060776 14.254698 12.049749
-217.60022 92.14444 14.419086 12
-217.63553 92.185669 15.30207 11
-217.88716 92.424614 15.325837 11.797333
-217.75673 91.659836 15.830448 11.0085
-217.64037 93.530945 16.076195 11
-217.69435 93.049149 16.739082 13
-217.65253 92.623734 16.975111 11
-217.84421 91.951675 17.379736 13
-217.83109 92.850647 17.489901 14.04525
-217.60645 91.876648 17.739094 13
-217.83652 92.1847 17.800745 13
-217.93637 92.489746 17.897285 13
-217.95377 91.905602 18.997395 12
-217.94472 92.596268 18.973377 12.1705
-217.71553 93.126167 19.940071 14
-217.61932 92.782112 20.239826 15.049
-217.74893 92.855194 20.336435 15.045
-217.71805 91.899437 20.476694 14
-217.85318 92.052582 20.651382 14
-217.79559 92.190948 20.965319 14
-217.60268 91.966286 21.200106 14
-217.76093 92.202881 21.258192 14
-217.88316 92.477051 21.337994 14
-217.93115 92.894089 21.355211 15.039499
-217.62125 92.531136 21.882275 15.0355
-217.90347 92.039436 22.437778 13
-217.81503 92.729706 22.610645 13.1705
-217.65468 92.522186 23.068424 13.1715
-217.96065 93.64962 22.971676 15.0295
-217.63245 93.030075 23.438362 13.011499
-217.68965 91.974823 23.856337 15
-217.8024 92.093147 23.832098 15
-217.84274 92.132431 24.11648 15
-217.75 92.16127 24.73728 15
-217.91772 92.406631 24.4632 15
-217.69998 92.269012 24.851767 15
-217.85837 92.598373 24.985403 15
-217.60699 92.538147 25.272724 15.104
-217.85651 92.226349 25.937218 14
-217.85425 92.934235 26.349768 14.1705
-217.62683 92.722382 26.436483 14
-217.62717 93.128387 26.683096 14
-217.46724 90.909737 8.2115536 9
-217.4742 91.438446 9.0885572 11.046
-217.34608 91.556686 9.8172264 11
-217.58266 91.818588 9.9056416 11
-217.47096 90.968819 10.732964 9
-217.36414 91.253204 10.716846 9
-217.27855 90.486542 10.884551 10.0245
-217.45592 91.831696 11.727064 10
-217.51823 91.070671 12.180805 10
-217.34483 92.699738 12.772373 10
-217.338 91.60614 12.842337 10
-217.31256 92.259781 12.837632 10
-217.33998 91.365356 13.89948 12
-217.45668 92.500267 13.979449 10.023
-217.42746 91.702072 14.183052 12.04725
-217.45642 91.228386 15.505436 11
-217.35094 91.900703 15.320774 11.056999
-217.48462 92.16243 15.36954 11.173
-217.31825 91.453499 15.81636 11.0125
-217.36023 91.718857 15.911507 11.016
-217.21896 92.651802 16.700464 13
-217.46375 92.846146 16.721443 13
-217.59393 92.728233 17.11183 11.023
-217.58032 91.732193 17.359961 13
-217.33653 91.837379 17.766258 13
-217.58186 92.187485 17.824024 13
-217.51666 92.292892 18.794525 12
-217.55286 92.410454 18.699917 12
-217.3007 91.358833 18.848806 12
-217.45158 92.246452 19.014557 12.056999
-217.42781 93.653259 19.26055 12
-217.21559 92.724571 19.888624 14
-217.43915 92.93071 19.907978 14
-217.37292 91.624229 20.366674 14
-217.58548 92.77697 20.138168 12
-217.45776 92.866348 20.145512 13.051001
-217.22789 91.475761 20.481356 14
-217.4782 91.709145 20.582832 14
-217.33768 91.773827 21.009205 14
-217.41946 91.959244 21.276436 14
-217.44977 92.154587 21.323606 14
-217.28658 92.198929 21.74803 14.1035
-217.24358 91.504623 22.257822 13
-217.37517 91.904556 22.336887 13.0085
-217.43411 92.543457 22.164143 13
-217.55418 92.49939 22.582829 13
-217.36214 93.810112 22.521822 13
-217.31474 92.316269 22.818501 13.171
-217.28641 92.184875 23.471647 14.1035
-217.20862 91.565697 23.76898 15
-217.44995 91.764999 23.79701 15
-217.25174 92.375626 23.81321 13.172
-217.42323 91.848129 24.17383 15
-217.20856 91.709457 24.676998 15
-217.50537 92.075676 24.416445 15
-217.4256 92.20697 24.902498 15
-217.24309 91.687881 25.742067 14
-217.39157 92.105408 25.720552 14.0085
-217.53812 92.767181 25.746502 14
-217.32726 93.99678 25.851582 14
-217.24182 92.378555 26.162861 14
-217.59557 92.682999 26.111845 14
-216.81621 90.406799 4.6525102 8.1715002
-217.18565 91.039726 7.6565275 8
-217.09172 90.183685 8.1791735 9
-217.00626 90.504005 8.1655045 9
-216.95354 91.459946 11.755063 10
-216.91669 90.542183 12.120789 10
-216.81879 91.699348 12.382425 12.053
-217.11472 91.85891 12.807302 10
-217.155 92.856972 12.812846 10
-216.96529 91.007591 13.884814 12
-217.0601 91.961884 13.741193 10
-216.81346 91.100204 14.188347 12
-217.06001 91.414207 14.319232 12
-216.9035 91.671837 15.122769 11.034101
-216.90794 90.703835 15.420686 11
-216.92442 91.479088 15.327706 11.114334
-217.1058 91.80571 15.374379 11.173
-216.9942 92.992821 15.948089 11
-216.98509 92.434906 16.684229 13
-216.98315 91.162949 17.127413 13
-217.12186 91.324806 17.084486 13
-217.08563 92.138008 16.85326 11
-217.11963 92.234619 17.314554 14.0475
-216.83205 91.322182 17.710459 13
-217.09267 91.694443 17.774605 13
-217.17575 92.092857 17.993156 14.052
-216.83502 90.826782 18.765984 12
-216.96524 91.58065 18.651682 12
-216.85022 91.756248 18.652723 12.1705
-217.11421 91.576569 19.009642 12.0125
-217.15736 91.993446 18.80625 12
-216.86913 93.142059 19.124268 12
-217.09607 92.377884 19.555641 12.1725
-216.90488 92.2146 19.913631 12.512
-216.86534 92.416473 19.856771 14
-217.00766 91.297615 20.33551 14
-217.04485 92.282883 20.155926 15.0475
-216.82336 91.194313 20.536333 14
-216.99396 91.298744 20.497719 14
-216.90311 91.409119 21.010263 14
-216.87679 91.502853 21.224995 14
-217.1273 91.742416 21.244823 14
-216.92508 92.14798 21.65494 13.0225
-216.9037 91.79084 22.189011 13.061
-217.15822 92.16333 22.441008 13
-217.08482 92.721519 23.110535 15
-217.03329 92.45108 23.202847 13
-217.02179 91.409531 23.790522 15
-216.81584 92.023598 23.638737 13.172
-217.11818 92.55648 23.718887 13.1725
-217.05099 91.483627 24.110142 15
-216.98576 91.620598 24.364433 15
-216.8295 91.486313 24.69169 15
-217.13538 91.822922 24.78384 15
-216.94788 91.857407 24.900431 15
-217.08163 92.270599 24.915823 14.348332
-216.92972 91.902901 25.583092 14.00625
-216.92102 92.220795 25.715618 14.034101
-217.12338 92.654564 26.505491 14
-216.45877 90.022972 12.105024 10
-216.71124 91.53643 12.737545 12.0375
-216.56137 91.850822 12.40812 12
-216.59145 91.872002 13.172089 10
-216.47643 90.616791 13.869629 12
-216.78339 90.851173 13.881589 12
-216.53638 91.524162 13.685854 10
-216.53221 91.008575 14.246769 12
-216.41644 91.584282 14.405532 13.046
-216.47018 90.906128 15.175307 11
-216.63606 91.297173 15.135665 11
-216.49364 91.893852 15.179727 13
-216.65173 91.579369 15.528397 13.0375
-216.797 91.65284 15.628325 11.172
-216.56934 91.609154 16.369673 11.0235
-216.49948 92.005981 16.263826 11
-216.57553 91.709198 16.765493 11
-216.47269 90.721344 17.091116 13
-216.75464 91.000801 17.058544 13
-216.55783 91.752747 17.083654 12.0225
-216.48854 90.983757 17.440269 13
-216.57251 91.090797 17.692284 13
-216.64551 91.387741 17.751694 13
-216.49738 91.957062 18.004217 14
-216.64497 90.816963 18.699942 12
-216.618 91.475616 18.690641 12
-216.77104 91.865868 18.533403 12.0075
-216.55869 91.327667 18.945431 12.016
-216.45358 91.745743 19.482903 12.0235
-216.4306 91.800194 19.839788 12
-216.50148 92.100319 19.823637 14
-216.67953 91.017082 20.343903 14
-216.55219 91.878006 20.152046 13.0225
-216.61295 91.016594 20.538614 14
-216.52086 91.087814 21.09627 14
-216.66711 91.295807 21.033484 14
-216.43576 92.015152 20.859118 15
-216.564 91.430832 21.294895 14
-216.54764 91.695358 21.233404 15.0375
-216.67593 90.972893 22.102724 13
-216.65149 91.800468 22.18919 13
-216.79834 92.051872 22.022322 13
-216.70648 93.264885 22.333885 13
-216.47147 91.90863 22.67827 13.0235
-216.47229 91.967651 23.032791 13
-216.6972 92.175255 22.998642 13.512
-216.60202 92.035507 23.291946 14.0225
-216.59851 91.055084 23.733456 15
-216.7995 91.276443 23.92135 15
-216.6667 91.170593 24.069008 15
-216.72173 91.396835 24.337313 15
-216.54642 91.160675 24.604349 15
-216.54858 91.407761 24.753603 15
-216.61087 91.57196 24.935846 15
-216.76587 91.683044 24.810076 15
-216.68201 91.157051 25.554886 14
-216.63979 91.838425 25.980839 14
-216.57124 92.115158 25.965202 14.0235
-216.76701 93.480682 25.663338 14
-216.42897 91.622795 26.076828 14
-216.62085 92.257149 26.221167 14.341334
-216.37575 90.138832 3.7445958 9.0515003
-216.04317 90.608948 11.544917 10
-216.24281 90.861198 11.591682 10
-216.23756 90.967316 11.619185 10
-216.22168 91.552818 12.350288 12
-216.06364 91.495293 12.42789 12
-216.39497 91.786957 12.485043 12
-216.03749 91.389297 13.080754 10
-216.00833 91.033524 13.560744 10
-216.09068 90.356293 13.893583 12
-216.27682 90.498627 13.883928 12
-216.04344 91.108429 13.63679 10
-216.20853 90.589394 14.183751 12
-216.25682 90.967514 14.279663 12
-216.01749 90.763664 15.030804 11
-216.25089 91.070717 15.064075 11
-216.26997 91.328491 15.069313 11.7235
-216.3721 90.172394 15.353892 11
-216.37274 90.419296 15.47066 11.1775
-216.34702 91.825241 15.248195 13
-216.31639 92.875809 15.768251 11
-216.02429 91.186707 16.62495 11
-216.04742 91.430191 16.648315 12
-216.23291 91.75209 16.686714 13.03975
-216.21149 90.559479 17.139046 13
-216.33493 91.558884 17.13863 14.0455
-216.38455 91.626404 17.178461 14.046
-216.11526 90.595627 17.333786 13
-216.11443 90.682854 17.647003 13
-216.27884 91.009254 17.71188 13
-216.14169 91.657188 17.916059 14
-216.32817 91.879494 18.055584 14
-216.19971 90.297508 18.620764 12
-216.21368 90.55024 18.718208 12.1775
-216.23863 91.13855 18.630516 12
-216.18262 91.307327 18.426641 12.048715
-216.19946 91.133057 18.925514 12.1715
-216.31544 92.113396 19.371794 12
-216.16454 91.526077 19.852974 13.52275
-216.24156 91.734703 19.799109 14.357333
-216.24689 90.668747 20.34207 14
-216.1991 90.663162 20.521845 14
-216.11177 91.283035 20.53923 13.1015
-216.08168 91.71521 20.757254 15
-216.01669 90.622871 21.056858 14
-216.31821 90.958687 21.029795 14
-216.21783 91.927338 20.884315 15
-216.23566 91.13031 21.209291 14
-216.11368 90.434044 21.948395 13
-216.29002 91.194374 21.90991 13
-216.16197 91.48304 21.873947 13.056834
-216.14035 90.709709 22.028374 13.1775
-216.01263 91.109871 22.145628 13
-216.2247 91.393784 22.196814 13.004
-216.07082 91.261497 22.631699 13.1715
-216.06064 91.717979 22.637829 15.026
-216.28259 92.253403 22.560587 13
-216.1059 91.656609 22.915113 13
-216.2365 90.760704 23.561003 15
-216.17143 90.686584 23.738665 15
-216.33441 90.867355 23.777727 15
-216.30115 91.597549 23.858641 13.173
-216.00607 90.615417 24.00238 15
-216.3158 90.944977 24.167862 15
-216.2375 90.986877 24.651312 15
-216.23059 91.219147 24.753286 15
-216.0795 91.118912 24.87748 15
-216.35132 91.35112 24.907118 15
-216.1519 90.627983 25.368227 14
-216.3195 91.387566 25.389441 14
-216.2598 91.680283 25.423248 14.051001
-216.2233 91.63073 25.621428 14
-216.32143 92.434364 25.833042 14
-216.15413 91.78701 26.150215 14
-215.65941 90.460342 11.543237 10
-215.73515 91.206253 12.371369 12
-215.83347 90.136162 13.879858 12
-215.72696 90.22731 14.035696 12
-215.99747 90.443527 14.051199 12
-215.71196 90.609123 14.948113 11.056999
-215.67151 91.256485 15.106055 13
-215.96744 90.231598 15.423414 11.001
-215.73117 90.708908 15.487178 11.172
-215.65178 92.348969 15.553261 11
-215.87083 91.971611 15.724854 11
-215.68835 92.346344 15.644612 11
-215.965 91.527382 16.152294 11
-215.66048 91.26088 16.589676 13
-215.75607 90.150482 17.067665 13
-215.78516 91.109268 17.0455 14.048
-215.94626 91.229988 17.111813 14.0465
-215.72701 90.263931 17.307848 13
-215.94229 90.55188 17.399084 13
-215.80225 90.530792 17.665426 13
-215.96292 90.924393 17.739466 13.52625
-215.80605 91.447418 17.925468 14
-215.70041 90.314117 18.606724 12.001
-215.95535 90.927658 18.550097 12
-215.71532 92.1073 18.843807 12
-215.71565 91.530121 19.253345 14.03
-215.82329 91.646179 19.24662 12
-215.74567 91.13916 19.854225 15.048
-215.90674 91.389397 19.784933 13.517375
-215.74876 90.253838 20.298138 14
-215.9539 90.409821 20.317152 14
-215.70532 90.256973 20.506342 14
-215.67899 90.602997 20.633127 14.526501
-215.66913 90.862961 20.613997 15.0525
-215.89685 91.635933 20.791351 15
-215.75185 90.38018 21.036373 14
-215.82996 90.653244 20.983957 14
-215.96613 90.900902 21.184917 14
-215.72995 90.892387 21.435974 15.0365
-215.68839 90.493729 21.888384 13.001
-215.71184 91.001221 21.678715 13.368
-215.71085 91.76001 22.390951 13
-215.60999 91.209175 22.765715 13
-215.89221 91.480194 22.839479 13.511499
-215.83321 90.462769 23.512613 15
-215.7431 91.084839 23.330956 13.172
-215.67001 90.289459 23.728884 15
-215.87769 90.456329 23.705963 15
-215.80235 90.637184 24.242233 15
-215.83386 90.635437 24.587362 15
-215.94878 90.996948 24.720556 15
-215.81029 90.866699 24.851759 15
-215.62077 90.64238 25.213398 14.001
-215.64702 91.190903 25.219423 14
-215.86263 91.392593 25.867682 14.25575
-215.75327 91.939621 25.638416 14
-215.49458 90.180389 11.483621 10
-215.50357 90.932999 12.992857 10
-215.45428 90.605576 13.501336 10
-215.33411 90.193672 15.053053 11.085751
-215.56187 90.560791 14.97668 11.043
-215.47931 90.417694 15.293473 11.172
-215.42435 92.28038 15.438028 11
-215.31067 91.477158 15.613892 11
-215.43198 91.053955 16.041264 11
-215.43523 90.72496 16.499306 11
-215.40039 90.908363 16.560179 12
-215.55264 90.007019 17.114134 13
-215.49104 90.834129 16.947721 14.0485
-215.51247 90.150078 17.47727 13
-215.40871 90.188972 17.637779 13
-215.49004 90.72155 18.316086 12
-215.57765 90.818977 18.264441 12
-215.34302 90.399521 18.420107 12
-215.43001 90.682053 19.008865 12.172
-215.26541 91.163712 19.106133 12
-215.38641 90.859657 19.569332 12
-215.23573 90.680794 19.773062 15.049
-215.37234 91.03186 19.661871 13
-215.54254 91.242752 19.742403 14
-215.487 90.064285 20.194126 14
-215.48267 90.150406 20.59359 14
-215.58246 91.347382 20.700516 15
-215.47495 90.164848 21.009975 14
-215.42531 90.446014 21.136105 14
-215.35667 90.585091 21.978724 13
-215.50636 90.905602 21.795122 13
-215.58475 91.59581 22.224365 15.03
-215.58984 92.25473 22.011744 13
-215.39903 91.029724 22.707636 13
-215.46985 90.763008 22.952038 13.172
-215.52431 90.897606 22.923296 13.172
-215.46352 90.146477 23.4757 15
-215.4565 90.14399 23.718975 15
-215.40953 90.286987 24.206739 15
-215.46921 90.255836 24.492117 15
-215.41049 90.469856 24.691574 15
-215.41887 90.108032 25.156036 14
-215.51555 90.649681 24.815094 15
-215.57169 91.101204 25.350563 14
-215.57695 92.441345 25.266775 14
-215.42348 90.788498 25.615353 14
-215.58034 91.25135 25.965149 14
-215.27058 90.645828 26.17535 14.1715
-214.90608 114.22179 3.2046745 9.085
-214.96805 90.05619 12.434216 12.038
-214.87051 90.185829 12.959439 10
-214.97168 90.466263 12.905316 10
-214.90976 90.125946 13.37284 10
-215.12549 90.16349 14.799106 11
-214.97145 90.046089 14.874671 11.679501
-215.13609 90.142204 15.265985 11.172166
-215.11293 91.852737 15.48964 11
-214.89305 90.354164 15.986487 11
-214.87379 90.593307 15.925637 11
-214.96124 90.284744 16.397457 11
-215.00676 90.621468 16.583637 12.367833
-214.97041 90.391853 16.871555 14.0465
-214.81184 90.087875 17.600861 14.039
-214.97357 90.215996 18.191448 12.024428
-215.10403 90.184166 18.46192 12
-215.15282 91.610382 18.707502 12
-215.06903 90.25988 18.991833 12.172
-214.80548 90.493065 19.033241 12
-214.86008 90.507027 19.499701 12.01175
-214.9071 90.436279 19.630322 15.0465
-215.05875 90.84761 19.697685 14
-215.08432 90.28067 21.588697 13.171
-214.9689 90.459328 21.541653 13
-214.94641 90.373291 21.674532 13
-215.08949 91.759857 21.866369 13
-215.04013 90.336853 22.026598 13
-214.86861 90.662239 22.167601 13
-215.18491 91.285522 22.234344 13
-215.05171 90.529137 22.565504 13.107701
-215.14243 90.481125 22.834101 13.172
-215.1405 90.071808 24.178934 15
-214.99425 90.193481 24.690966 15
-215.0437 90.605148 25.073156 14.0342
-215.02824 91.928711 25.082867 14
-214.80275 90.258972 25.429447 14
-215.08826 90.564346 25.315977 14
-214.86531 90.830582 25.348282 14
-215.19742 91.453674 25.448156 14
-215.11572 90.634468 25.724075 14
-215.11732 91.018478 25.897064 14.0235
-214.79318 91.000931 15.511327 11
-214.56503 91.357811 15.382186 11
-214.79663 91.749924 15.317047 11
-214.71107 90.426956 16.524885 13
-214.56708 90.037544 16.82217 14.047
-214.55441 91.107307 18.563166 12
-214.45839 90.058327 19.198982 13.0245
-214.73138 90.693268 18.971588 12
-214.57338 90.142532 19.515137 14.285376
-214.71255 90.512932 19.673605 14
-214.76678 90.146523 20.39395 15.039
-214.76273 90.0653 21.826794 13
-214.49365 91.255562 21.696114 13
-214.6266 90.82164 22.069738 13
-214.47552 90.22805 22.427057 13
-214.5509 90.202271 24.070799 14.023
-214.4558 90.212463 25.185627 14
-214.4726 91.434883 24.897959 14
-214.45721 90.327782 25.577269 14
-214.62042 90.981941 25.252415 14
-214.68051 90.525467 25.626535 14
-214.22829 90.514893 15.399797 11
-214.22914 91.260559 15.207695 11
-214.36652 90.136749 15.820126 11
-214.35831 90.132912 16.499681 13
-214.02069 90.629456 18.434034 12
-214.19637 90.127235 18.859348 12
-214.34424 90.228142 19.638443 14
-214.12585 90.363968 21.920822 13
-214.33005 90.16713 22.082142 13.51225
-214.3253 90.087418 25.02877 14.256124
-214.05263 90.502342 25.059324 14
-214.27269 90.091782 25.559843 15
-213.7103 90.744247 15.107207 11
-213.66068 90.048363 15.288043 11
-213.94072 90.852554 15.219808 11
-213.95828 90.775276 21.542505 13
-213.92557 90.948738 24.716158 14
-213.48785 90.396881 15.211624 11
-213.50711 90.162529 18.309797 12
-213.36456 90.297363 21.373983 13
-213.38353 90.469063 24.53635 14
-213.5594 90.064873 24.890879 14
-213.07234 110.73928 10.45593 11.027
-212.83513 90.007652 24.3556 14
-212.71652 90.025307 18.101824 12
-212.6008 90.167397 21.161781 13
-212.55251 90.33316 24.292965 14
-212.41124 90.457283 27.45631 15
-210.12294 115.6253 2.8621471 9.0880003
