# .PCD v0.7 - Point Cloud Data file format
VERSION 0.7
FIELDS x y z intensity
SIZE 4 4 4 4
TYPE F F F F
COUNT 1 1 1 1
WIDTH 1228
HEIGHT 1
VIEWPOINT 0 0 0 1 0 0 0
POINTS 1228
DATA ascii
-44.894058 0.50222266 3.8925261 13.279627
-45.042725 1.4236071 3.8183563 14.309799
-44.988613 1.826498 3.7561305 12.069812
-44.973831 2.0856874 3.7380812 12.4904
-44.901188 2.5725687 3.7165461 15.1675
-44.837425 3.0944781 3.7008772 11.0155
-44.857231 3.4275508 3.6610105 12.1365
-44.991257 3.9025447 3.8682783 14.615999
-44.937855 4.2231603 3.7094321 14.366813
-45.012264 4.6556468 3.8348119 13.506048
-44.896961 5.0727224 3.8158753 12.569046
-44.972397 5.4009061 3.7819822 12.800007
-45.003746 5.7834339 3.7755988 13.598157
-45.029579 6.2183266 3.8020191 13.021268
-44.941387 6.6055164 3.7065423 14.614333
-45.015099 7.0549531 3.8373091 13.145333
-44.956726 7.3313317 3.8631251 13.940917
-45.047493 7.8543725 3.7537808 11.0677
-44.930943 8.2577848 3.8197081 13.068601
-45.078606 8.6288118 3.823571 13.380662
-45.036808 8.9442968 3.7647164 12.137887
-45.057617 9.3973713 3.7626817 12.923607
-45.019939 9.8552828 3.7895651 12.231
-45.052578 10.082506 3.6985114 13.570078
-44.958836 17.529337 3.8877213 12.0795
-45.052937 17.787214 3.924895 12.311749
-45.08313 18.30476 3.8049293 12.058599
-45.112076 18.594721 3.7781041 12.781027
-45.027855 18.958191 3.7893617 12.319925
-45.116276 19.332399 3.8058126 12.081714
-45.053627 19.768101 3.9207108 10.041
-44.987827 0.23977874 4.2253952 13.933114
-44.942108 0.51328176 4.1016192 12.668821
-44.920002 1.0527838 4.1357541 13.57625
-45.012688 1.508695 4.1493039 13.453834
-44.902832 1.833468 4.2090192 11.724334
-45.118549 2.2493753 4.2541614 12.987591
-44.971367 2.4702997 4.2274299 13.729667
-45.029198 3.5216739 4.1584215 15.15875
-44.800938 3.7333379 4.3064928 15.163
-44.963356 4.2174211 4.1416531 15.10775
-44.852737 4.6904869 4.198905 12.0411
-44.959045 4.9990964 4.2368035 12.51071
-45.00386 5.431324 4.1696391 13.167097
-45.029594 5.7452836 4.2377539 13.745099
-45.071808 6.2947221 4.2483845 13.418654
-44.869953 6.6421676 4.1595201 14.06475
-44.950684 7.4048805 4.1737981 14.263165
-44.894867 7.7967052 4.2032542 13.66225
-44.994129 8.1921635 4.1480322 11.919556
-44.953472 8.5802765 4.1675863 13.267389
-44.993752 9.0339804 4.2428436 12.7547
-44.990063 9.3828344 4.1237822 12.925226
-44.996086 9.8394251 4.2666602 12.708499
-44.963509 10.08066 4.2464805 12.009
-45.066078 17.850452 4.1606336 12.710727
-45.052902 18.18306 4.2220278 13.09125
-45.064327 18.637144 4.1854129 12.601182
-45.064754 19.014652 4.1719747 13.459888
-45.004036 19.344141 4.2365451 13.257
-45.046196 19.639717 4.2831655 11.737332
-45.148003 0.25108624 4.5834837 15.1145
-44.866203 0.5223099 4.5839849 15.12575
-44.939098 1.0431235 4.73312 12.305
-44.986534 1.4636093 4.7327385 12.08075
-45.023735 1.8394626 4.7024393 14.026751
-45.019035 2.1548576 4.5108442 13.088917
-44.951786 2.7637336 4.5764666 9
-44.906902 4.1654825 4.680409 14.580571
-44.942841 4.566503 4.7140212 13
-45.048267 4.9860988 4.4840932 13.671666
-44.949898 5.4465485 4.4904108 13.078668
-44.969677 5.8115997 4.7112045 12.0504
-45.036919 6.1317611 4.6236238 13.394166
-45.001507 6.7055836 4.6003094 12.530124
-45.094063 7.0021048 4.6287203 12.618001
-44.935841 7.4558787 4.5039835 12.8785
-45.087116 7.7032719 4.4682603 10.021
-45.009281 8.1477823 4.5965881 12.01
-45.004879 8.6878614 4.5298972 13.2954
-44.977531 9.0332088 4.6065211 12.271555
-44.972305 9.5084219 4.5591645 12.228399
-44.907158 9.9375324 4.4442086 12.01
-45.009476 18.273195 4.5404587 12.575333
-45.049969 18.572678 4.6283393 13.226093
-45.02243 18.994375 4.6201715 12.615642
-44.969688 19.312826 4.653625 12.898861
-45.045597 19.612242 4.7136202 14.1
-45.026825 0.38563713 4.9014893 15.121
-45.112106 1.8026119 4.9478383 13.739667
-44.954391 2.2758567 5.0066013 11
-45.111305 2.4699383 5.0023131 11.017
-44.955967 4.2703061 5.1220107 13.07
-44.965923 4.6276274 4.9564238 14.161893
-44.970284 4.9928541 4.9992208 13.448
-45.016052 5.2946768 4.9297276 13.222501
-44.979752 5.8494682 4.9760361 12.370416
-45.033134 6.1756287 5.1181054 13.276625
-44.931355 6.6957865 4.9146104 13.308249
-45.111595 6.9769058 5.0322657 12.152285
-45.070965 7.2181425 4.9473848 11.0075
-44.814156 7.8560619 4.9116044 12.708417
-45.098576 9.0272236 4.8492599 13.55775
-44.936073 9.3805714 4.9820948 13.071834
-44.961021 9.8971043 5.1498189 10.006
-45.070351 18.239269 5.1539211 12.582001
-45.084335 18.50297 5.0876055 14.059125
-45.042286 19.037098 4.9686584 13.406612
-45.049301 0.70582759 5.3878126 14.064
-44.88142 0.81298602 5.2508121 12.103
-44.925083 1.4947469 5.3878632 15.1205
-44.890697 2.340698 5.5446863 14.113
-44.922131 2.7966764 5.3331933 12.1005
-44.946941 4.7539959 5.2960753 10.5435
-44.957493 4.984231 5.415379 11.7275
-45.099861 5.3984165 5.4396782 10
-44.807762 5.8305154 5.4507923 13.015
-45.075668 6.2203007 5.3939152 12.54775
-44.911308 6.4876103 5.3723502 12.8685
-45.074959 7.0189757 5.4318047 13.676708
-45.109837 7.3473487 5.3800631 12.217299
-45.189754 8.8460751 5.2426481 10.007
-44.840389 9.3727322 5.41433 13.0085
-45.099033 18.26911 5.332727 12.229167
-45.077919 18.67189 5.3899007 13.689674
-44.983955 18.962404 5.3835444 13.427001
-45.055141 19.257706 5.4437008 14.587999
-45.150532 19.660908 5.2122722 14.099
-44.882771 0.22081374 5.7669363 12.055333
-44.902481 1.2891766 5.8779941 13.5185
-44.841145 1.8270928 5.6137977 14.1115
-44.981094 3.1326883 5.7145195 14.025
-44.977741 4.1484604 5.9058061 13.0755
-44.877922 4.5983906 5.8542676 14.26075
-45.030487 4.9680867 5.7870908 13.014
-44.95396 5.9271941 5.7692814 10.053667
-44.926743 6.2947345 5.7129192 11.8355
-44.938206 6.5720663 5.7826853 13.109307
-45.061539 6.9969883 5.8142462 13.013
-44.980499 7.2152367 5.7153478 12.0075
-45.114326 18.320988 5.7590923 12.5
-45.115341 18.686691 5.6953053 13.063001
-45.042305 18.943304 5.8359184 13.636749
-45.000031 19.364559 5.8337488 15.137751
-45.013237 1.1841773 6.3086424 14.019
-45.095879 1.4161077 6.2956438 13.046
-45.13744 2.5835972 6.3047428 13.03075
-45.155102 3.0632529 6.1536579 14.5175
-45.119728 3.4490166 6.1024909 13.018
-44.910469 3.9755604 6.1942849 12.53025
-44.957924 4.2293959 6.2121863 13.581
-44.895172 5.1443033 6.1349912 12.5125
-44.996582 5.2596087 6.0371919 13.007
-45.011841 6.1952281 6.2222881 11.88975
-44.957275 6.6370354 6.1111975 13.0547
-44.998341 6.9575362 6.1745181 13.011085
-44.882751 7.3034859 6.2699881 13.512
-44.943043 9.4458494 6.1345725 11.0065
-45.041103 18.547518 6.0925994 14
-45.153217 19.193708 6.0108552 13.1755
-45.087631 1.0253476 6.7936916 15.0205
-44.87225 1.3030077 6.4998736 15.1045
-45.189865 1.8389922 6.4649119 15.0295
-45.086781 2.5622244 6.6204491 15.0255
-45.073898 3.0064535 6.6375098 12.735833
-45.071426 3.8754969 6.7113996 14.348001
-44.983414 5.2208586 6.4733634 11.0105
-45.095139 5.8405743 6.5597048 13.0485
-45.130024 6.2201934 6.562633 11.735333
-44.813599 6.6180935 6.5832648 13.511
-44.898346 7.0175257 6.5749874 14.346166
-44.929882 7.3444562 6.4328656 13.0095
-45.105846 0.22282405 6.8020339 15.0975
-45.033409 0.4273909 7.1140852 15.0275
-45.090553 1.4116715 7.0460958 14.0155
-44.896355 1.707914 7.0846729 15.0185
-45.03756 2.1448376 7.1083236 13.55775
-44.978767 2.4789209 7.1064472 13.705167
-44.816612 3.1238637 6.9860611 14.0135
-44.89212 3.2828834 7.0279098 13.1285
-45.059448 3.9018106 6.8802533 14.01325
-45.112068 4.1369491 6.932807 14.51375
-44.904755 4.9902425 7.1131196 15.016
-45.132736 6.1339154 6.8785505 14.04825
-44.997692 6.551806 7.076097 14.346168
-44.867928 7.3620753 7.0374527 15.0115
-44.929337 7.6844821 6.9960613 15.011
-44.820839 1.2892624 7.4243388 14.57975
-45.037613 1.8820323 7.3213663 12.1025
-44.876827 2.7240942 7.5250826 14.1765
-44.954258 2.9221449 7.3110943 13.681167
-44.954498 3.4797873 7.5002799 14.369334
-44.939564 4.0970492 7.5773997 15.0175
-45.140556 6.2963257 7.4189677 15.0145
-44.956017 7.3659439 7.2880011 12.0085
-45.023777 0.13671097 7.6949997 12.0975
-45.084663 0.59174865 7.7068601 14.01925
-44.916466 1.0807436 7.63269 14.0765
-44.879059 1.7314583 7.820509 15.0195
-44.856079 2.1864328 7.9305425 15.01725
-44.875713 2.6499422 7.9346881 15.078
-44.957962 2.8576925 7.8180265 11.584499
-44.885967 4.0737882 7.7763581 14.0135
-44.919788 0.099597648 8.2071018 12.06425
-44.892689 0.43718305 8.3924513 11.01
-44.934738 2.3035638 8.124362 13.0495
-45.004108 2.5871818 8.1276207 15.017833
-44.934814 3.7126729 8.275486 11.053
-44.871704 6.908093 8.3286476 13.009
-45.199379 0.92058378 8.4837847 15.0185
-44.973694 1.8541601 8.4960957 11.052
-45.055637 2.2661314 8.5832825 13.550751
-44.858967 2.4909568 8.7207165 12.08525
-45.118889 3.5026538 8.5353918 13.369667
-44.802322 0.27636296 8.9266748 13.1755
-44.911781 0.46884507 9.0529432 13.176
-45.112846 1.7548246 9.00912 13.0135
-45.024902 2.1563547 9.0970325 14.049999
-44.875538 2.6526487 9.1006384 12.086
-44.994522 2.7210557 9.4503345 13.0965
-45.090618 2.1945534 9.9816055 13.0845
-45.021824 2.579982 9.7882862 13.2759
-45.062607 2.8605852 9.7904549 14.0975
-44.902584 2.3412225 10.071012 14.08475
-44.94706 0.27355552 11.518085 12.088
-44.626591 0.33766109 -2.0269773 6
-44.66235 0.64696443 -2.0428293 6
-44.579105 3.7716281 -2.0311606 1
-44.605648 6.3703375 -2.0243411 1
-44.453827 0.36637577 -1.8316149 4
-44.48074 0.63522047 -1.6105378 2.5
-44.47818 1.1010782 -1.9904631 1
-44.615246 1.5852063 -1.6526344 6
-44.55669 3.0798743 -1.8108144 2
-44.591599 3.5697112 -1.7439356 2
-44.584152 3.6960475 -1.6224569 2.4000001
-44.698212 5.4644237 -1.6998892 2.25
-44.634327 5.8448076 -1.7470984 1.9583333
-44.640373 6.227396 -1.779651 1.8333334
-44.78653 8.1720343 -1.7757758 2.4285715
-44.799419 8.6392794 -1.8590441 2
-44.669056 9.60396 -1.6327856 5
-44.786453 10.281161 -1.7781264 7
-44.619289 12.722642 -1.6673106 5
-44.627476 13.427676 -1.886984 4.5
-44.658829 13.801671 -1.8260559 4.5
-44.701496 14.202024 -1.7811983 4
-44.666489 14.552734 -1.762408 4.3333335
-44.505653 14.976078 -1.7339135 3.5
-44.546619 15.313716 -1.7384322 4.3333335
-44.511787 15.741327 -1.7398006 5
-44.692532 16.196297 -1.8031689 6
-44.429222 16.753916 -1.7281892 5
-44.572994 16.996151 -1.7065526 4.6666665
-44.47765 17.326229 -1.7061113 4.5
-44.643433 17.770891 -1.6780832 4.4000001
-44.615921 18.228588 -1.6619701 5
-44.579319 18.582048 -1.7050228 4.75
-44.609146 19.030642 -1.6655923 4.4285712
-44.531311 19.47616 -1.6302565 5
-44.439983 19.896345 -1.6771399 4
-44.556305 20.07415 -1.6494986 5
-44.616257 20.517702 -1.6628188 4.6666665
-44.601479 20.88905 -1.657463 5
-44.582047 21.376322 -1.6654716 5
-44.523174 21.861198 -1.6699628 5
-44.480843 22.229527 -1.6893921 5
-44.6889 22.763763 -1.705523 5
-44.785015 23.559505 -1.68367 5
-44.657906 23.768251 -1.6781394 5
-44.628185 24.221672 -1.6820499 5
-44.494778 24.634029 -1.6741952 5
-44.485481 25.197021 -1.6198649 6
-44.592972 25.313192 -1.7195541 5.3333335
-44.648994 25.915638 -1.7305613 5
-44.75536 26.239471 -1.6479495 6
-44.553867 26.540485 -1.6879301 5
-44.5112 27.03528 -1.6820209 5
-44.526134 27.61549 -1.7151977 5
-44.755222 28.698063 -1.7095137 5
-44.658115 29.059282 -1.6999021 5
-44.467728 29.519299 -1.7176788 5
-44.486217 0.48211837 -1.4713535 3
-44.501587 1.0440893 -1.4744515 2.8333333
-44.727108 1.3670764 -1.3157442 6
-44.608105 3.0774415 -1.4010642 4.3333335
-44.584465 3.2869039 -1.3991177 3.3333333
-44.594311 3.7100558 -1.4999282 2.8333333
-44.78537 5.0435042 -1.2663738 1
-44.727482 5.3505945 -1.3176757 2.6666667
-44.681526 5.7391572 -1.4588758 3
-44.701954 6.1970782 -1.5170993 2.7916667
-44.792969 8.1931448 -1.4247108 3.5
-44.799435 8.6381741 -1.2150848 4
-44.54707 12.128169 -1.5761324 4
-44.666092 12.601239 -1.4066621 4.5
-44.460789 12.899674 -1.3031634 3
-44.626564 13.402252 -1.3459768 2.8125
-44.544846 13.764071 -1.2862372 2.8571429
-44.744888 14.946686 -1.309262 3.9333334
-44.640709 15.393363 -1.3110324 3.8888888
-44.640816 15.815113 -1.3235438 3.75
-44.570824 16.232628 -1.3406878 3
-44.501175 16.581236 -1.3435482 3.8666666
-44.557919 16.980904 -1.3540663 3.5
-44.626198 17.757217 -1.3555592 4
-44.764896 18.196947 -1.3037781 4
-44.582779 18.615837 -1.3318298 4
-44.783806 19.111046 -1.4525529 5
-44.728573 19.410955 -1.3552415 4.8571429
-44.582104 19.831783 -1.4343292 4.125
-44.566837 20.117708 -1.4229866 4
-44.695961 20.633375 -1.4909096 5
-44.663288 21.001013 -1.4656118 5
-44.511513 21.459305 -1.4774379 5
-44.506088 21.762051 -1.5178515 5
-44.598827 22.201931 -1.509295 5
-44.604416 22.575966 -1.5541989 5
-44.740948 23.099937 -1.4180596 5.1999998
-44.594986 23.478714 -1.4240199 5.125
-44.575348 23.826736 -1.2357434 3.375
-44.560963 24.206652 -1.2464919 3
-44.5872 24.658974 -1.330752 3.75
-44.584225 24.969879 -1.355022 4.5555553
-44.597675 25.328127 -1.4548521 4.4000001
-44.638035 25.825689 -1.2621928 3.8
-44.571861 26.19805 -1.2832112 4.25
-44.57098 26.615299 -1.2914046 4.1666665
-44.530899 27.000978 -1.318953 3.625
-44.577469 27.453268 -1.3440813 3.5555556
-44.520992 27.811119 -1.365481 3.625
-44.500214 28.181585 -1.3927916 3.4444444
-44.569363 28.596941 -1.3940985 3.4166667
-44.539192 29.036352 -1.4212575 3.5555556
-44.608349 29.40506 -1.4304601 3.3
-44.634644 29.759636 -1.4527609 3.7
-44.59922 0.55169827 -0.92900079 1.5
-44.593277 1.0720845 -0.96550697 2
-44.631798 1.239602 -1.0184793 1.3333334
-44.698982 2.9963272 -1.0860265 1.3333334
-44.673683 3.4176097 -1.0768991 2.0833333
-44.590218 3.7383792 -1.166162 4
-44.754112 5.0940204 -1.0108894 3
-44.717556 5.4001827 -1.0563209 4.1666665
-44.712486 5.7258892 -1.115021 3.3333333
-44.694881 6.1961432 -1.172667 4
-44.689125 9.3592358 -0.85394341 6.5
-44.768753 10.75747 -1.0925258 5.5
-44.411003 11.773997 -1.0700045 7
-44.584335 12.174537 -0.80623835 3
-44.554615 12.61303 -0.99197423 3.75
-44.594643 12.99507 -1.0082363 4
-44.526119 13.484346 -0.96475321 4.75
-44.560276 13.799491 -0.96679503 4.25
-44.57785 14.221357 -0.96791148 4
-44.554573 14.59535 -0.98097378 4.4000001
-44.712833 15.027519 -0.97377348 4
-44.615299 15.323828 -0.98116845 5
-44.505688 15.881058 -0.99725145 4.6666665
-44.408066 16.202534 -1.0155306 4
-44.45261 16.554573 -1.0277064 4
-44.454422 17.07612 -1.0267733 4
-44.541138 17.403231 -0.99800545 4.4000001
-44.538235 17.810904 -0.94168806 4.1666665
-44.504116 18.183817 -0.98049015 3.8333333
-44.567551 18.632574 -1.0235356 4.1999998
-44.654503 19.04582 -0.96941352 4.1999998
-44.690994 19.473047 -1.0753658 4.6666665
-44.577393 19.799732 -1.0369856 4.5999999
-44.59161 20.139189 -1.0617162 4.1428571
-44.557293 20.589088 -1.0493807 4.2857141
-44.629089 21.135918 -0.99170834 4.5
-44.55875 21.396555 -1.0855526 4
-44.679409 21.842482 -1.0854006 4
-44.587414 22.210987 -1.0843617 4.5
-44.648445 22.631607 -1.1363963 3.8
-44.559872 22.964952 -1.1650195 4.8571429
-44.591446 23.282179 -1.1716357 4
-44.447121 23.840765 -1.1452864 6
-44.684822 25.06802 -1.1638854 6
-44.663464 25.447197 -1.1912335 5
-44.68063 25.665123 -1.1589086 5
-44.617756 26.075401 -1.1877369 5
-44.731949 0.23029657 -0.67240793 6
-44.592175 0.5734815 -0.60809326 3.5
-44.617146 1.0021427 -0.5703367 3
-44.735695 1.3411366 -0.62217927 5
-44.699562 2.9479125 -0.58049589 3.3095238
-44.702454 3.4358685 -0.51017159 3.5833335
-44.697746 3.8061728 -0.44656861 4.666667
-44.653427 4.1545711 -0.48047557 8.1027498
-44.563499 4.4688168 -0.4573383 1
-44.705101 4.9684439 -0.48797348 3.4166667
-44.672009 5.3860145 -0.53106803 1.8333334
-44.785103 5.655273 -0.47906408 4
-44.609955 7.5059023 -0.63795793 1
-44.596416 7.8249516 -0.65074986 1
-44.763065 8.1042776 -0.42144573 2
-44.548019 9.0073729 -0.59815139 6
-44.575871 11.815033 -0.57627887 5.7777777
-44.786652 12.001435 -0.66908538 5
-44.796307 12.49726 -0.7412613 4
-44.681919 12.90684 -0.66530985 3.4000001
-44.495167 13.28645 -0.63928735 3.5
-44.567497 13.834846 -0.67650139 4
-44.553932 14.238688 -0.69894749 5
-44.477146 14.622082 -0.70747477 5
-44.616978 14.90758 -0.67537248 4.5
-44.615196 15.363344 -0.67341471 4.25
-44.614223 15.809361 -0.68335479 4
-44.638012 16.178499 -0.70150572 4
-44.505032 16.58486 -0.73941302 4
-44.510254 17.079384 -0.78018153 4
-44.722542 17.29701 -0.76767552 4
-44.777531 18.950224 -0.69076937 5
-44.68882 28.121342 -0.44883421 5
-44.733814 0.48189113 -0.032656197 8.0349998
-44.48267 2.1928737 -0.31268573 1
-44.469624 2.7034125 -0.32207784 1
-44.542591 2.9954758 -0.21653755 2.25
-44.64423 3.8880143 -0.16171412 7.6333747
-44.663517 4.1262245 -0.16117877 7.7237887
-44.632347 4.9981427 -0.20596929 3.375
-44.611103 5.411972 -0.21210043 2
-44.615299 5.674789 -0.22862618 2
-44.727608 7.4990144 -0.20193692 2.6200001
-44.758801 7.891715 -0.25671312 2.5
-44.747993 8.096405 -0.13800572 3
-44.646137 11.533023 -0.23246348 7
-44.477554 11.789866 -0.21932001 6.3333335
-44.427738 12.060882 -0.24372502 6
-44.51712 0.13125913 0.26187307 8.3763332
-44.446404 0.44900423 0.084959537 8.0159998
-44.542454 2.6429398 0.18806416 5.53125
-44.472111 3.0421093 0.29584655 3.3666668
-44.587318 3.8832235 0.17677498 8.2994223
-44.60746 4.1817465 0.18901131 8.6147499
-44.656616 4.4929042 0.22425514 8.2678518
-44.571907 4.9181132 0.250808 3.625
-44.622051 5.3250828 0.22810005 4.4068999
-44.607944 5.730401 0.1839837 3.5555556
-44.509052 7.3392935 0.38684121 8.0334997
-44.731495 7.7440233 0.1689506 4
-44.606213 8.222249 0.2751424 7.6210999
-44.549034 8.5172367 0.31842208 9.4944286
-44.509735 9.097785 0.39588347 10.0615
-44.583012 9.2525644 0.34403831 10.07125
-44.601955 10.608267 0.27361533 5
-44.405056 11.483525 0.12130395 8.1639996
-44.782879 19.833498 0.070673294 8.1400003
-44.741703 28.426632 0.023059219 8.0295
-44.569412 0.21518116 0.56675464 9.4889545
-44.506573 0.6180746 0.5696429 9.5585957
-44.511925 0.89178509 0.57650286 8.0111246
-44.595257 1.4622079 0.65403932 10.075036
-44.487602 1.6417524 0.72718513 10.2392
-44.454395 2.627589 0.47355673 4
-44.461666 3.1205416 0.46002731 4
-44.701733 3.5221403 0.74196893 9.0635004
-44.631252 3.8819478 0.65735412 9.3643332
-44.655983 4.1871605 0.66057962 8.6620674
-44.677483 4.5253506 0.65496975 8.2702913
-44.499241 7.2893391 0.406681 8.0249996
-44.647938 8.3858509 0.56045991 9.4106665
-44.488987 8.6484098 0.5025053 8.8703127
-44.516857 9.0680723 0.49729821 9.7875633
-44.460167 9.2367802 0.42368653 10.0525
-44.739456 9.7783003 0.68694127 10.54225
-44.542198 10.026831 0.6714893 10.03
-44.731819 17.880375 0.71105021 8.0924997
-44.635204 19.455217 0.54862249 8.3542509
-44.673424 19.746737 0.60016388 9.1177711
-44.712616 20.043243 0.68321067 10.07275
-44.571899 0.1304847 1.1028823 9.7419119
-44.506165 0.67232883 1.012382 11.024
-44.481171 0.92386383 0.96453124 11.371001
-44.586792 1.4369367 0.93476194 11.054084
-44.530914 1.6813112 1.0030495 11.395854
-44.744987 2.2260699 1.108861 11.085
-44.676285 3.5576227 1.0106795 10.29802
-44.603642 3.8559408 0.98084593 10.318386
-44.634838 4.2127771 0.9741298 10.05526
-44.628929 4.5539565 0.95652395 10.012864
-44.650944 4.9722748 1.073126 11.793534
-44.796722 5.3062086 1.1617775 12
-44.739151 6.0962863 1.0573795 10.0205
-44.530151 6.9479952 1.1466457 9.0515003
-44.641045 7.2318325 1.0796392 9.0135002
-44.405796 7.855073 0.92398977 9.1047497
-44.522034 8.2087708 1.0153735 8.7788572
-44.555153 8.6469851 0.91714942 9.1349382
-44.6371 8.9594679 1.0028042 9.4217854
-44.574821 9.3094406 0.96796328 10.209362
-44.682056 9.7641859 1.0724597 11.195528
-44.730736 18.462765 0.92824024 8.0635004
-44.672157 19.00515 1.1828274 10.01425
-44.673191 19.50527 0.96268052 9.7617931
-44.696323 19.775637 1.030561 9.9081259
-44.765533 20.018892 0.89897954 10.13475
-44.550232 0.18824457 1.4057233 10.901047
-44.542194 0.58305287 1.4064175 10.683681
-44.529404 0.91131788 1.4213921 10.952001
-44.596806 1.4863094 1.4483817 10.474023
-44.5811 1.6966076 1.456337 10.310773
-44.621525 2.1870074 1.3814826 11.789625
-44.46521 2.601481 1.5114251 11.839312
-44.544537 3.4977877 1.4080704 9.6925001
-44.595268 3.8192828 1.4605774 9.6957054
-44.595524 4.170002 1.4289795 10.272193
-44.613503 4.5788431 1.4974027 10.666205
-44.591038 5.0165181 1.3391533 12.516397
-44.650257 5.3420591 1.3920947 12.737206
-44.756504 5.6723146 1.5567839 12.04575
-44.770321 6.3043513 1.556906 11.523
-44.591892 6.6058502 1.4316078 10.201417
-44.710182 7.1830711 1.3332565 10.016
-44.654789 7.293951 1.3904009 9.2489157
-44.581367 8.5874329 1.2979175 11.395124
-44.570957 9.0318813 1.4830554 10.545111
-44.568638 9.370677 1.500832 10.74425
-44.618778 9.6491814 1.333087 11.8775
-44.495743 18.777935 1.4038709 10.560625
-44.607071 18.972881 1.4327524 9.6864281
-44.710079 19.33165 1.3642451 9.8708744
-44.686348 19.763517 1.336885 10.833631
-44.738644 20.12697 1.3943307 9.5478745
-44.690254 20.596424 1.4464004 8.0319996
-44.534008 0.15084538 1.7981322 11.225102
-44.577663 0.64552617 1.7731247 12.603843
-44.62035 1.0311676 1.8196934 12.599369
-44.590942 1.4610549 1.7982348 11.997458
-44.542812 1.7555472 1.7785918 11.773906
-44.461231 2.138387 1.805532 10.689834
-44.481197 2.5728033 1.709177 13.079583
-44.74968 3.5475652 1.9087181 11.07675
-44.641743 3.8550839 1.7856094 10.760027
-44.598301 4.1935282 1.7661138 11.218793
-44.583984 4.5692759 1.8000845 11.221753
-44.611557 4.9643574 1.788648 12.431263
-44.716305 5.4186091 1.7797705 12.943392
-44.628654 5.6445041 1.8738188 13.2944
-44.756702 6.1575475 1.7656646 12.6936
-44.646671 6.5674257 1.7266954 11.8527
-44.644951 6.9690757 1.8857226 12.62075
-44.651562 7.3836718 1.7246451 10.760428
-44.718384 7.727572 1.8705308 13.239599
-44.471161 8.2002001 1.7604928 9.6269999
-44.506081 8.5713854 1.7849952 9.667944
-44.551468 9.0047455 1.7001674 10.024501
-44.598289 9.2964497 1.7507856 10.089499
-44.626934 9.6486139 1.7245154 12.567562
-44.449509 11.307211 1.8167502 9.0924997
-44.717884 19.040466 1.8190169 11.317478
-44.632141 19.323383 1.8258575 10.966015
-44.721813 19.733051 1.7784277 10.284333
-44.79126 20.156361 1.6331813 12.1425
-44.575047 0.24923135 2.2095468 10.683398
-44.565544 0.56614435 2.2264516 10.969202
-44.602215 1.052179 2.1891756 12.194448
-44.646534 1.4438939 2.1610503 12.552731
-44.631535 1.7541333 2.2623322 12.450807
-44.621319 2.2129736 2.2513869 13.086559
-44.506104 2.6743023 2.2655826 12.251683
-44.424591 2.8563509 2.3760748 11.0085
-44.448967 3.4754634 2.3653054 10.186438
-44.552578 3.8115025 2.189477 9.9652033
-44.54615 4.2241755 2.1989272 11.61336
-44.59446 4.6130633 2.1873939 12.623493
-44.642601 4.966691 2.2174947 11.793983
-44.651299 5.3961596 2.1392004 12.864896
-44.642132 5.8305736 2.2206612 11.13254
-44.623924 6.1273222 2.2306068 12.686037
-44.706566 6.5986838 2.240577 12.364665
-44.578445 6.9933777 2.2422357 10.533358
-44.54306 7.4582353 2.2202749 12.42934
-44.615227 7.7032557 2.2004189 10.921626
-44.632542 8.2851334 2.1950438 9.9568567
-44.637131 8.5743504 2.0970814 10.426501
-44.707165 8.8674736 2.0496526 9
-44.635803 9.4882383 2.229284 13.569375
-44.464428 11.03506 2.3020539 10.007
-44.792187 17.303513 2.3474262 12.068
-44.773594 17.650185 2.1306186 8.1780005
-44.648815 19.022652 2.226474 9.1464996
-44.6633 19.490583 2.1675158 11.268532
-44.564293 19.627224 2.090714 11.11725
-44.51223 0.26092902 2.486335 11.8773
-44.625935 0.67156678 2.6519778 12.613181
-44.648094 0.98380679 2.5543435 12.806253
-44.672962 1.4463106 2.6109455 12.781581
-44.623932 1.7614238 2.5710309 13.108363
-44.590454 2.1863265 2.6066606 12.451244
-44.583294 2.5716774 2.4905334 13.430668
-44.787067 2.829536 2.7062483 15
-44.532364 3.4593198 2.567971 11.09425
-44.53598 3.7794802 2.6598239 11.481872
-44.505817 4.1723199 2.6031852 11.60008
-44.607414 4.6259842 2.5988805 13.109124
-44.624149 4.9613113 2.6317656 12.51181
-44.671021 5.3369942 2.5934546 13.203182
-44.667751 5.8429627 2.5259261 11.642673
-44.611961 6.1757727 2.6226995 12.921164
-44.591084 6.5281062 2.6140478 11.178325
-44.551456 7.0658827 2.5692747 10.56045
-44.583569 7.3993669 2.5567122 11.678864
-44.588402 7.7458878 2.6733656 12.723749
-44.655159 8.2089291 2.5477893 11.724999
-44.760765 8.4735641 2.5671759 15.083
-44.429996 9.416111 2.6862869 15.114
-44.683662 9.6641703 2.4534326 13.836166
-44.796307 17.807938 2.6127548 10.1775
-44.737133 18.104645 2.5930955 10.177
-44.722286 18.646324 2.5887337 12.044417
-44.731968 18.879185 2.5914671 10.823599
-44.468113 19.646481 2.4310226 9.1700001
-44.48621 0.077917583 3.052223 10.114626
-44.542912 0.52116942 3.0852602 10.7295
-44.669762 1.1201941 3.0208042 13.4475
-44.614635 1.4251575 2.9928615 12.391457
-44.634747 1.7568221 2.9857194 12.066184
-44.638645 2.1902611 2.9809787 11.977676
-44.695377 2.5177851 3.0766199 12.554713
-44.627266 3.0466311 3.1710873 15.089
-44.501923 3.4295204 2.8910232 11.488203
-44.474545 3.7679636 2.9352541 11.996575
-44.570728 4.2129865 3.0012197 12.078166
-44.585484 4.5727844 2.9554374 12.271785
-44.627701 5.026608 2.990257 12.85503
-44.613556 5.3422785 3.0116332 12.992371
-44.749149 5.7599282 2.9992054 12.078125
-44.599884 6.1942482 2.9898269 12.689735
-44.520451 6.5474396 3.1211059 13.13673
-44.624134 7.0386529 3.0058966 11.870453
-44.614864 7.4257789 3.048676 12.598136
-44.626499 7.768877 2.9406357 13.499201
-44.729794 8.1686897 2.9403677 10.008
-44.595303 8.6484079 3.0729606 13.421499
-44.624634 8.9864998 3.0637019 10.292188
-44.716976 9.3889217 3.0536087 11.074
-44.790382 9.6715679 2.8871503 10.0065
-44.570641 17.828896 3.1187401 11.494071
-44.598705 18.241722 3.0074317 9.9042864
-44.658722 18.565384 3.0327072 13.393313
-44.658566 18.939762 2.9646556 12.334562
-44.512028 19.397295 2.8822119 8.1754999
-44.622299 19.778418 2.9291441 9.1725006
-44.574726 0.23973018 3.3984261 11.204309
-44.526745 0.6017161 3.4630477 11.768358
-44.476707 1.0117418 3.4171107 13.528918
-44.59127 1.444117 3.3886523 12.945023
-44.525024 1.7939866 3.4093423 12.986523
-44.602516 2.2296152 3.4018626 12.181852
-44.632233 2.5718791 3.3737981 12.875991
-44.655312 2.9616311 3.51279 11.0255
-44.620155 3.5681584 3.4907284 10.0115
-44.722427 3.8592486 3.4170332 13.6565
-44.457417 4.2377682 3.4730058 13.489438
-44.481224 4.5079207 3.4356883 13.114084
-44.590542 4.9798217 3.3548369 13.150196
-44.565369 5.3397541 3.4152093 13.512392
-44.646488 5.8011651 3.4154494 13.505125
-44.653236 6.2231541 3.3257153 14.552965
-44.57679 6.5273056 3.350291 13.756876
-44.571621 7.1171937 3.4174194 13.778126
-44.587921 7.3286304 3.4078279 13.042991
-44.619755 7.7574077 3.442266 12.6523
-44.719078 8.1862612 3.4283929 12.927594
-44.748001 8.5206442 3.300441 13.430699
-44.729103 8.8941545 3.2240162 12.882563
-44.716026 9.4730835 3.4526629 12.044499
-44.641994 17.831787 3.3555315 12.907001
-44.671898 18.196054 3.3392096 13.129133
-44.627789 18.555672 3.3813686 11.924019
-44.667564 18.977596 3.458185 12.084688
-44.715366 0.36097318 3.6591144 11.830125
-44.614471 0.60741061 3.789809 13.217003
-44.522144 1.0099896 3.750982 13.287971
-44.546196 1.4290543 3.8178537 13.162282
-44.634956 1.7901349 3.7628071 12.259178
-44.483509 2.1892114 3.8601253 12.403399
-44.745819 2.4939942 3.6243932 11.017
-44.688992 3.0877128 3.803514 11.524
-44.725716 3.4014835 3.82196 12.598
-44.693527 3.8013196 3.8463714 11.02275
-44.509438 4.272151 3.7846279 13.424562
-44.547138 4.6208248 3.7865674 12.758204
-44.598347 5.0062537 3.8368959 13.352012
-44.681702 5.3052406 3.8703179 14.627
-44.61779 5.7919407 3.7558324 13.961365
-44.534042 6.0914097 3.7493758 12.319563
-44.735836 6.6270237 3.7853456 12.6265
-44.654381 7.0407977 3.8074145 13.054341
-44.697975 7.3709445 3.7657514 13.350304
-44.586533 7.7955236 3.8027613 12.5245
-44.639343 8.2283344 3.7922523 12.717834
-44.572906 8.609767 3.8300698 11.5155
-44.626774 9.0035849 3.898387 12.056856
-44.642277 9.3489714 3.7968338 10.4312
-44.797112 9.9965496 3.7559814 14.1035
-44.659576 17.593527 3.7016475 14.0675
-44.593445 17.845436 3.7394249 13.254499
-44.601078 18.190908 3.8262045 13.346864
-44.591373 18.559322 3.8224843 13.62225
-44.670544 19.082937 3.8367846 13.355375
-44.553333 19.24222 3.84148 13.0995
-44.642189 0.25240463 4.189827 14.14125
-44.629772 0.60432404 4.2309608 13.092816
-44.537754 0.94636267 4.2067466 12.983639
-44.552479 1.3705775 4.0915632 12.898959
-44.452496 1.7251769 4.2245245 9.0740004
-44.517365 2.241528 4.1232433 14.193765
-44.517082 2.5362439 4.2343836 13.495083
-44.55262 2.9516289 4.3075233 10.012
-44.693436 3.5181391 4.2560682 14.709249
-44.678539 3.7546306 4.1499996 13.540499
-44.526569 4.6529016 4.2276144 12.857922
-44.635635 4.9542103 4.1968293 12.289188
-44.715683 5.4108825 4.1854677 12.699333
-44.592194 5.8267355 4.2721777 12.03341
-44.538055 6.1613317 4.2145581 14.098834
-44.521526 6.5948629 4.1007237 12.3245
-44.574066 7.0900888 4.2781978 12.019668
-44.634155 7.3840733 4.2608523 13.385143
-44.635406 7.7663684 4.213707 12.768136
-44.627682 8.1263075 4.1514277 14.067625
-44.671444 8.6592846 4.2158055 12.799387
-44.688408 9.0204735 4.1718345 12.4718
-44.643478 9.3518372 4.1750703 12.549601
-44.517982 9.7896242 4.2990322 12.1005
-44.632858 18.237656 4.128129 11.927922
-44.668015 18.563135 4.1758637 11.967362
-44.641808 18.93351 4.1739397 13.009799
-44.548641 19.29108 4.2573633 13.707166
-44.638962 19.785885 4.2994571 11.561501
-44.71254 0.34113654 4.5037794 14.666667
-44.599003 0.56366479 4.476964 14.332126
-44.515701 0.96345663 4.5613575 12.966111
-44.566597 1.3850955 4.6203828 13.084416
-44.439793 1.8502418 4.5870795 13.83525
-44.610264 2.1962767 4.5402002 13.0771
-44.548733 3.1985676 4.4610786 14.172
-44.510239 3.4222004 4.6059389 11.6055
-44.65731 3.6935441 4.6829686 12.066
-44.519299 4.1711941 4.4976034 12.5395
-44.650452 4.6632113 4.5112162 13.514083
-44.585957 5.0653763 4.605329 12.579584
-44.641315 5.3345151 4.6117759 12.151
-44.579678 5.8230624 4.5350041 13.325937
-44.575417 6.2613187 4.4517736 11.347667
-44.54081 6.599072 4.6470118 13.587501
-44.559483 6.9804788 4.6106696 13.282711
-44.64724 7.3507891 4.5620599 13.325594
-44.696407 7.8792791 4.5045934 14.339749
-44.54166 8.1219301 4.6638813 13.8535
-44.692791 8.4310312 4.6140122 14.104
-44.74551 9.0206242 4.6089802 14.438251
-44.711971 9.4540768 4.5849009 12.933143
-44.682739 9.8710165 4.4956708 14.10425
-44.561665 18.572548 4.6186838 13.120999
-44.600117 19.036346 4.4716616 13.3306
-44.668945 19.354748 4.5360703 13.242876
-44.598286 0.13530853 4.9808564 12.3525
-44.571671 1.0273286 4.9771085 13.735751
-44.561996 1.4065287 4.9380689 14.774834
-44.62925 1.7398165 4.8775897 14.17525
-44.402424 3.0737991 4.9477878 11.014
-44.647156 4.0887208 5.0488362 13.019001
-44.586891 4.6171656 5.040895 13.6145
-44.558792 4.9085464 4.9774399 13.335167
-44.546127 5.4240041 5.0041842 12.974567
-44.706482 5.8995776 4.9842548 13.089751
-44.739525 6.159162 5.1592031 14.52575
-44.563332 6.7149644 4.9097905 14.075
-44.566872 7.0300207 4.9826837 14.775875
-44.55159 7.4002833 5.0058522 13.406563
-44.62286 7.8239298 5.045578 12.3735
-44.728024 8.0642176 5.1364942 15.1045
-44.484337 8.5828352 5.1684375 10.0075
-44.604942 9.227149 4.8959532 14.1025
-44.556671 18.337187 4.8464241 12.054501
-44.628174 18.598347 5.0023031 12.850555
-44.56802 18.968485 5.0941863 12.60975
-44.670132 19.321455 4.9937482 12.865875
-44.74332 0.50543547 5.3227525 10.017
-44.469334 1.7369057 5.4883895 12.082
-44.547478 2.279269 5.4429131 15.17725
-44.428932 3.5170813 5.5725899 15.073
-44.543858 4.3100061 5.2825441 13.516
-44.540474 4.6521239 5.3836379 12.013374
-44.728069 5.0451655 5.425972 13.742166
-44.588577 5.414784 5.3070903 11.762125
-44.68116 5.8042455 5.2098265 12
-44.698486 6.2572498 5.4009371 12.746334
-44.618473 6.5015635 5.4214473 10.8347
-44.507549 7.8698206 5.5452046 13.011
-44.400127 8.2709188 5.4667549 13.0105
-44.719551 9.7433643 5.3421297 13.008
-44.748348 10.047244 5.3114882 13.0075
-44.515652 0.23598847 5.705318 12.815834
-44.537769 0.56370372 5.8611302 12.672168
-44.616394 1.1446106 5.9726663 13.016
-44.500443 1.2006522 5.9632916 14.0205
-44.450611 1.8305541 5.982851 14.101
-44.589008 4.2456117 5.8093052 13.046834
-44.565849 4.5258555 5.7624111 13.812374
-44.706062 4.9151731 5.8226342 13.50725
-44.492668 5.4585018 5.649199 13
-44.738922 5.7434154 5.9102912 13
-44.610565 6.2006278 5.8010759 13.399499
-44.785881 6.666225 5.9346161 15.078
-44.744801 7.3857074 5.6633339 13.0115
-44.427761 19.568054 5.7749372 15.1705
-44.561626 1.6004536 6.3395524 13.104
-44.539204 3.9484894 6.0238233 13.0175
-44.590866 4.2599888 6.2542162 14.0802
-44.547657 4.5593662 6.2120667 11.06075
-44.747589 5.1329589 6.008872 13
-44.627724 5.6859784 6.3532329 11
-44.683903 6.0890422 6.0774608 15.0785
-44.672138 6.6358409 6.1836319 13.028167
-44.585556 7.5742249 6.2156005 11.0085
-44.566353 1.1633141 6.7421589 14.1765
-44.631428 1.5645784 6.4972835 14.0945
-44.658916 2.3980353 6.6965246 12.0125
-44.606907 4.3458419 6.4867263 11.08525
-44.489349 4.471859 6.6213903 13.051001
-44.795937 6.7372098 6.6025925 14.0135
-44.751503 6.9186215 6.4311938 13.512
-44.409584 0.23762038 7.0372367 14.0815
-44.7425 2.2164459 6.9681759 13.783249
-44.706978 3.4820437 7.0247431 14.076
-44.657681 3.6486466 6.9570403 11.08625
-44.541641 4.2815528 7.0335894 14.011167
-44.649769 7.1214585 7.0229478 15.012
-44.778568 0.67743444 7.3941274 14.021
-44.529919 1.7063096 7.3491373 14.725166
-44.479652 2.1685247 7.3528485 14.51525
-44.554478 2.6645401 7.2989302 14.51475
-44.545544 3.0087836 7.3926668 14.0165
-44.701065 3.7508326 7.5420823 14.51625
-44.681614 4.2081389 7.4277387 14.014
-44.738052 6.9308505 7.2859664 12.009
-44.533337 0.2871086 7.9631214 12.0975
-44.514774 1.4806367 7.8071685 15.059166
-44.562611 1.9904253 7.6637964 15.016
-44.455414 2.263936 7.6905689 14.016
-44.639259 2.5853589 7.77665 14.127251
-44.718681 2.8313651 7.7885127 15.019
-44.663292 3.5506785 7.8837633 15.0175
-44.66016 3.9037545 7.726306 15.0175
-44.462627 4.0186586 7.6041355 15.016
-44.462036 0.12998609 8.2015553 13.1285
-44.652176 1.3515886 8.1023817 15.0205
-44.544422 1.711303 8.3131123 15.019
-44.66288 2.3169739 8.2908583 13.5515
-44.76207 2.6900458 8.2214384 13.58075
-44.714527 3.7811098 8.1867514 14.514
-44.770847 0.79865122 8.4144897 15.019
-44.601971 2.357075 8.6787443 14.08075
-44.441944 2.4689817 8.4826136 10.0115
-44.585739 3.1326249 8.7866001 15.0125
-44.780701 3.6064925 8.7702608 15.012
-44.518375 1.9257184 9.0853748 15.015
-44.539162 2.6897614 9.124855 13.0855
-44.437489 0.21418673 9.3938217 15.0765
-44.786728 0.80083799 9.2983837 15.1755
-44.681709 2.3985362 9.5312719 11.0615
-44.721886 3.0280833 9.4334497 15.083
-44.688766 0.96737993 9.6525974 14.1745
-44.448643 2.9120512 9.8033676 11.074
-44.505016 3.2740405 9.7419748 14.51225
-44.539272 0.59981364 10.230554 13.0885
-44.526264 0.25267047 10.598907 14.337625
-44.491611 0.65463173 10.74056 15.0835
-44.463718 1.0615817 10.759218 13.594999
-44.604729 0.038359914 10.91775 15.0975
-44.473106 0.78592217 11.021997 15.0835
-44.517963 3.3120501 10.852032 15.0125
-44.491386 0.82992089 11.310786 14.0975
-44.419762 0.065928496 11.740445 11.0645
-44.470219 0.81991494 11.851165 13.094
-44.304955 0.5859434 -2.0120485 1
-44.391552 1.0312726 -2.0145211 1
-44.082153 3.6297078 -2.1881051 5
-44.315323 8.5320253 -2.0414214 1
-44.250652 13.120183 -2.0216565 4
-44.120193 14.993405 -2.0102518 7
-44.321289 4.0752201 -1.9758934 1
-44.320099 5.5081139 -1.9727128 1
-44.192123 12.650384 -1.7137709 3.2
-44.034237 12.873982 -1.994626 4
-44.174431 13.420482 -1.8680919 3.3333333
-44.121185 13.750659 -1.8543153 3.75
-44.309002 14.108087 -1.8226815 4.5
-44.229095 14.568813 -1.7830042 4.3333335
-44.272041 15.088376 -1.7289782 3.5
-44.148121 15.420428 -1.7074906 3.25
-44.12582 15.7781 -1.7127932 3.5
-44.139847 16.205774 -1.7196641 3.5
-44.054684 16.614481 -1.7337526 3.75
-44.110584 16.988041 -1.831248 5.3333335
-44.217712 17.477026 -1.7261871 4.5
-44.213779 17.77655 -1.7170945 4.5
-44.322071 18.109659 -1.792612 5.3333335
-44.141003 18.581842 -1.7098917 4
-44.368717 19.012058 -1.689382 4.5
-44.271404 19.380539 -1.6976042 4.2857141
-44.244457 19.740118 -1.6979518 4.4000001
-44.248508 20.182764 -1.6842517 4.75
-44.223789 20.651901 -1.6668731 5
-44.229374 21.097692 -1.6653709 4.75
-44.093273 21.414921 -1.660207 4.6666665
-44.330429 22.684761 -1.6696303 5
-44.268471 23.063456 -1.6067818 6
-44.132439 23.311808 -1.666297 5
-44.253056 24.513725 -1.6473175 6
-44.262745 24.922609 -1.6528469 5
-44.187325 25.345665 -1.6851064 5
-44.039783 25.817987 -1.6187084 5
-44.354584 26.173143 -1.7367029 5
-44.124893 26.674183 -1.761227 5
-44.309547 27.027494 -1.7213019 5
-44.312984 27.415377 -1.6910489 5
-44.191341 27.704615 -1.7449447 5
-44.193188 28.159136 -1.718888 5
-44.070934 28.524496 -1.7553536 5
-44.359684 29.199621 -1.6971433 5
-44.289433 29.777027 -1.7266735 5
-44.051899 0.15210204 -1.2426257 5
-44.20454 0.60477901 -1.2521172 5
-44.146145 2.0931909 -1.3541099 5
-44.158474 9.4164162 -1.5151294 4
-44.225128 10.50005 -1.5251505 0
-44.107609 12.586063 -1.4500605 4.75
-44.14476 13.023047 -1.5444553 3.2727273
-44.255768 13.391058 -1.4039044 2.5999999
-44.211189 13.841821 -1.3508221 2.75
-44.101368 14.209479 -1.338302 2.7777777
-44.208622 14.54879 -1.2908101 3
-44.088936 15.055229 -1.2805536 3
-44.138336 15.345692 -1.3188851 3
-44.369839 15.920104 -1.3440442 3
-44.282124 16.151115 -1.3305664 3.6666667
-44.316589 16.649023 -1.3581254 3.5
-44.202034 17.077818 -1.381026 3.5714285
-44.310272 17.374971 -1.3758028 3.875
-44.175156 17.813545 -1.3876283 4
-44.171848 18.208145 -1.4261212 4.5
-44.113708 18.444038 -1.4094827 4
-44.36488 18.975374 -1.417707 4
-44.14064 19.352137 -1.3622332 4
-44.13134 19.824877 -1.4516032 4.3333335
-44.284065 20.334446 -1.4472198 4
-44.118011 20.650642 -1.4575431 4
-44.320503 20.910276 -1.4897336 5
-44.083122 21.266489 -1.463647 5
-44.038216 21.728306 -1.4585348 5
-44.227676 22.257523 -1.53355 6
-44.198769 22.524395 -1.5044 5
-44.193626 23.151411 -1.2779665 2.8
-44.242588 23.431097 -1.3447043 4.1333332
-44.20842 23.77002 -1.3449591 3.2222223
-44.24828 24.174051 -1.415055 4.6428571
-44.211277 24.620558 -1.2957802 2.9000001
-44.208347 25.002361 -1.3004662 3.4444444
-44.218842 25.453787 -1.4152265 4.0526314
-44.246231 25.766891 -1.2807705 4.25
-44.221577 26.288996 -1.2984085 3.8
-44.19397 26.6113 -1.3356223 2.6363637
-44.232834 26.966038 -1.3475324 2.5
-44.251122 27.364445 -1.3709252 2.3333333
-44.251717 27.810932 -1.3917992 3.9166667
-44.196495 28.159462 -1.4005105 4
-44.164459 28.600668 -1.4152464 3.4285715
-44.228523 28.971867 -1.4162154 3
-44.311169 29.41328 -1.4367193 3.6666667
-44.289886 29.789749 -1.4529585 3
-44.074116 1.541886 -0.84049684 6
-44.14241 8.6248121 -1.0083106 7
-44.114769 10.373636 -0.87234378 6
-44.217224 10.859557 -1.1194725 3
-44.157417 11.83709 -0.9731136 5.5555553
-44.17207 12.136436 -0.97493207 4
-44.242664 12.653249 -0.99323696 3.9000001
-44.131542 13.046372 -1.0175666 4.1999998
-44.297935 13.343635 -1.000968 4.1666665
-44.290199 13.806723 -0.99037606 4
-44.105389 14.199776 -0.99630225 4.3333335
-44.167446 14.56649 -0.99317437 4.25
-44.195583 15.024838 -0.99719435 4.5
-44.165428 15.39909 -0.9969241 4
-44.347664 15.767324 -1.0124835 4
-44.391338 16.123808 -1.0271109 4
-44.086716 16.767885 -1.044787 3
-44.205742 17.017368 -0.99190897 3.5999999
-44.17778 17.394438 -0.95736444 3.4000001
-44.15498 17.810801 -1.0379521 3.8333333
-44.253365 18.262804 -1.0400512 3.6666667
-44.259953 18.592045 -1.0396016 4.3333335
-44.267483 19.011564 -1.0971442 3.5999999
-44.219837 19.460665 -1.0943292 3.5999999
-44.239342 19.793247 -1.0801276 3.8333333
-44.215607 20.196995 -1.0655382 4.1428571
-44.186375 20.621817 -1.074105 3.8
-44.205193 21.021286 -1.0602366 4.2857141
-44.178471 21.432894 -1.0704987 4.125
-44.204823 21.828302 -1.124477 3.1428571
-44.125866 22.267544 -1.1172459 4
-44.18507 22.650936 -1.1519035 3.8571429
-44.10577 23.009298 -1.1417657 4.4000001
-44.065472 23.391903 -1.1175396 5
-44.264969 23.760363 -1.162757 5
-44.218811 24.07762 -1.1932023 5
-44.351368 25.315641 -1.1932622 6
-44.2901 0.28928077 -0.72458208 7
-44.127853 1.4805043 -0.68351835 6.6666665
-44.193348 1.8044555 -0.49610156 7
-44.125984 2.205775 -0.46148118 7
-44.029762 3.8279805 -0.43557233 7
-44.098076 4.1976457 -0.47758019 7
-44.13842 4.5897579 -0.46999601 7
-44.114529 6.2289815 -0.50985116 7
-44.183918 9.0295439 -0.65059072 4.5
-44.213009 9.4323015 -0.45072553 8.1440001
-44.02874 10.067805 -0.71146882 4
-44.152607 10.86107 -0.5689432 4
-44.175209 11.858824 -0.54170692 5.8888888
-44.165108 12.071229 -0.56071883 5
-44.230835 12.677383 -0.54143858 5
-44.15789 13.021384 -0.70165026 3.5
-44.20348 13.448419 -0.67805481 3.5
-44.24649 13.717604 -0.64834356 3.3333333
-44.171978 14.160952 -0.66522557 3.25
-44.089832 14.49346 -0.63879132 4
-44.373348 15.975043 -0.73726666 4
-44.179916 16.188864 -0.75729513 4
-44.303112 16.694149 -0.74878329 4
-44.233559 16.971476 -0.77677512 4
-44.146091 17.317356 -0.78677797 4
-44.364075 28.735744 -0.49995527 5
-44.190994 29.034107 -0.52506304 5
-44.050568 29.364828 -0.55500466 5
-44.328201 0.3090618 -0.18063287 1
-44.336349 0.43118262 -0.18196487 1
-44.374512 0.94276363 -0.22763377 1
-44.080662 1.4030071 -0.26877537 7
-44.134861 1.889836 -0.22878191 7
-44.113335 2.5330296 -0.23806264 7
-44.104073 3.941319 -0.39183462 7
-44.104874 4.2341523 -0.35252094 7
-44.033989 4.7500863 -0.39273873 7
-44.251091 7.8927746 -0.116262 8.0441256
-44.233185 8.1639595 -0.041962441 8.3792505
-44.195404 8.6109772 -0.050337963 8.2570219
-44.125454 9.0551405 -0.03279873 8.1429996
-44.140671 9.3958702 -0.271162 5
-44.10947 10.081882 -0.32279655 6
-44.095383 10.989781 -0.36996549 5
-44.23399 11.719424 -0.27065086 6.5
-44.209316 12.049257 -0.25365329 6
-44.3218 0.24203038 0.20781356 3.7211998
-44.345909 0.4590621 0.23523399 3.2897856
-44.354534 0.99362135 0.24406235 3.4347856
-44.135418 1.4242252 0.27202347 8.2459002
-44.15427 1.7594745 0.22167562 9.1070004
-44.397312 4.1391211 0.034568649 9.0939999
-44.104233 6.3617549 0.37364635 8.0362501
-44.104332 6.975697 0.022296447 6
-44.223454 7.5172219 0.2785922 8.0283756
-44.157944 7.8319707 0.19618894 7.9091525
-44.155674 8.2634926 0.25843841 9.4505625
-44.179565 8.6122131 0.18239635 9.0257578
-44.185673 8.9903088 0.20830879 9.3970833
-44.143757 10.577629 0.29325008 5
-44.317711 11.365495 0.24871635 8.1615
-44.181923 13.539315 0.049284481 4
-44.026379 26.526243 0.31929061 8.0959997
-44.236858 0.15730815 0.6220451 9.5994148
-44.156979 0.57095724 0.68195689 9.7688675
-44.154343 1.0731502 0.63232565 10.141923
-44.126759 1.4031341 0.59768873 9.7735147
-44.11076 1.6794777 0.55538291 10.060333
-44.380093 4.2918463 0.72804701 8
-44.102058 6.2938309 0.60928488 9.3571663
-44.141998 6.5605979 0.66422796 10.036901
-44.196388 7.8568497 0.61802137 8.7345161
-44.23209 8.2730322 0.58961833 8.7262144
-44.239548 8.5518284 0.56766886 8.9594946
-44.137482 8.9791594 0.62649345 10.489638
-44.18948 9.3329172 0.52715617 9.7723074
-44.055523 9.7281122 0.40822983 6
-44.180798 10.588124 0.6028893 8.1765003
-44.193424 0.16369042 1.0018065 10.370885
-44.148949 0.54758638 1.0047137 10.800018
-44.120647 1.0662296 1.0151291 11.015368
-44.133453 1.4079341 1.0635356 10.431242
-44.175236 1.720178 1.0662917 10.558393
-44.152161 2.2414415 1.0487493 10.0715
-44.157139 3.3592489 1.0654687 8.0811253
-44.269642 3.7415502 1.140767 8.0683746
-44.228962 4.3464174 1.1023464 9.0336246
-44.276295 4.6052189 1.0538164 11.484109
-44.392021 4.952312 1.1593673 12.5
-44.173977 6.2802515 0.97658598 9.7293329
-44.171684 6.5033894 1.1408083 9.5992498
-44.102135 7.4355578 1.0434889 8.0764999
-44.198967 7.8343501 0.97481865 8.3663502
-44.184925 8.171505 0.96589321 9.192379
-44.24255 8.6237984 0.91381079 9.7540722
-44.093857 8.9811792 1.0307193 10.142258
-44.175701 9.3350763 0.971174 10.075933
-44.039398 9.7841377 1.0340437 10.048
-44.118317 10.230443 1.0611624 10.391667
-44.177013 10.568066 1.0954173 8.0009995
-44.18166 10.939976 0.82570285 8.1789999
-44.371826 19.136965 1.1743799 8.0415001
-44.345753 19.532166 0.89793265 10.373
-44.287113 19.7066 1.0571934 10.115231
-44.232155 0.19627787 1.404642 10.631356
-44.190399 0.61922371 1.4337652 10.932029
-44.228065 0.96533954 1.396634 11.403872
-44.134983 1.4205333 1.3916991 10.567451
-44.18475 1.7765536 1.3677362 10.584243
-44.167229 2.20174 1.4052976 12.020781
-44.153492 2.5363662 1.4292324 12.243824
-44.239265 3.3659096 1.312369 8.0354996
-44.316395 3.8471575 1.5119427 8.1276913
-44.264057 4.2128658 1.4370407 10.205215
-44.234535 4.612833 1.3911393 12.143148
-44.205612 4.9718847 1.4991542 12.60111
-44.149635 5.3350086 1.4592324 12.184109
-44.097637 6.2863865 1.3567543 10.619833
-44.179554 6.5504484 1.3947798 10.246438
-44.070866 7.0248127 1.5427256 10.348166
-44.249619 7.4395456 1.3629282 9.0792503
-44.112003 7.7286787 1.4162811 8.6901255
-44.096634 8.2335014 1.3877887 8.8430309
-44.104843 8.5888987 1.3964101 10.152137
-44.108551 8.9594908 1.4152498 11.074712
-44.124275 9.3242064 1.3711482 11.747624
-44.086006 9.8250046 1.4099821 11.887499
-44.148071 10.248689 1.4258956 11.407199
-44.088062 10.610752 1.4783009 12.477418
-44.139801 10.957628 1.5068395 10.745334
-44.346775 19.026606 1.4999428 10.750215
-44.307697 19.467999 1.2948203 10.758
-44.223282 0.2054331 1.7979325 11.63529
-44.188305 0.62674415 1.7973504 11.894945
-44.198578 1.0148104 1.8201547 11.738886
-44.158272 1.3982768 1.8329923 11.376953
-44.231102 1.8071586 1.8511541 11.536102
-44.16914 2.2374446 1.8731904 11.881688
-44.123207 2.5722215 1.7824324 13.67875
-44.153946 2.8171518 1.8845131 15.055
-44.257778 3.3975255 1.8508164 8.6918335
-44.287136 3.855845 1.7730211 8.9799452
-44.293629 4.1946464 1.8111516 9.5929365
-44.2724 4.5795321 1.7871608 12.275521
-44.140781 4.9525919 1.7960682 13.358679
-44.130123 5.4206614 1.7990872 12.661424
-44.072048 5.7306938 1.8494142 14.07525
-44.016548 6.2219553 1.8217279 11.778168
-44.143288 6.5224557 1.734778 9.6905499
-44.312725 7.0276918 1.8567288 13.0255
-44.22427 7.4521279 1.8372636 11.354787
-44.122524 7.7989674 1.7798991 10.587962
-44.156742 8.1917133 1.7735715 9.6268063
-44.149734 8.6025343 1.8007363 10.483859
-44.244637 8.998826 1.7891976 10.34054
-44.139248 9.4493952 1.8830583 12.5588
-44.169682 9.7993784 1.8695703 12.696462
-44.066765 10.377448 1.673943 11.279437
-44.170368 10.633197 1.9045831 13.541416
-44.145084 10.999274 1.7752016 11.145773
-44.136635 11.343164 1.8539824 13.898749
-44.343285 19.178362 1.7230465 10.120125
-44.261974 19.405249 1.7026151 10.6235
-44.181362 0.22381659 2.1301467 11.080981
-44.24818 0.58356911 2.1992457 11.782285
-44.258793 1.0065255 2.1750617 11.984619
-44.122604 1.4528246 2.1106086 10.609334
-44.322388 1.9152188 2.2307682 14.640667
-44.189987 2.2138915 2.1717229 12.942218
-44.19268 2.5871687 2.2700355 12.441583
-44.309113 3.5172641 2.2301731 10.045167
-44.301796 3.788975 2.3041456 10.321375
-44.275513 4.3469329 2.190774 11.704376
-44.212444 4.6044593 2.1613455 12.467092
-44.208534 4.9576387 2.1545734 13.312201
-44.150024 5.3972759 2.221983 13.292289
-44.271481 5.7012382 2.334749 12.839139
-44.083782 6.3546162 2.1985464 11.118
-44.06068 6.6090207 2.114068 10.113501
-44.118034 6.9501777 2.1612539 11.60375
-44.207687 7.4184599 2.2116792 13.214425
-44.112068 7.777936 2.2216327 12.474685
-44.126213 8.1378193 2.2744772 12.179499
-44.197826 8.4906597 2.1169004 13.527195
-44.149246 9.0261011 2.1999888 11.312
-44.145821 9.3836298 2.177938 13.433115
-44.073788 9.7782507 2.1541624 13.538751
-44.047447 10.075976 2.0658433 15.032
-44.18132 10.622038 2.0995328 13.189124
-44.205193 11.042395 2.132575 13.30765
-44.188053 11.343912 2.2351234 13.331047
-44.190262 11.64051 2.3437381 13.1755
-44.164753 0.19789691 2.5387034 11.02788
-44.231716 0.58191484 2.5416701 11.477604
-44.178806 1.0094776 2.5665212 11.144352
-44.180229 1.4016974 2.639998 11.144537
-44.199749 1.7670063 2.6162295 11.372125
-44.17469 2.1895497 2.6058252 12.446927
-44.110798 2.5450277 2.5530715 12.675117
-44.351604 3.540132 2.5911484 10.972099
-44.286057 3.8008173 2.5660932 11.280742
-44.199135 4.2364812 2.6563141 12.075739
-44.239174 4.5242548 2.6471055 11.802032
-44.176971 5.0043578 2.6105325 12.343572
-44.078671 5.2504473 2.6571615 12.7445
-44.079842 5.8234086 2.4584644 12.724167
-44.057369 6.2987103 2.5470626 9.0946665
-44.213623 6.5036373 2.6191432 9.7010002
-44.234413 7.1489305 2.4391489 11.091499
-44.194412 7.4387879 2.591943 12.3765
-44.162716 7.8074841 2.564657 12.762383
-44.136845 8.216404 2.5503178 12.052083
-44.133186 8.6089401 2.6832387 13.132343
-44.104679 8.8542671 2.438139 11.649918
