# .PCD v0.7 - Point Cloud Data file format
VERSION 0.7
FIELDS x y z intensity
SIZE 4 4 4 4
TYPE F F F F
COUNT 1 1 1 1
WIDTH 1265
HEIGHT 1
VIEWPOINT 0 0 0 1 0 0 0
POINTS 1265
DATA ascii
-83.484825 81.901489 0.64660698 11.68259
-83.353676 82.153336 0.62937987 11.377096
-83.390007 82.542664 0.55394047 10.121
-83.36853 83.142715 0.47020644 9.0314999
-83.367645 83.318848 0.58553898 10.637713
-83.344193 83.849472 0.5284605 9.6300001
-83.356926 84.189499 0.58153957 10.891278
-83.374542 86.398842 0.45908934 9.1405001
-83.374771 86.636917 0.57434255 10.549576
-83.370155 87.00676 0.59697598 10.890458
-83.334068 87.590103 0.74316978 9.0310001
-83.521736 88.308807 0.72468424 9.0310001
-83.585861 88.634872 0.50316948 9.0305004
-83.522308 81.883812 0.86702055 11.962832
-83.412788 82.342308 1.0138414 11.798458
-83.338844 82.543633 1.0009834 11.254063
-83.36348 82.929787 0.9970327 11.36175
-83.413734 84.167694 0.87126142 11.4515
-83.590843 86.403854 1.1327244 12.1335
-83.217636 86.826721 0.89228731 9.5955
-83.462204 87.780609 0.86798888 9.0310001
-83.56826 88.700371 0.88184112 9.0305004
-83.492393 81.912964 1.5570383 11.104
-83.358887 82.321121 1.2657644 12.983542
-83.361015 82.52729 1.3832382 12.857037
-83.429802 83.002472 1.3609284 12.17
-83.557938 83.767365 1.509818 9.1709995
-83.221252 84.132454 1.4842216 10.1455
-83.306747 86.971275 1.3498228 11.733334
-83.371689 87.284233 1.3566891 10.58375
-83.526169 87.862289 1.4753727 11.154167
-83.507957 81.804504 1.8146166 13.146214
-83.421783 82.234215 1.8127334 13.879333
-83.358452 82.617851 1.7865237 13.404222
-83.412491 82.981949 1.7096874 12.1225
-83.355362 83.345703 1.7328852 13.120251
-83.353584 83.747665 1.7990432 11.11725
-83.483887 86.984718 1.9089832 11.0915
-83.558228 87.428848 1.7139269 12.147
-83.459335 87.745224 1.7185222 10.10275
-83.239189 82.182373 2.2847583 14.026899
-83.34021 82.587807 2.1859686 12.279416
-83.363312 83.030457 2.1953108 12.115832
-83.410187 83.794426 2.1887953 11.770332
-83.416573 84.019745 2.3937309 12.1075
-83.494698 87.032349 2.2759418 10.032249
-83.502693 87.457123 2.2760901 10.03275
-83.314667 82.25843 2.5123336 14.223849
-83.345772 82.620743 2.5187514 14.322721
-83.394737 82.86776 2.558357 14.245679
-83.278969 83.499031 2.4555471 12.1065
-83.38092 83.870789 2.7051957 12.776834
-83.386528 84.135681 2.5332625 12.1075
-83.378387 82.935776 2.9857943 14.006658
-83.286934 83.268188 3.0225592 15.1215
-83.252312 83.915604 2.9175849 12.618
-83.322777 84.119637 2.9310691 13.874375
-83.335098 82.81942 3.203222 15.1185
-82.804459 67.651146 -4.6840878 7
-82.846413 76.677673 -4.3179255 7
-82.916969 76.961952 -4.0611043 7
-82.931541 60.134117 -3.7217963 7
-82.945381 77.504852 -3.8234332 7
-83.135628 78.221817 -3.8160403 7
-83.122177 79.768997 -3.8336015 7
-82.83828 89.079529 -3.6291683 6
-83.055527 89.472702 -3.7714868 6
-83.17292 62.789734 -3.5419185 8.1190004
-83.010582 62.909176 -3.2023911 5
-83.093117 63.528107 -3.2037992 5
-83.122894 63.837357 -3.2211385 3.3333333
-83.015388 64.286896 -3.2225602 4.6666665
-83.019287 64.653854 -3.2250617 4.5999999
-83.035057 65.028389 -3.2285645 4.25
-82.991928 65.437302 -3.2235985 3.625
-82.944603 65.860474 -3.2280545 3
-83.019806 66.263786 -3.232851 2.5555556
-83.040894 66.662422 -3.2456629 2.4444444
-83.064201 67.095474 -3.2631507 2.4444444
-83.079613 67.455719 -3.2814178 2.2727273
-83.100166 67.81662 -3.3025205 2.7777777
-83.049026 68.221107 -3.3423371 4.1999998
-83.05555 68.545029 -3.3479435 3.6666667
-83.082214 69.042168 -3.3038328 2.8333333
-83.043694 69.472954 -3.2155263 2.3333333
-83.058914 69.689697 -3.2274902 2.5
-83.114624 70.205986 -3.213881 3
-82.944534 70.569481 -3.2832451 4.3333335
-82.905273 70.85199 -3.2524395 5
-82.853058 71.242668 -3.2657912 5
-83.004608 71.836525 -3.2545805 1.9
-83.024834 72.161659 -3.2601342 2.1818182
-82.964386 72.666992 -3.2689173 2.5
-83.09211 72.899017 -3.2389123 1.7142857
-83.100327 73.419777 -3.2685754 2
-82.980347 73.84449 -3.2592881 2.75
-82.980606 74.168884 -3.2846363 2.7142856
-82.863518 74.66584 -3.3336973 4.3333335
-82.985527 75.090256 -3.3396544 4
-83.019211 75.418091 -3.2901292 3
-83.035881 75.748802 -3.2892189 3.909091
-82.857918 76.232765 -3.265029 4.75
-83.01754 76.642792 -3.2755859 4.8000002
-83.044724 77.032349 -3.3017876 5
-83.027832 77.305634 -3.3227835 5
-83.029358 77.740852 -3.2772956 4
-82.885406 78.324638 -3.3389113 4
-83.02829 78.512863 -3.36168 5
-82.985519 78.991219 -3.3721237 5.6666665
-83.167885 79.711891 -3.3650103 5
-83.177269 80.486885 -3.2921295 5
-82.922928 81.001282 -3.3809268 5.5
-82.936996 81.389473 -3.4003713 5.5999999
-83.018845 81.754021 -3.36691 5
-83.026253 82.287788 -3.4044962 5
-83.030045 82.483925 -3.4057937 5
-83.026382 83.044273 -3.4464211 5
-82.953568 60.126282 -2.8765163 1.4444444
-82.934967 60.565475 -2.8988426 3.75
-83.093521 61.028625 -2.9670365 4
-82.914154 61.517185 -2.9477725 2.6666667
-83.047623 61.769436 -2.9869611 3.4000001
-83.032364 62.228909 -3.0079839 2.2
-83.073418 62.671196 -3.0060682 1.8
-83.030289 62.954315 -3.0894377 2.7333333
-83.118454 63.365284 -3.1775577 2.75
-83.070946 63.928085 -3.1699355 1.6666666
-83.023987 64.302574 -3.1761427 1.6666666
-82.995766 64.639313 -3.1817064 0.71428573
-82.972618 65.103981 -3.187475 1
-82.960045 65.523438 -3.1905582 1
-82.977402 65.924629 -3.1975038 1
-82.821648 69.493019 -2.8676627 8.1169996
-82.907211 69.924034 -3.1862538 3
-82.9534 70.221001 -3.1642401 3
-83.147034 70.721382 -3.1618361 4
-83.017273 71.144493 -3.1578944 0.5
-83.040154 71.450981 -3.1857686 2
-82.954391 71.90313 -3.1956897 2
-82.933418 76.470345 -2.8487899 7
-83.036087 63.474266 -2.4977796 7
-83.04171 67.08033 -2.7797952 7
-83.083015 64.137642 -2.3969646 6
-82.818756 70.415886 -1.8806529 7
-83.170433 77.930763 -1.628019 8.1289997
-82.980446 77.78949 -1.2063648 9.1285
-83.135139 78.196449 -1.4467844 8.1525002
-83.111534 78.480461 -1.4505751 8.1518755
-83.191032 78.812683 -1.2385801 8.1610003
-83.141678 78.156502 -0.87830085 9.1540003
-83.103142 78.620598 -1.1536982 9.1301661
-83.105453 85.776894 -0.87366694 9.1330004
-82.972763 86.599014 -0.81872582 9.1455002
-83.060188 87.012253 -0.9529317 9.0509996
-82.889671 87.554588 -0.97285008 9.0918341
-83.121437 87.850693 -0.93771416 9.1379995
-82.907921 79.420883 -0.61097831 7
-83.143723 85.886375 -0.50789517 8.777833
-83.021843 86.401436 -0.49234727 9.1540003
-83.143257 83.159111 -0.3178401 9
-83.092453 83.229431 -0.32001799 9
-83.175842 84.222595 -0.039959244 9.1619997
-83.185242 85.95031 -0.30917186 10.126
-82.969521 86.710182 -0.1371904 9.095437
-83.014267 86.942291 -0.15756388 9.7916107
-82.866325 87.3582 -0.23772724 10.068251
-82.818581 80.163094 0.048802104 8.0515003
-82.966064 82.300217 0.26230714 10.5
-83.027184 82.448486 0.34177294 11
-82.871597 82.928665 0.34241936 10.1295
-82.891075 83.83551 0.30181926 9.6537495
-83.048592 84.184784 0.26514378 10.520346
-83.198418 84.551933 0.38280955 8.1700001
-82.827835 86.867851 0.0057087261 9.1610003
-83.054108 87.276672 0.29496488 9.15975
-82.921188 81.900887 0.76118612 11.75175
-83.02253 82.226631 0.62220675 11.859411
-82.955208 82.486671 0.66562748 11.345501
-82.933304 83.035629 0.57825613 10
-82.926414 83.73436 0.70894235 10.818833
-83.083794 84.164696 0.57656527 10.289773
-82.921959 84.491486 0.60150629 10.096375
-83.062149 84.862854 0.61064279 10.1185
-83.10128 86.677414 0.59128773 10.118
-83.041832 87.0327 0.53750175 10.718358
-83.021698 87.379135 0.60514742 10.433889
-82.950996 87.698196 0.62573808 10.428333
-82.825485 81.499649 1.0642128 13.1335
-83.011154 81.857124 0.97220707 11.938874
-83.096786 82.212914 1.0318985 12.027445
-83.015671 82.49015 0.99695742 10.526875
-82.964188 83.379158 0.83977509 11.1125
-82.883324 83.901566 1.13222 10.1635
-83.067253 84.259338 0.94519985 10.316701
-82.987366 84.566132 1.00077 9.0262499
-83.087402 86.989998 0.95192611 10.108376
-83.1716 87.469406 1.1015803 9.0625
-83.158173 87.933487 0.80594325 9.0559998
-82.933281 81.920616 1.4146514 12.693937
-83.087624 82.146065 1.4023392 12.357634
-83.013039 82.528664 1.3035784 12.656375
-82.927505 83.072449 1.3294966 11.106
-82.853615 83.322922 1.4032681 11.438499
-83.051666 84.240746 1.3891993 10.66175
-82.910988 84.553268 1.5602865 11.1595
-83.135445 87.032028 1.2728224 11.760167
-82.906853 81.410355 1.6058948 14.1355
-82.987823 81.889709 1.8274662 13.520116
-83.04348 82.114838 1.7956181 13.242667
-83.060379 82.588707 1.8593872 13.890092
-82.870583 82.926117 1.813211 13.118
-83.064507 83.668259 1.9751841 11.1125
-83.060143 84.351837 1.7295182 10.648
-82.992867 81.919556 2.0726697 13.280001
-83.065742 82.218277 2.2023842 13.53997
-82.980995 82.507248 2.1699426 13.430111
-83.007782 82.873497 2.0928435 13.137668
-83.065399 83.661804 2.0425158 11.103
-83.130608 84.056931 2.3195972 12.108
-82.933617 84.545166 2.2091079 11.492332
-83.141869 84.810135 2.240458 13.1175
-83.030411 82.220627 2.5958786 14.12249
-83.007019 82.525124 2.5207372 14.654133
-83.083832 82.964424 2.6448033 13.8375
-82.855667 83.279938 2.6356177 15.137751
-83.121872 83.696297 2.6389039 12.776668
-82.983444 84.639816 2.4318764 10.148
-83.188812 82.71743 2.9163167 15.121
-83.003571 82.969688 3.0086212 14.058398
-82.920525 83.915733 2.9642985 14.895
-82.991928 84.091377 2.9647558 14.799832
-82.451233 68.55484 -4.740375 7
-82.692261 77.503937 -3.7817373 7
-82.579315 88.613533 -3.6391234 6
-82.780449 63.477772 -3.224824 4
-82.792664 63.781635 -3.2279911 4
-82.429314 64.246445 -3.2027864 1
-82.490005 64.637466 -3.2073169 1
-82.578323 65.00808 -3.2184014 1.6666666
-82.513878 65.446899 -3.230634 0.5
-82.504585 65.818481 -3.3335052 3.25
-82.448349 66.171059 -3.442935 6
-82.495331 66.591766 -3.2635181 0.75
-82.463943 67.031273 -3.2645137 1.8
-82.449646 67.426468 -3.2703454 2.3333333
-82.519508 67.93029 -3.2919412 2.3333333
-82.544312 68.325996 -3.3084123 2.3333333
-82.518417 68.635025 -3.3152673 1.8
-82.639366 69.143463 -3.2654929 2.8571429
-82.653427 69.475655 -3.2160993 3
-82.60463 69.742767 -3.3109493 4.7142859
-82.579834 70.265869 -3.2967196 4.3333335
-82.71534 70.784195 -3.2087364 3
-82.651733 70.990341 -3.2338102 4.25
-82.583443 71.397171 -3.2435091 3
-82.594299 71.8834 -3.2302999 1.125
-82.668289 72.080589 -3.225642 2.3333333
-82.629242 72.62854 -3.2332411 1.9230769
-82.653366 73.012856 -3.2479789 3.6666667
-82.574883 73.457787 -3.2384081 3
-82.655167 73.832268 -3.252533 2.3333333
-82.568565 74.141693 -3.244513 2.8571429
-82.483139 74.535248 -3.2397957 3
-82.626053 74.916725 -3.26878 3
-82.633858 75.424553 -3.3000102 3.6666667
-82.541412 75.778053 -3.2617552 4
-82.549179 76.157036 -3.2678499 4.5999999
-82.548088 76.595352 -3.3551283 5.5555553
-82.644402 77.019157 -3.3517594 4.909091
-82.653122 77.392403 -3.2599001 4
-82.562965 77.820793 -3.2869635 4.6666665
-82.615883 78.241432 -3.2939496 4.6666665
-82.689857 78.492081 -3.374907 6
-82.671295 79.059219 -3.3313997 5
-82.589447 79.398117 -3.3524268 5
-82.484665 79.864998 -3.345597 5
-82.635719 80.118195 -3.3092954 5
-82.578995 80.540184 -3.2990136 5
-82.775841 80.894218 -3.2622654 5
-82.537766 81.437393 -3.378793 5
-82.470161 81.692123 -3.3317692 5
-82.660156 82.267685 -3.4366384 5
-82.619164 82.614258 -3.4203608 5
-82.558105 82.976326 -3.4596555 5
-82.639267 83.571381 -3.5043442 5
-82.450401 88.011047 -3.5778604 6
-82.532837 60.167496 -2.8834436 2.1111112
-82.719139 60.75478 -2.8964055 4
-82.638443 61.068851 -2.9276426 3
-82.614876 61.298859 -2.9907517 4.4000001
-82.645462 61.797184 -3.0310137 3.25
-82.510773 62.182903 -2.980433 3
-82.601143 62.585487 -3.0103726 3
-82.604149 63.002277 -3.1266849 2.375
-82.614235 63.344604 -3.1885762 3.3333333
-82.688736 63.852512 -3.1951845 3.5
-82.736938 64.11264 -3.1947172 4
-82.75824 64.459763 -3.1987205 4
-82.764511 69.58448 -2.954963 8.1195002
-82.58239 69.849533 -3.0861504 4.8000002
-82.68512 70.12664 -3.1749907 4
-82.496758 71.002502 -3.1854076 3
-82.452812 71.478394 -3.1898484 2.5
-82.664696 71.755592 -3.1812348 1.5
-82.45163 72.237625 -3.1914728 2.6666667
-82.610397 72.953209 -3.168082 2
-82.534325 77.153885 -3.025491 5.5
-82.536736 77.893295 -2.8295891 7
-82.503304 82.562889 -2.9796641 7
-82.787437 61.558662 -2.6969533 7
-82.609978 63.300022 -2.6997654 7
-82.478111 64.825493 -2.7202423 7
-82.458946 69.578842 -2.4914415 6
-82.6371 69.751701 -2.5883482 6.032167
-82.600159 69.785118 -2.2081757 6.8602724
-82.541344 69.787971 -1.8032811 7.410533
-82.575859 69.791801 -1.4693143 8.2775936
-82.584801 69.794434 -1.0123721 9.127059
-82.584084 85.866196 -0.88306534 9.1201248
-82.586632 87.066612 -0.9178986 9.1346254
-82.577774 87.507912 -0.96092075 9.0848331
-82.623055 87.771339 -0.96609491 9.1279287
-82.605515 88.211601 -0.99282408 9.1219997
-82.580132 69.801208 -0.72657591 9.5346251
-82.62191 79.994072 -0.66400015 7
-82.404991 83.195831 -0.70551842 8.0334997
-82.797791 84.735123 -0.59604764 8.1110001
-82.601395 86.030983 -0.41132259 8.0225
-82.488014 86.619057 -0.44399172 9.1555004
-82.750244 88.130539 -0.79710257 9.1444998
-82.573425 69.810646 -0.16559584 10.698501
-82.737053 81.918793 -0.21741748 9.1260004
-82.749657 82.246346 -0.061249662 9.1269999
-82.526764 85.881012 -0.343878 9.0790005
-82.681023 86.763885 -0.26093695 9.8920002
-82.646469 86.976868 -0.18057197 9.5114565
-82.625534 87.281952 -0.21167217 9.3620005
-82.502945 69.834129 0.28256211 12.484501
-82.499954 81.795692 0.39787069 10.1035
-82.709641 82.339851 0.25611514 10.5955
-82.621643 82.439636 0.23132676 11.12
-82.763298 84.167 0.2791355 10.479167
-82.577583 87.010262 0.10016639 9.7087002
-82.498199 87.260193 0.15892419 9.0839996
-82.487511 69.882874 0.51659608 12.389556
-82.409218 70.087234 0.58720249 14.167
-82.640663 81.53598 0.63978475 9.0795002
-82.637924 81.788971 0.6603595 11.566479
-82.58226 82.349289 0.62799895 11.5125
-82.58654 82.540527 0.67025781 11.1115
-82.434769 82.948753 0.60427231 8.8131666
-82.502533 83.527023 0.48881623 10.104
-82.688843 83.650742 0.62334269 11.1495
-82.687202 87.505692 0.51747543 10.1545
-82.728455 87.686447 0.59204429 11.07
-82.575699 81.513321 1.0556253 12.500709
-82.6605 81.74675 0.97567135 12.070958
-82.58297 82.135162 1.038027 11.1405
-82.580124 82.553658 0.95714444 11.485955
-82.424232 83.117378 0.90208656 10.1625
-82.727875 83.47007 1.0054086 10.629167
-82.615227 83.8041 0.93565911 9.933917
-82.711487 84.193069 1.1355031 9.6140003
-82.718384 84.57032 0.84942394 9.1479998
-82.581757 81.347092 1.4888642 11.617374
-82.58091 81.76516 1.3640321 12.278868
-82.729752 82.056534 1.2720537 13.06175
-82.6306 82.693413 1.3886486 12.484231
-82.528343 82.964775 1.3012474 11.630417
-82.581062 83.353569 1.3801091 11.669072
-82.518547 83.863998 1.3651938 12.141251
-82.571045 84.124573 1.274277 10.113251
-82.613747 81.476974 1.6681181 13.760343
-82.63588 81.814148 1.7440072 13.224
-82.687798 82.139328 1.9169288 13.870584
-82.450111 82.49292 1.8491927 12.691
-82.745583 82.889259 1.6147795 13.128999
-82.660339 82.204155 2.0257013 14.145
-82.720917 82.659782 2.2409954 13.153584
-82.614693 82.923058 2.1640265 14.144501
-82.609077 83.488167 2.3191569 12.65475
-82.51416 83.654877 2.2585211 13.151501
-82.603081 84.012779 2.2713478 14.1425
-82.754723 84.541084 2.1758728 13.149
-82.716644 82.236954 2.6230466 15
-82.632973 82.641029 2.5045385 14.832126
-82.53006 83.191589 2.5390687 14.1485
-82.624397 83.445587 2.6957603 15.13975
-82.500481 83.753151 2.5371959 12.1208
-82.67627 83.004997 3.0291851 15.1205
-82.224129 60.372749 -4.0374622 7
-82.119438 74.144707 -4.205308 7
-82.318703 74.602188 -4.0299902 7
-82.390129 75.069794 -4.3031774 7
-82.379448 75.418358 -4.0509701 7
-82.276932 77.670486 -4.0288296 7
-82.299721 60.875286 -3.7870736 7
-82.261177 61.857605 -3.9419193 7
-82.250267 74.527626 -3.8349717 7
-82.188446 75.347221 -3.8657596 7
-82.232483 76.15509 -3.8892081 7
-82.049583 87.72374 -3.6167266 6
-82.286697 88.21981 -3.644767 6
-82.076225 62.026836 -3.2369528 6
-82.146652 63.022335 -3.2154808 5
-82.110741 63.343014 -3.308161 5.5
-82.226112 63.850197 -3.2574291 2.25
-82.233948 64.223122 -3.2764988 2.6666667
-82.295822 64.652428 -3.2831199 2.6666667
-82.317604 65.036385 -3.3184471 4
-82.3685 65.424286 -3.3240819 4
-82.348297 65.879585 -3.2116866 2.6666667
-82.020676 66.357483 -3.2123094 1
-82.284142 66.626152 -3.2585595 2.8571429
-82.165215 67.075699 -3.3214917 2.6666667
-82.150291 67.459137 -3.3169024 2
-82.201797 67.857109 -3.3226357 1.7142857
-82.276405 68.28112 -3.3469238 2
-82.28228 68.748421 -3.3368504 1.6666666
-82.269623 69.083267 -3.3084989 1.6666666
-82.228592 69.440125 -3.266876 4
-82.183899 69.783943 -3.2347908 3
-82.307976 70.172188 -3.2152848 3.25
-82.199844 70.662048 -3.2417185 4
-82.244247 71.599052 -3.2461469 0
-82.184242 71.853989 -3.2368624 1.5454545
-82.278603 72.281395 -3.2530892 1.5
-82.186462 72.71701 -3.2587159 2.4000001
-82.191742 73.004799 -3.2634299 2.8333333
-82.276894 73.467651 -3.2583325 3.2
-82.138405 73.761597 -3.2556536 3
-82.21122 74.09269 -3.2397099 2.8571429
-82.184692 74.481201 -3.2306819 4
-82.283569 75.040741 -3.2367747 3.7777777
-82.192154 75.452141 -3.2629194 4
-82.132149 75.839073 -3.3438675 5
-82.148468 76.278275 -3.3888643 5.3333335
-82.208366 76.723625 -3.3624082 5.1666665
-82.221024 76.897415 -3.2709641 4.3333335
-82.203461 77.413513 -3.2898278 4.8571429
-82.293053 77.756783 -3.2540312 4.5
-82.307816 78.055466 -3.3676176 7
-82.138412 78.521851 -3.348357 5
-82.22094 79.050407 -3.303189 5
-82.283295 79.533363 -3.3992746 5
-82.196388 79.888161 -3.4099948 5
-82.266541 80.118202 -3.3452516 5
-82.176392 80.639427 -3.3708096 5.5999999
-82.193817 81.536728 -3.3759332 5
-82.216545 81.881981 -3.3948765 5
-82.189392 82.052811 -3.3768442 5
-82.253838 82.628441 -3.4351063 5
-82.203743 82.863754 -3.4423771 5
-82.162354 83.285797 -3.4879651 5
-82.213043 83.92688 -3.5431092 5
-82.349648 86.280624 -3.5693345 6
-82.309616 86.424446 -3.5077114 6
-82.20784 87.531013 -3.5501282 6
-82.195778 88.367348 -3.5953562 6
-82.182907 60.105385 -2.8687108 2
-82.343582 60.642635 -2.9208236 4
-82.242821 60.999615 -2.9343765 4
-82.195915 61.447712 -2.947304 4.25
-82.213722 61.858845 -2.9679315 3.125
-82.118965 62.330914 -2.984158 2.3333333
-82.206047 62.605255 -3.0034974 1.8
-82.210419 62.938622 -3.0583797 2.8
-82.213974 63.456188 -3.1789265 1.7142857
-82.200539 63.865955 -3.1761799 2
-82.173325 64.307137 -3.174751 2
-82.144737 64.744812 -3.1823676 2
-82.287239 65.156342 -3.1907675 3
-82.30851 65.511864 -3.1963277 3
-82.004539 65.878082 -3.1972556 1
-82.134613 69.154572 -3.1957815 1
-82.018044 69.419022 -3.1807654 2
-82.310501 69.811089 -3.1161954 5
-82.099304 70.582123 -3.1958365 3
-82.240547 71.151466 -3.1807873 3.3333333
-82.193413 71.389091 -3.1835122 1
-82.220718 71.892654 -3.1934433 2.3333333
-82.253387 72.160896 -3.1808457 1.3333334
-82.328918 73.155579 -3.1796198 3
-82.200233 73.904671 -3.1995378 3
-82.107765 74.394066 -3.184108 3
-82.359352 80.752808 -2.9284463 7
-82.11879 81.524757 -2.9404533 7
-82.370728 83.392082 -2.9971175 7
-82.256447 62.351101 -2.5488021 7
-82.345619 65.569748 -2.7280984 7
-82.066292 63.357353 -2.3463981 7
-82.240959 69.808708 -1.7908787 6.1666665
-82.29998 69.81546 -1.3897386 8.5684996
-82.371658 86.119446 -1.5480416 9.1309996
-82.250008 69.819824 -1.0420885 9.7694998
-82.282532 85.926918 -0.84935397 9.1450005
-82.238174 86.200089 -0.88421738 9.1224995
-82.111244 86.942863 -0.95677298 9.138917
-82.353004 69.821457 -0.69658488 9.1195002
-82.295357 80.001411 -0.53197753 7
-82.172867 85.920036 -0.49977052 9.1543751
-82.253632 86.009949 -0.40781981 8.0220003
-82.039894 86.550308 -0.53321207 9.1529999
-82.172119 85.978264 -0.32579955 10.1315
-82.113434 86.546104 -0.27441245 9.3276997
-82.329582 87.071266 -0.15992129 9.2974167
-82.394493 87.247543 -0.18580593 10.1225
-82.361015 69.89679 0.26493844 13.167749
-82.353195 82.107918 0.33880296 10.104
-82.329346 87.032394 0.10490442 8.0200005
-82.312927 69.838066 0.54625052 12.851317
-82.245476 81.741821 0.72961408 10.163
-82.33876 82.37558 0.56269062 11.1425
-82.213036 82.60939 0.67946422 11.314228
-82.21254 87.285767 0.51426923 9.0319996
-82.315773 81.459984 1.0418251 11.646125
-82.319618 81.710091 1.0063181 12.129687
-82.135841 82.330505 1.1657716 12.566999
-82.257767 82.608398 0.97885722 10.880375
-82.219543 83.0121 0.93183714 9.0877495
-82.351158 83.65596 0.87107641 11.153
-82.358673 81.555176 1.4929584 12.155167
-82.188965 82.279976 1.3306236 12.328401
-82.250351 82.538658 1.2652684 11.78
-82.163544 83.095367 1.4519343 12.1485
-82.36171 83.273392 1.4324629 13.141
-82.340073 83.985146 1.4157207 8.1409998
-82.241333 81.521507 1.6785939 14.12875
-82.128105 82.353683 1.8105954 14.1375
-82.18708 82.492249 1.8153841 13.780833
-82.148483 83.37307 1.9268531 9.1079998
-82.371864 82.962868 2.582752 15.1295
-82.345284 83.544907 2.5742316 8.0159998
-82.193855 83.878067 2.81354 9.1040001
-81.814796 76.499344 -4.5234995 7
-81.625908 75.893593 -4.2489896 7
-81.839592 60.169594 -3.6572649 7
-81.67955 76.252785 -3.8455498 7
-81.775803 88.246124 -3.6010687 6
-81.822914 62.892014 -3.2790668 6
-81.609367 63.94413 -3.2231927 5
-81.650787 64.608612 -3.2123764 2.3333333
-81.719284 65.049309 -3.2286239 3.6666667
-81.744583 65.481712 -3.2135005 3.2
-81.771805 65.887268 -3.2190609 2.5999999
-81.834152 66.253357 -3.2284544 3.75
-81.883965 66.66732 -3.2350533 2.2
-81.839127 67.041557 -3.2549829 2.375
-81.825592 67.515938 -3.2776611 3
-81.882774 67.784309 -3.2995358 4
-81.890938 68.159073 -3.3154798 4
-81.919434 68.645126 -3.3264351 3.5
-81.850075 69.088837 -3.2738311 2
-81.738052 69.258949 -3.2250888 3.5
-81.979759 69.856224 -3.2150848 4
-81.771439 70.277611 -3.2188392 3.3333333
-81.700661 70.582977 -3.2290425 4.1999998
-81.604134 70.856857 -3.233125 4
-81.818924 71.788689 -3.2374425 0.33333334
-81.807129 72.23069 -3.2710757 2.8333333
-81.775085 72.611504 -3.2448726 3.1666667
-81.767952 73.00676 -3.2676864 2.2
-81.77182 73.37928 -3.3100121 3.4000001
-81.828735 73.844917 -3.2533221 2.9000001
-81.778107 74.166107 -3.2451403 3
-81.847847 74.59317 -3.2964113 5
-81.692757 75.149048 -3.2394376 4
-81.823013 75.440948 -3.2951446 4.3636365
-81.757889 75.753418 -3.3037226 3.8
-81.802338 76.164589 -3.3626022 4.8333335
-81.790428 76.602234 -3.2767036 5.1999998
-81.699455 76.972046 -3.2713771 4.75
-81.89856 77.452065 -3.2570624 4.4000001
-81.848862 77.751915 -3.2631938 4
-81.731117 78.274826 -3.3439949 4
-81.681213 78.555923 -3.3241043 4.5
-81.991684 78.909195 -3.3018923 5
-81.727203 79.930977 -3.3458059 5
-81.833611 80.160965 -3.3742087 5.4545455
-81.842232 80.630913 -3.3116882 5
-81.664307 81.493431 -3.3255143 5
-81.791855 81.976532 -3.3559172 5
-81.732697 82.198692 -3.4145648 5
-81.918198 82.599472 -3.4270639 5
-81.848938 82.944466 -3.4486711 5
-81.844986 83.247246 -3.4780777 5
-81.754303 83.976074 -3.5331852 5.5
-81.63279 84.313431 -3.4533277 6
-81.882866 84.57431 -3.5073335 6
-81.831444 87.318748 -3.548609 6
-81.838684 60.19738 -2.8752 1.625
-81.831886 60.730644 -2.8916607 3.6666667
-81.776863 61.14204 -2.9184358 3.5
-81.792488 61.417046 -2.9399288 3
-81.66301 61.797134 -2.9966092 3.1666667
-81.880562 62.196468 -3.0070734 3.1666667
-81.907959 62.654469 -3.0031314 3.2222223
-81.782593 63.013302 -3.0680666 2.4166667
-81.764229 63.479992 -3.1732652 3
-81.72863 63.920147 -3.1799915 3
-81.711639 64.358398 -3.1864357 3
-81.836723 64.634674 -3.1865315 1.2
-81.85582 65.098022 -3.1915183 1.6
-81.950661 65.500984 -3.191083 0.66666669
-81.911949 65.885574 -3.1891365 0
-81.919144 66.200966 -3.1989386 0
-81.752968 69.906387 -3.1848156 2
-81.952286 70.796242 -3.1904802 4
-81.925156 71.098846 -3.1682465 0
-81.790306 71.404152 -3.1761675 2.1666667
-81.858032 71.804825 -3.1860561 2.25
-81.816757 72.044937 -3.1913924 1
-81.823982 72.648941 -3.1808271 2
-81.847527 73.638664 -3.1879058 3
-81.853523 74.186104 -3.1659052 3
-81.810982 74.685013 -3.1804771 3
-81.917152 75.449081 -3.1912954 4
-81.747734 88.502457 -1.7467877 8.1350002
-81.66391 84.578827 -0.93538296 9
-81.79039 86.576904 -0.52556193 9.1528749
-81.990906 86.365158 -0.26761165 10.1285
-81.899162 86.523239 -0.23515485 9.4309998
-81.765419 86.94458 -0.10660104 8.0205002
-81.859024 82.341301 1.119112 11.651937
-81.691803 82.544388 1.1201996 11.653749
-81.785515 82.299477 1.3524603 12.7333
-81.779045 82.480614 1.337714 13.130752
-81.953003 83.128738 1.2619706 11.159
-81.720642 60.151402 1.991472 10.1145
-81.799164 82.28904 1.807565 14.131313
-81.901161 82.578026 1.8234216 13.14025
-81.708977 83.011833 1.7221187 12.1555
-81.775322 60.013828 2.2758741 11.1175
-81.806076 84.082588 2.3541059 9.1385002
-81.695427 60.154228 2.6774087 12.733833
-81.754509 60.05806 2.8169792 15.079
-81.746841 85.950462 3.0076365 8.0129995
-81.731056 60.216343 3.7875276 12.0855
-81.377129 75.722122 -4.5339255 7
-81.234795 75.571083 -3.8729208 7
-81.2547 84.002434 -3.9501984 7
-81.547798 63.161507 -3.2128844 5
-81.593819 63.632973 -3.2177567 5
-81.216011 64.280434 -3.2034388 0
-81.314743 64.724319 -3.2033453 1
-81.361565 65.116104 -3.2091846 1
-81.442398 65.429756 -3.2126002 1.6666666
-81.449379 65.784492 -3.2180748 1.6666666
-81.529037 66.063011 -3.2177601 3
-81.345528 66.548943 -3.2320888 1.6
-81.317009 66.972534 -3.2481441 2
-81.313797 67.432091 -3.2629244 2.3333333
-81.395393 67.86615 -3.2855766 1.8
-81.368401 68.188072 -3.2984576 1.7142857
-81.39566 68.601868 -3.3095751 2
-81.36058 69.023392 -3.2982407 2.1111112
-81.419838 69.389175 -3.2219424 2
-81.244888 69.834412 -3.2346377 2.5
-81.367943 70.231911 -3.2292562 3.3333333
-81.423347 71.061058 -3.2128775 3.6666667
-81.353966 71.41169 -3.2406149 3.5
-81.3283 71.814713 -3.2490463 2.3333333
-81.404343 72.114639 -3.2413836 1.6666666
-81.432755 72.669617 -3.2522652 2.8333333
-81.429306 72.980247 -3.3242445 2.1666667
-81.404541 73.458763 -3.2437925 3
-81.403442 73.801308 -3.245559 3
-81.405548 74.231339 -3.269275 4.2222223
-81.407166 74.605934 -3.2305248 4
-81.556763 74.987457 -3.2642229 5
-81.427322 75.331276 -3.3138118 4
-81.354065 75.698898 -3.3751891 4
-81.426819 76.146156 -3.2947297 5
-81.417656 76.526306 -3.3027396 5
-81.341789 77.007278 -3.2397761 4
-81.453674 77.347084 -3.2702539 4.7142859
-81.429642 77.769707 -3.2572622 4.5
-81.517807 78.098015 -3.2765172 4.5
-81.264984 78.4216 -3.3334289 4
-81.313705 79.599251 -3.3574724 6
-81.469559 79.753204 -3.3703825 5.5999999
-81.485359 80.221817 -3.3332112 5
-81.357407 80.576797 -3.2664573 5
-81.383476 80.812836 -3.3710549 5
-81.427689 82.259056 -3.3918717 5.1666665
-81.459564 82.66494 -3.4217799 5
-81.434143 82.919609 -3.4432058 5
-81.411613 83.406189 -3.4900911 5
-81.421188 83.837532 -3.4963903 5.6666665
-81.267975 84.181526 -3.2774525 6.7071667
-81.54084 85.034782 -3.3316555 8.1262493
-81.217522 85.38028 -3.2532468 8.1219997
-81.232811 85.803871 -3.4449303 6.5999999
-81.365891 86.239433 -3.3695731 7.0422502
-81.230583 86.554802 -3.4284337 6.6237998
-81.337265 87.084511 -3.3309381 7.2814999
-81.317406 87.334503 -3.4863617 6.8246002
-81.342644 87.828766 -3.3337564 7.0298748
-81.240082 88.139954 -3.5289936 7
-81.261711 88.712364 -3.3551626 7
-81.242546 89.0158 -3.4416757 6.5
-81.31575 89.44458 -3.3188317 7
-81.455887 60.173031 -2.892983 2
-81.358803 60.477753 -2.9813292 5
-81.319412 60.903732 -2.9483492 3.8333333
-81.441811 61.287426 -2.9297438 3.6666667
-81.283218 61.73127 -2.960387 3
-81.516815 62.202393 -3.0473487 5
-81.377167 62.976131 -3.0676277 2.7777777
-81.263649 63.377258 -3.1676228 2.4285715
-81.354408 63.85643 -3.1853404 2
-81.434242 64.261574 -3.1906645 2.25
-81.521614 64.740623 -3.1988242 3
-81.231949 65.967705 -3.1978927 3
-81.39505 68.887779 -3.0995224 6
-81.566544 69.719925 -3.1962719 3
-81.488037 70.048317 -3.1888103 4
-81.442436 71.07296 -3.1771078 2.3333333
-81.479805 71.399704 -3.1669979 1
-81.267014 71.774902 -3.1898792 1
-81.360435 72.339172 -3.1709869 2
-81.413673 72.42981 -3.178709 2.5
-81.344269 74.051834 -3.1827674 3
-81.268654 74.536087 -3.1860576 3
-81.366692 75.816849 -3.1947601 4
-81.394867 76.455246 -3.1961541 4
-81.203293 84.242752 -2.9571824 7
-81.294281 85.037781 -3.0424197 7.27775
-81.237061 85.591957 -2.9155729 7
-81.330353 85.717583 -3.0279503 7.2044168
-81.338188 86.196777 -2.9875188 7.2433996
-81.348717 86.541504 -2.844425 7
-81.389732 86.967262 -3.0088677 7.3700829
-81.423576 87.241035 -2.8606672 7.2764997
-81.412346 87.749992 -2.9789565 7.2772503
-81.340652 88.054199 -3.0206571 7
-81.328606 88.676682 -3.07021 7
-81.344688 89.083313 -2.9470561 7
-81.30217 89.44973 -3.098201 7
-81.253242 89.869812 -2.8885059 7
-81.419632 71.228394 -2.5798459 7
-81.25946 83.458145 -2.5793071 8.1005001
-81.212242 83.830627 -2.6836002 7
-81.233154 84.249466 -2.6193566 7
-81.268394 84.603188 -2.5668974 7
-81.230751 84.906998 -2.7815313 7
-81.236565 85.458809 -2.6645265 7
-81.321014 85.79351 -2.6738851 7.3151431
-81.468887 86.250938 -2.6278825 8.1020002
-81.462372 86.595322 -2.6814299 8.1031675
-81.4533 87.046181 -2.5435512 7.9450717
-81.479698 87.344574 -2.5248611 8.1030006
-81.481911 87.800713 -2.6675272 7.6896253
-81.475037 88.179497 -2.5650718 8.1033125
-81.47821 88.684959 -2.5529971 8.1035004
-81.320587 89.030655 -2.6375899 7.6623001
-81.293053 89.554932 -2.483696 8.1049995
-81.263786 89.823792 -2.5014024 8.1047497
-81.293915 63.416271 -2.3285885 7
-81.286095 83.517982 -2.2699134 7
-81.22348 83.609818 -2.1183753 9.1300001
-81.229828 84.269279 -2.1502867 8.1164999
-81.32428 84.592972 -2.1199696 9.1304998
-81.344696 85.588043 -2.1426964 8.1059999
-81.32795 85.662903 -2.129745 8.1070004
-81.337227 86.234123 -2.1015654 8.1075001
-81.284187 86.477982 -2.1919289 8.1049995
-81.438408 87.080795 -2.1493666 8.1081257
-81.284966 87.537598 -2.2567649 8.1059999
-81.433716 87.919693 -2.1695721 8.1084995
-81.393982 88.029907 -2.2664843 8.1079998
-81.5028 88.593254 -2.1490719 8.1092501
-81.310051 88.887886 -2.3170767 8.1064997
-81.310509 89.300606 -2.100594 8.1105003
-81.286201 89.879471 -2.2716291 8.1074991
-81.203384 83.232658 -1.8728815 8
-81.269829 83.84832 -1.8348808 8
-81.243073 84.116142 -1.8512465 8.0283747
-81.286095 84.612556 -1.8103062 8.0879164
-81.353401 85.073776 -1.8094757 8.0648565
-81.284317 85.469055 -1.7993249 8.1022139
-81.372993 85.800507 -1.7977966 8.0230999
-81.315033 86.121651 -1.8244064 8.1177139
-81.346123 86.577309 -1.8103906 8.118928
-81.397903 86.973717 -1.8566647 8.1163883
-81.393723 87.442398 -1.7863436 8.1245003
-81.392113 87.795876 -1.8490405 8.1180544
-81.331581 88.231316 -1.8175418 8.1169996
-81.392113 88.625725 -1.8552241 8.0852146
-81.375832 88.898354 -1.8560041 8.1190004
-81.267586 89.510017 -1.9088271 8.1172504
-81.293686 89.862984 -1.8623636 8.1190996
-81.241425 83.212311 -1.4813694 8.1555004
-81.380615 84.264175 -1.0201861 9.0657501
-81.342102 84.470413 -0.98922539 9.0664997
-81.255936 84.875893 -1.0648868 9.1265001
-81.257835 85.42614 -0.96327305 9
-81.437752 88.88974 -0.93312776 9
-81.208298 83.216171 -0.61507988 8.026
-81.297592 86.78743 -0.27620012 10.129
-81.344109 86.882179 -0.32314038 9.6434994
-81.549332 86.885468 0.085421309 9.0319996
-81.53981 82.65699 0.73212469 8.1529999
-81.488297 82.432724 1.2512574 13.1295
-81.331284 60.125561 2.0737731 9.1169996
-81.284958 60.199078 2.6705379 12.732834
-81.296967 60.518768 2.6398616 14.58025
-81.527977 60.858562 2.7786481 15.0805
-81.519783 82.966469 2.6072764 8.0135002
-81.427719 84.251457 2.5646482 9.1040001
-81.329803 60.186428 2.9340558 14.063
-81.329498 60.655579 2.9544787 11.592751
-81.32225 60.8316 2.8925862 12.5075
-81.41214 60.699604 3.2475078 10.033
-81.292976 60.147915 3.8222678 10.03
-81.314415 60.580647 4.4811869 10.13
-81.091331 60.324905 -4.5461998 7
-80.955544 74.030106 -4.5157094 7
-80.938316 74.92765 -4.5441747 7
-81.13282 61.145168 -4.1432867 7
-80.877205 71.944878 -4.3252244 7
-81.180481 72.749352 -4.3257418 7
-80.89061 73.228729 -4.0904369 7
-81.186913 75.130798 -4.2586904 7
-81.077141 76.307556 -4.0677681 7
-80.864037 76.860138 -4.1599722 6
-81.166611 78.681351 -4.3680863 7
-81.144943 79.059746 -4.1530423 7
-81.186913 83.759796 -4.0044303 7
-81.14341 60.929249 -3.7269487 7
-81.141418 61.62817 -3.8921628 7
-81.180191 62.447136 -3.9098084 7
-80.834587 74.03997 -3.9156604 7
-80.977486 74.825912 -3.8446317 7
-81.060921 83.48011 -3.9066553 7
-80.904892 83.895798 -3.7353492 7
-80.872902 85.08181 -3.6071613 7
-81.005058 85.796661 -3.6713064 7
-81.05368 86.906151 -3.6771667 7
-80.800514 66.364296 -3.2001877 2
-80.867287 66.714363 -3.2141433 1.25
-80.896965 67.099724 -3.2308762 1.25
-80.905914 67.491776 -3.2498152 2.1666667
-80.986496 67.883949 -3.2670171 2
-80.947433 68.215027 -3.2839649 3.2
-81.062462 68.691132 -3.3051507 2.6666667
-80.88028 69.043358 -3.2888939 3.7142856
-81.069931 69.324966 -3.2208576 2
-80.977531 69.927933 -3.224396 2
-80.96254 70.625526 -3.2661939 4.5
-81.0345 71.055374 -3.2775929 4.4000001
-80.893295 71.399223 -3.2386932 5
-81.067162 71.794075 -3.2356646 2.2
-80.949921 72.252281 -3.2407751 2.5999999
-81.016754 72.983414 -3.2529135 1.875
-81.02095 73.405136 -3.2544756 3.5
-80.961456 73.805267 -3.2327704 2.5999999
-80.998192 74.201714 -3.2387207 3.3333333
-81.07299 74.489693 -3.3413868 5
-81.023148 74.95919 -3.3242269 4.1428571
-80.984726 75.422928 -3.3124442 4.75
-80.871445 75.784172 -3.3014665 4.1666665
-80.944214 76.177818 -3.2919099 4.5
-80.851685 76.631516 -3.2645409 4.3333335
-81.051521 77.019516 -3.2584555 4.75
-80.941216 77.445679 -3.267328 4.75
-80.97567 77.864899 -3.2912002 5.2857141
-81.039352 78.263969 -3.3230371 4.6666665
-80.923569 78.558067 -3.3013771 6
-81.006027 78.927193 -3.3725362 6
-80.997246 79.427185 -3.3614914 5.4285712
-80.936768 79.803505 -3.2847698 5
-81.041458 80.17411 -3.3014867 5
-80.938889 81.23365 -3.3374832 5
-81.097366 82.200539 -3.3914053 5
-81.050522 82.659554 -3.442311 5
-81.060394 83.00206 -3.447619 5
-80.97496 83.52401 -3.3968997 6.125
-81.035934 83.723305 -3.3985193 6.1666665
-81.056702 84.085976 -3.3501842 6.3333335
-80.977547 84.567284 -3.4411108 6.5
-81.163063 84.983589 -3.2460635 7
-81.021248 85.329765 -3.4260256 6.1428571
-81.004189 85.768799 -3.3480599 6.25
-80.967834 86.619667 -3.4229004 6.5
-80.996101 86.99189 -3.3113363 6
-81.150436 87.438179 -3.4988582 6
-81.149818 87.965691 -3.2328746 7
-80.994026 88.214516 -3.3850994 6
-80.902039 88.896194 -3.5246553 6
-80.977356 89.405449 -3.4356358 6
-81.141556 89.790565 -3.3190439 6.6666665
-80.979431 60.124756 -2.8666971 1.6
-80.861893 60.407833 -2.8692565 4
-81.00119 61.063435 -2.917886 3.4000001
-81.011642 61.311207 -2.9669476 3.5555556
-81.000076 61.805901 -2.9726906 4.3333335
-80.966812 62.247448 -2.9882727 3.125
-80.965919 62.595127 -2.9981747 2.5555556
-80.974007 62.9897 -3.0756352 2.7692308
-80.989479 63.452942 -3.1579175 1.8333334
-81.030708 63.930786 -3.1699815 1.8333334
-81.004623 64.299843 -3.1705229 1
-81.032043 64.557617 -3.1746275 1.75
-81.100098 64.922729 -3.1780601 2.3333333
-81.12487 65.374794 -3.1887219 2.5999999
-80.966637 65.874847 -3.1872354 1
-80.904198 66.244377 -3.1949205 0.5
-81.001434 69.345802 -3.1784949 1.6666666
-81.136276 71.145187 -3.1623528 2
-80.905266 71.386902 -3.1952019 0.5
-80.867722 71.793152 -3.1973281 3
-81.019661 72.182442 -3.1844223 2.5
-81.044739 73.851089 -3.1741769 3
-80.94838 74.628532 -3.189394 3.5
-80.929413 75.498459 -3.1821566 4
-81.033707 76.179008 -3.1767056 4
-80.834145 76.71859 -3.1996601 4
-81.00705 83.489326 -2.9002018 6.3333335
-81.066849 83.7108 -2.9397099 6.3636365
-81.077805 84.114761 -2.9473557 6.8333335
-81.068787 84.548462 -3.0062706 7
-81.12149 84.902786 -2.9698384 7
-81.080788 85.346268 -2.9975955 6.6666665
-81.173462 86.054497 -2.9745688 7
-81.122139 86.846657 -3.0091901 7
-81.118858 88.400215 -3.0738621 7
-80.988068 69.387451 -2.7473681 7
-81.115288 83.423019 -2.5456824 7.932929
-81.046394 83.780907 -2.5856328 7
-80.909828 84.269905 -2.4143403 7
-81.083015 84.627563 -2.6508236 7
-80.92189 85.085632 -2.4750223 7
-81.099854 85.379059 -2.5269251 7.5507498
-80.900688 85.695862 -2.4502528 7
-81.029305 83.424644 -2.2336452 7.1273847
-80.928429 83.739258 -2.1559577 8.1040001
-80.828987 84.172646 -2.3785458 7
-81.194489 84.764824 -2.3799117 8.1020002
-81.157852 85.382675 -2.296658 8.1033335
-81.070099 85.651756 -2.148416 8.1055002
-81.129173 88.6782 -2.2457709 8.1070004
-81.043861 89.997231 -2.35941 8.1059999
-81.015862 83.400192 -1.7329851 8.0216856
-81.093071 83.83432 -1.7882556 8.352438
-81.047653 84.20903 -1.8277577 8.2012777
-81.098549 84.588074 -1.8206979 8.102313
-80.950096 85.164154 -1.7365977 8.1280003
-81.030182 85.38401 -1.8614346 8.3382502
-81.189278 85.88607 -1.9289894 8.1114998
-81.100548 86.079338 -1.7417774 8.1292496
-81.138138 89.426506 -1.8166486 8.1280003
-80.991234 83.393272 -1.4389402 8.0880909
-80.905663 83.715614 -1.3216604 8.1574993
-80.983955 83.385262 -1.0784235 8.6877918
-80.878967 83.688347 -0.98102474 9.0709
-81.036224 84.128975 -0.98571199 9.0301113
-81.118385 84.569725 -1.0263964 9.1355
-81.028481 85.341423 -0.96868354 9.1215
-80.8741 85.636169 -1.0391774 9
-80.965721 87.433937 -0.95942539 9.1212502
-80.972519 60.703896 0.85929185 10.1145
-80.957298 83.870491 1.1279539 9.1335001
-80.99231 60.164501 2.204699 12.493215
-80.965836 60.614578 2.3166728 12.531445
-80.937172 60.187374 2.606518 13.284693
-80.938271 60.642414 2.5624211 12.44855
-80.937988 60.848598 2.4313006 15.0125
-81.085114 83.662575 2.699178 8.0137501
-80.913948 60.209019 2.9195671 12.042001
-81.032181 60.530579 2.9849863 12.033999
-81.055511 60.827385 2.849426 12.085
-80.871788 60.397137 3.4115105 11.0485
-80.900879 60.634659 3.2867908 11.049
-80.8339 60.122128 3.8230414 9.1370001
-80.938599 60.126213 4.2247066 11.377501
-80.880081 60.267021 4.5005727 13.096168
-80.953033 60.562038 4.6200628 9.4580002
-80.477455 60.138638 -4.4030342 7
-80.401062 61.181259 -4.6277819 7
-80.417488 60.112392 -4.2413754 7
-80.691856 61.979767 -4.1995668 7
-80.45002 71.144485 -4.3345499 7
-80.436775 71.84539 -4.2184634 7
-80.705627 73.506645 -4.2465014 7
-80.411751 76.381226 -4.1176157 7
-80.433075 60.045921 -3.6367061 7
-80.725403 61.716007 -3.7775128 7
-80.480339 62.520916 -3.8163171 7
-80.503502 72.303436 -3.8832343 7
-80.532906 73.12075 -3.9069686 7
-80.50016 74.124306 -3.8746655 7
-80.554047 81.186249 -3.8521538 7
-80.612846 84.527573 -3.6137919 7
-80.611496 85.726135 -3.8547852 7
-80.698891 89.524246 -3.6710901 7
-80.535599 60.198013 -3.4921272 7
-80.750801 61.740227 -3.217263 6
-80.579483 62.164436 -3.2413073 6
-80.589081 62.619652 -3.2515564 6
-80.582222 64.742485 -3.2022536 1
-80.623985 65.174782 -3.2062676 1
-80.652481 65.532928 -3.2122128 1
-80.566559 65.774971 -3.2092428 1.25
-80.716881 66.177208 -3.21066 3.5714285
-80.753441 66.712753 -3.2332244 3
-80.577431 67.063072 -3.2454572 1.8571428
-80.677727 67.547348 -3.2827384 1
-80.481209 67.778175 -3.2796128 2
-80.541977 68.353065 -3.3106883 1
-80.465141 68.781509 -3.3320994 1
-80.590057 69.106712 -3.3059702 2
-80.636032 69.267509 -3.2292969 1.75
-80.568901 69.727165 -3.2084479 3
-80.624908 70.263306 -3.2734818 3.8571429
-80.625359 70.697708 -3.343502 4.3333335
-80.582779 70.96505 -3.2341173 4.4000001
-80.589081 71.52935 -3.2517648 1
-80.580406 71.82653 -3.2356977 0.71428573
-80.69915 72.153351 -3.2415416 1.5
-80.611748 72.586227 -3.2333031 2.5
-80.597504 72.963135 -3.2634249 2
-80.516129 73.370239 -3.2785096 3.7857144
-80.610519 73.74321 -3.2379143 4.5
-80.579018 74.10331 -3.3273783 4.2857141
-80.562119 74.750504 -3.2426765 5
-80.628273 75.056007 -3.241776 4
-80.646324 75.383018 -3.2622597 3.5
-80.509544 75.775589 -3.2656643 3.25
-80.5811 76.253235 -3.2415979 4.6666665
-80.721222 76.799072 -3.3303072 5
-80.502464 77.016121 -3.2729514 4.3333335
-80.621056 77.437637 -3.2932267 4.8571429
-80.602066 77.73185 -3.2606611 4.2857141
-80.430878 78.087814 -3.2708375 4.5999999
-80.623955 78.634178 -3.3012085 4.6666665
-80.41832 79.071945 -3.2623529 5
-80.683739 79.558517 -3.2701092 5
-80.640076 80.249001 -3.3130906 5
-80.507095 80.504829 -3.3718185 5
-80.678139 81.881874 -3.3667762 5
-80.542252 82.545403 -3.4243131 5.1428571
-80.669914 82.928551 -3.4315934 5
-80.670967 83.504608 -3.3939652 5.8000002
-80.628006 83.620613 -3.3992884 5.75
-80.528496 84.621803 -3.395267 7
-80.797096 84.861809 -3.2062616 6
-80.673729 86.656815 -3.3072143 8.1225004
-80.621239 60.210014 -2.877738 2.5999999
-80.662926 60.692936 -2.8970444 4
-80.663864 60.920685 -2.9109466 3.5999999
-80.728851 61.561172 -2.9208291 3
-80.55706 61.913685 -2.9607348 3.3
-80.543861 62.14053 -2.9884424 2.6666667
-80.558395 62.545166 -3.0202787 4
-80.613274 63.050903 -3.0547273 2.7
-80.571335 63.540661 -3.167177 4
-80.532692 63.975395 -3.1786668 3
-80.659843 64.28978 -3.1787755 2.4285715
-80.671959 64.647766 -3.1773021 3.2
-80.657829 65.047234 -3.1838415 2.2857144
-80.683815 65.422508 -3.1896734 2.6666667
-80.787399 65.92395 -3.1880019 1.3333334
-80.415352 69.557167 -3.1770666 3
-80.780373 71.130333 -3.1935463 0
-80.565056 71.411682 -3.1911743 2
-80.654114 71.882523 -3.1744041 2
-80.49836 72.699425 -3.1959789 2.5
-80.774597 72.998459 -3.1985357 3
-80.520653 73.581604 -3.1779714 3
-80.646568 73.676285 -3.1814253 3
-80.580833 74.310356 -3.194963 3
-80.690842 74.632492 -3.1859138 4
-80.679008 75.347466 -3.1807108 4
-80.608124 75.93795 -3.1684921 4
-80.767647 76.056351 -3.1752229 4
-80.486877 76.513573 -3.1869636 4
-80.620872 83.505623 -2.9308331 6.1599998
-80.579796 83.612991 -2.9245977 6
-80.729095 84.622368 -3.1561801 6
-80.729309 85.181618 -3.1656454 6
-80.764938 85.686043 -3.1611261 6
-80.440208 89.573654 -3.1202736 7
-80.493965 70.081619 -2.7425723 7
-80.666008 83.489647 -2.4680791 7
-80.789024 63.834492 -2.144536 7
-80.764496 71.24614 -2.2531385 7
-80.584587 83.487366 -2.2802396 7.1774001
-80.525566 83.618065 -2.2574036 7
-80.557159 89.466217 -2.399632 7
-80.580505 83.468468 -1.7138739 8.0244169
-80.417686 89.929344 -1.9531199 7
-80.545952 83.313972 -1.4422386 8.1190548
-80.51297 82.971077 -1.0873103 9.1330004
-80.591812 83.461227 -1.0587107 8.8926115
-80.601326 83.716141 -1.0402551 8.9655294
-80.703865 84.53968 -1.0554771 9.1289997
-80.474632 85.394493 -0.89753306 9.1178999
-80.4767 85.708397 -0.95553762 9.1219997
-80.436058 86.146149 -0.90082705 9.1136656
-80.441124 86.514191 -0.90174538 9.1134996
-80.486191 87.012169 -0.88949549 9.110199
-80.450851 87.431633 -0.91989112 9.1190004
-80.472725 87.808128 -0.91674954 9.1150007
-80.519936 88.195351 -0.91862488 9.12325
-80.519341 88.656395 -0.86054415 9.1157494
-80.514763 89.028297 -0.88059688 9.1167507
-80.555046 89.344154 -0.88525718 9.1178751
-80.452682 79.710251 1.2576282 14.1345
-80.482742 60.102119 1.9239426 11.028333
-80.621765 60.097759 2.1391635 12.839
-80.737526 60.729103 2.242527 10.1515
-80.676712 60.959923 2.2630613 11.4995
-80.628036 60.197685 2.6336296 12.305107
-80.65126 60.544846 2.6604578 11.478797
-80.646515 60.976582 2.4488873 15.0795
-80.434433 61.503571 2.708488 9.0927944
-80.722099 83.790855 2.575532 8.0155001
-80.567535 60.124264 2.9533596 12.393444
-80.51709 61.086517 2.8196108 9.092
-80.493271 60.169418 4.2626896 12.895571
-80.450737 60.452122 4.244699 10
-80.525925 60.205151 4.5307231 11.10125
-80.637299 60.460419 4.5126376 11.111167
-80.612068 60.191536 5.0096283 10.615625
-80.686485 60.575081 5.0120854 15
-80.563332 60.961277 5.1783705 14.00525
-80.467491 60.334709 5.3356466 12.051
-80.166351 73.291435 -4.5557361 7
-80.131302 71.674026 -4.0983639 7
-80.147774 72.669289 -4.218112 7
-80.3806 75.63781 -4.0947003 7
-80.096748 77.414742 -4.1539044 7
-80.185966 60.843826 -3.6750827 7
-80.271309 74.18959 -3.8281162 7
-80.368607 79.629059 -3.8064461 7
-80.253754 80.173508 -3.6473358 7
-80.083961 80.844368 -3.7902861 7
-80.273308 82.234253 -3.8812437 7
-80.295876 82.554047 -3.7255285 7
-80.33799 83.559502 -3.8298738 7
-80.332619 60.331043 -3.3972771 7
-80.328957 60.554485 -3.3618016 7.1863332
-80.147865 61.072609 -3.5294776 7
-80.159988 64.310715 -3.2054758 5
-80.176552 64.712502 -3.2128491 5
-80.107124 65.027199 -3.2437382 5
-80.109917 65.447372 -3.2582147 5
-80.203133 65.97348 -3.2053616 2.5
-80.218552 66.102974 -3.2458642 4
-80.100746 66.493134 -3.2594776 4
-80.198021 66.899239 -3.2624452 3.6666667
-80.208694 67.372032 -3.263588 2.4000001
-80.158478 67.777786 -3.2743101 2
-80.241196 68.18531 -3.2906611 2.25
-80.210045 68.622154 -3.3257575 3
-80.270821 69.061432 -3.3248451 2.4444444
-80.085419 69.280891 -3.2046733 3
-80.31366 69.876312 -3.3561389 3.5
-80.169006 70.234177 -3.2241762 4.3333335
-80.334648 70.544678 -3.2217278 3.6666667
-80.245087 71.196571 -3.2043564 1
-80.139725 71.470558 -3.2373919 1.6666666
-80.214401 71.86795 -3.2346931 1.2222222
-80.173897 72.132896 -3.2469296 3.375
-80.239151 72.680946 -3.2448726 2.3333333
-80.211754 73.020073 -3.2930598 2.909091
-80.171432 73.429245 -3.2289233 3.625
-80.234901 73.724846 -3.3577602 3.5999999
-80.188484 74.159126 -3.2363887 2.6666667
-80.15889 74.644104 -3.2625005 4.5714288
-80.27684 75.108765 -3.2688434 4
-80.134773 75.503838 -3.2616086 3.8
-80.188225 75.699547 -3.2612402 3
-80.123047 76.187805 -3.2724268 5
-80.318527 76.515053 -3.3048575 6
-80.16848 77.050117 -3.282089 5
-80.279579 77.386818 -3.2684109 4.8000002
-80.200775 77.836403 -3.2539816 4.2857141
-80.168884 78.237206 -3.2706032 4.5999999
-80.199745 78.667908 -3.2312925 5
-80.230316 79.450539 -3.2492678 5
-80.310349 79.972496 -3.2354219 5
-80.333153 80.62368 -3.3529143 5
-80.169098 80.934608 -3.3306479 5.5
-80.173599 81.439857 -3.3561416 5.3333335
-80.007324 81.649101 -3.3553736 5
-80.210533 82.1688 -3.4097693 5.6666665
-80.343338 82.66787 -3.3355041 5.4444447
-80.045609 82.824867 -3.4450068 6
-80.197342 83.484787 -3.3297119 6.75
-80.202896 83.662331 -3.342335 6
-80.234802 60.270752 -2.9567862 4.5
-80.21489 60.651371 -2.9807649 6
-80.163239 61.004265 -2.8747542 4
-80.227768 61.359581 -2.9333353 3.8333333
-80.225792 61.756584 -2.9465239 3.4000001
-80.264282 62.245071 -2.9511971 2.6666667
-80.156303 62.691845 -2.9783707 2
-80.155724 63.103306 -3.0964904 3.75
-80.111107 63.425056 -3.1713269 2.3333333
-80.162361 63.862457 -3.1866109 2.6666667
-80.237709 64.242897 -3.1801693 1.5
-80.249199 64.646324 -3.1858957 1.75
-80.277122 64.974503 -3.1876748 3
-80.333321 65.327324 -3.1931653 2.5
-80.331551 65.716331 -3.197603 2.5
-80.155098 69.45459 -3.180243 2.5
-80.163048 69.723732 -3.1651783 2
-80.148491 70.084686 -3.1665969 2
-80.097809 71.440025 -3.1754105 2
-80.373734 71.639839 -3.1696849 2
-80.214287 72.286606 -3.1754086 2
-80.393372 72.580605 -3.1806111 3
-80.211372 73.32296 -3.1672051 3
-80.189781 74.193245 -3.187556 3.5
-80.239685 74.592842 -3.1947877 3
-80.324158 75.004005 -3.1632192 4
-80.329475 75.843628 -3.1734684 4
-80.040222 76.315071 -3.182471 4
-80.201073 76.431931 -3.1903279 4
-80.058281 82.734955 -2.8787351 6
-80.241196 83.492111 -2.9732208 6
-80.121132 83.633667 -2.9163816 7
-80.282265 89.42569 -2.8031106 7
-80.248177 89.788368 -3.0274823 7
-80.117279 60.653347 -2.6822441 3.9375
-80.047577 60.923241 -2.6580439 4.8000002
-80.150917 83.475616 -2.4855354 7
-80.036278 83.652931 -2.501622 7
-80.076668 82.773094 -2.1881518 7
-80.234688 83.498932 -2.3032043 7.1836667
-80.117767 83.683128 -2.3698373 7
-80.059662 82.751053 -1.732524 8.0949001
-80.200485 83.425751 -1.7182821 8.0512218
-80.111511 83.394157 -1.445178 8.1381512
-80.249489 83.111023 -1.0326234 8.7608337
-80.176147 83.510994 -1.0727459 8.6062059
-80.219215 83.683449 -1.0522763 8.961875
-80.118851 84.192474 -1.0374646 9.1335001
-80.299347 84.411415 -0.90895438 9.1105003
-80.296776 84.960243 -0.94151849 9.1168327
-80.395302 85.831963 -0.94816077 9.1155005
-80.361488 86.679573 -0.90812445 9.1140003
-80.334061 83.440132 -0.79232109 8.033
-80.130119 84.453758 -0.40925229 9.0767498
-80.041283 84.536606 -0.37573692 10.126334
-80.208336 79.600182 0.73007083 10.099
-80.012299 79.072632 1.1759926 10.1685
-80.14296 79.44088 1.1256206 12.197036
-80.252579 79.773033 1.1988796 10.168
-80.030022 80.331474 1.0680895 11
-80.016144 78.985023 1.3260821 9.1295004
-80.143066 79.427383 1.2454733 13.700213
-80.203712 79.697235 1.4096582 13.668295
-80.010216 81.765877 1.9537414 10.1265
-80.014397 82.128853 1.7616122 12.666667
-80.115189 80.66172 2.1577146 11.042834
-80.06427 80.976013 2.2144446 14.453667
-80.114632 81.443504 2.2690291 14.066
-80.100105 81.797951 2.2494833 13.2437
-80.007195 82.012482 2.244817 13
-80.137299 60.056892 2.7921343 11.0935
-80.25338 60.515759 2.7501411 10.731999
-80.029129 60.921467 2.6410239 9.092
