# .PCD v0.7 - Point Cloud Data file format
VERSION 0.7
FIELDS x y z intensity
SIZE 4 4 4 4
TYPE F F F F
COUNT 1 1 1 1
WIDTH 1210
HEIGHT 1
VIEWPOINT 0 0 0 1 0 0 0
POINTS 1210
DATA ascii
-144.10736 -51.4268 4.2389407 6.75
-144.02805 -49.885208 4.0376034 6
-144.08147 -48.884354 4.3571148 7
-144.01909 -48.248257 4.1657829 7
-144.03421 -47.895786 4.2283993 6.5
-144.05367 -47.366192 4.1662374 6.6666665
-144.01454 -46.983715 4.152585 6.6666665
-144.13702 -46.441166 4.0260568 6
-144.13322 -46.352425 4.1331086 6.5
-144.07744 -57.412521 4.4878163 7
-144.11462 -51.730331 4.7375221 7.8768334
-144.09381 -51.414253 4.7387633 8.1305008
-144.04033 -48.998257 4.6903934 8.1359987
-144.01118 -48.547478 4.6380277 8.1332502
-144.03278 -48.173698 4.6725459 8.1347504
-144.01718 -47.846027 4.7219443 8.1345997
-144.02875 -47.426464 4.6279097 7.6371427
-144.01624 -47.098522 4.5821118 8.1295004
-144.08344 -46.466473 4.6064787 7.369
-144.02199 -46.262741 4.5459132 8.1229992
-144.03249 -52.921524 4.8811488 7.5774999
-144.12904 -52.606384 4.814476 8.1424999
-144.00824 -52.129982 5.0169654 8.1525002
-144.08406 -51.637245 5.0092187 8.62325
-144.13083 -51.465027 5.1883736 9.0699997
-144.09586 -52.161915 5.2677007 9.1431665
-144.1844 -51.709671 5.3601794 9.151125
-144.14587 -49.30098 5.4927735 10.12875
-144.11848 -55.863255 5.8446627 8.7834997
-144.31352 -55.409004 5.8216896 8.5542498
-144.29668 -55.069489 5.6970263 9.1599998
-144.20604 -49.130657 5.8694758 11.13
-144.35448 -37.313423 5.7630816 11.1315
-144.32666 -37.098579 5.7999349 10.06675
-144.37788 -36.566399 5.990365 11.1045
-144.12794 -35.756454 5.9270549 9.62325
-144.0705 -56.529144 6.2713141 9.073
-144.20399 -55.755329 6.1402917 9.9606676
-144.25243 -55.355553 6.1571994 9.3067989
-144.32085 -55.082027 6.1463671 10.136
-144.06165 -50.142502 6.3371434 11.1115
-144.04213 -49.901535 6.3017278 12.132
-144.32547 -47.709778 6.3296356 11.129499
-144.32993 -47.467205 6.2563667 11.299
-144.36591 -37.604279 6.0145454 9.0930004
-144.29422 -37.507561 6.2384434 11.069
-144.22244 -36.522938 6.20189 11.354187
-144.1245 -36.233788 6.2581625 11.62075
-144.30521 -35.823204 6.3363581 11.159
-144.09056 -31.72488 6.3222256 9.0024996
-144.02966 -31.452946 6.3494287 12.115
-144.22815 -54.948494 6.4583621 9.7228994
-144.15942 -54.668091 6.6166477 9.5369005
-144.12672 -50.24424 6.5138335 11.156
-144.37845 -47.724621 6.5135517 12.148251
-144.34447 -47.540176 6.4954324 11.142499
-144.05698 -42.027645 6.5591073 13.138
-144.04663 -41.81826 6.6189771 12.115688
-144.02264 -39.793293 6.7404613 12.102
-144.21167 -37.44838 6.6379833 11.824
-144.28622 -36.573967 6.6485982 12.39775
-144.25275 -36.156384 6.6007681 12.239142
-144.23466 -35.796581 6.6256304 11.642773
-144.25815 -35.549038 6.5767655 11.770167
-144.01917 -32.324898 6.7228684 13.1185
-144.06708 -31.386379 6.5117612 12.113701
-144.04276 -31.156755 6.5891652 13.149
-144.0827 -54.873047 6.9758687 10.069833
-144.07124 -54.784653 6.9841075 10.58
-144.21802 -53.007511 7.0599422 11.421333
-144.17999 -52.503792 7.1502972 9.0252495
-144.02698 -42.916172 6.8757563 14.13675
-144.11034 -42.602848 6.9715567 13.304584
-144.13788 -41.762115 6.9377723 13.342749
-144.14693 -41.429729 6.9477415 13.210063
-144.10242 -41.011909 7.098351 12.722101
-144.13965 -40.698151 7.1114531 11.877625
-144.0802 -39.977463 7.0673566 13.149
-144.3074 -38.954979 7.0500154 11.6986
-144.03294 -38.738708 7.0917573 11.0955
-144.16948 -38.261433 6.9649076 14.1215
-144.25746 -36.953663 7.0044832 12.760167
-144.19942 -36.474274 6.8720174 12.1585
-144.36148 -36.085854 6.940134 11.007125
-144.20062 -35.754055 7.0075989 11.367416
-144.18918 -35.392426 7.0419865 12.291599
-144.28502 -35.108677 7.0146599 12.16725
-144.15968 -33.292267 7.024137 14.1265
-144.11813 -33.006184 7.1012578 12.7455
-144.3044 -32.510792 7.1415191 14.123
-144.18721 -32.202869 7.0390553 13.56807
-144.04286 -31.787163 7.0048642 13.1625
-144.29631 -31.209015 6.8786359 12.1145
-144.29832 -31.157101 6.8342638 12.1015
-144.22093 -58.259396 7.5991507 13.135
-144.22818 -54.824444 7.2566118 13.1315
-144.08904 -54.711372 7.3514714 13.1465
-144.15268 -53.316639 7.4613657 11.582126
-144.07809 -53.003616 7.3527451 11.804818
-144.18321 -52.599537 7.3631864 11.911708
-144.22772 -52.341644 7.3642931 12.45975
-144.29526 -50.879135 7.4488029 11.485375
-144.31628 -50.733582 7.4070635 13.406249
-144.20064 -49.74844 7.5159054 12.777333
-144.16512 -49.554211 7.4788756 10.098
-144.27118 -44.609299 7.4787641 11.60125
-144.3092 -42.762623 7.297473 15.1325
-144.32129 -41.292717 7.2889905 13.1285
-144.08966 -40.90279 7.3207688 13.14625
-144.25734 -40.577812 7.4297404 14.268144
-144.04559 -40.229198 7.4320116 13.117063
-144.158 -38.871307 7.3686934 12.851749
-144.29167 -38.636169 7.3516884 10.056
-144.03572 -38.123192 7.5041389 10.095
-144.27516 -37.842415 7.4155827 11.095
-144.20221 -36.126293 7.3796048 14.09957
-144.29158 -35.71777 7.3674259 13.808499
-144.34973 -35.58577 7.2946 13.157
-144.23972 -34.612919 7.3496628 12.765667
-144.07027 -33.435715 7.3807836 14.15325
-144.23441 -32.815456 7.2030587 13.164
-144.07051 -32.512177 7.2897778 13.17
-144.37875 -32.28949 7.3972006 12.00775
-144.14804 -59.672253 7.8981237 11.742701
-144.28477 -59.493912 7.8839803 12.083167
-144.39603 -58.869438 7.8412528 12.117
-144.09402 -58.516022 7.8224006 12.948
-144.12666 -58.241379 7.7061596 13.141833
-144.08612 -53.377346 7.7545252 10.5895
-144.08131 -52.958542 7.8088479 12.33475
-144.08252 -52.658607 7.7961869 14.12625
-144.04784 -52.135635 7.8207603 15.135125
-144.30821 -50.958435 7.7849627 13.130751
-144.06328 -49.688473 7.7112899 15.1235
-144.30623 -49.405991 7.6982622 14.646
-144.32877 -48.572998 7.9706097 14.155
-144.33975 -47.942978 7.6151919 15.123
-144.05563 -44.616283 7.9217548 11.099
-144.04779 -41.780544 7.8097234 15.1095
-144.05855 -41.348957 7.6413717 14.4525
-144.38254 -40.85733 7.6020231 12.1635
-144.13281 -40.598892 7.7633386 13.602249
-144.3264 -40.177284 7.8501301 12.62475
-144.39107 -39.497307 7.7084689 15.1125
-144.19006 -39.106583 7.7560029 13.099501
-144.02777 -37.349686 7.8269949 13.578501
-144.21306 -36.16843 7.702734 14.7625
-144.08759 -35.837914 7.6553855 14
-144.21455 -34.742794 7.804193 15.115
-144.02754 -34.256813 7.7432117 15.14925
-144.34509 -33.545586 7.9054923 14.07725
-144.12674 -59.713333 8.2313309 12.1395
-144.15942 -59.42728 8.2267408 12.797501
-144.20111 -58.867901 8.275898 12.634501
-144.24643 -58.316345 8.2450161 13.1495
-144.33475 -53.344864 8.0235023 12.1085
-144.12646 -52.965027 8.1433096 13.079
-144.26913 -52.648182 8.2181425 13.815
-144.33151 -52.076023 8.2997475 15.12
-144.29482 -51.05415 8.2330589 14.157
-144.33884 -48.913311 8.071249 10.02375
-144.30846 -48.454582 8.2035666 12.1625
-144.20717 -48.318138 8.1451569 11.5645
-144.33986 -47.984776 8.3781319 15.154
-144.24953 -39.043926 8.2385511 15.151
-144.12029 -33.615723 8.1339788 15.1575
-144.09665 -59.899307 8.6825867 14.124001
-144.0766 -59.27195 8.4731798 12
-144.28963 -58.864349 8.6786795 10.00675
-144.24504 -58.535206 8.6987028 11.059001
-144.03271 -58.222572 8.5869436 10.1755
-144.31609 -52.906273 8.5408926 11.552999
-144.27989 -52.583199 8.5566339 11.827874
-144.31789 -51.0732 8.6307383 15.1135
-144.2491 -48.2892 8.645545 14.159
-144.39613 -47.764091 8.4149323 13.1605
-144.24413 -47.396873 8.7427568 15.15625
-144.36287 -46.914841 8.408267 12.1015
-144.34444 -45.744137 8.6900043 13.126249
-144.39952 -32.363708 8.741066 14.0065
-144.15224 -31.843567 8.79035 13.013
-144.00301 -30.530571 8.6039438 15.1065
-144.03374 -59.992413 8.8448181 12.111
-144.07469 -58.650566 9.0021086 13.899501
-144.3759 -52.83437 8.8314495 11
-144.36986 -48.682991 9.0605555 15.158
-144.33986 -47.200439 8.9421463 15.157
-144.25458 -46.98687 8.9980593 13.875001
-144.15662 -46.456127 9.0653391 14.1605
-144.1604 -46.189312 9.0842781 15.158
-144.12704 -45.793732 8.9849558 15.1575
-144.34219 -38.202625 9.1174793 11
-144.18979 -59.73135 9.2710991 15.12475
-144.15826 -58.847591 9.2548866 14
-144.20216 -58.795204 9.2499323 14
-144.02031 -53.394989 9.3560286 11.0725
-144.36243 -53.029396 9.5991039 12.103
-144.08743 -52.004185 9.2161169 11.0265
-144.27415 -49.606495 9.571744 12.1785
-144.03032 -48.82399 9.3987741 14.1625
-144.10059 -48.586063 9.4239693 13.829667
-144.19191 -47.364235 9.2784157 15.159
-144.04843 -46.918625 9.2893076 14.1615
-144.11876 -46.666103 9.3354979 14.10225
-144.08327 -45.425354 9.4667873 15.1595
-144.05005 -38.731136 9.3461618 14.097
-144.17461 -38.364491 9.4624519 14.096
-144.30574 -58.948181 9.8546734 15.159
-144.34442 -58.681778 9.9012852 15.052834
-144.19855 -53.320621 9.7577009 11.367167
-144.14046 -52.963211 9.6929989 12.025625
-144.38808 -48.229958 9.8475132 15.161
-144.11154 -46.459023 9.8964748 15.161
-144.03618 -44.66761 9.9798288 15.1615
-144.11613 -40.070488 9.8306904 12.0175
-144.285 -39.890308 9.7056522 15.098
-144.3779 -37.128742 9.6143808 12.095
-144.16609 -58.558262 10.185673 15.1635
-144.14764 -53.480896 10.107239 12
-144.26683 -51.455772 10.237185 13.399
-144.15834 -42.454075 10.359522 14.009
-144.17758 -41.462563 10.043726 14.0975
-144.37691 -53.452999 10.676609 14.106
-144.37173 -52.49715 10.645602 12.425
-144.03543 -52.213856 10.613397 12.0875
-144.10374 -51.696396 10.717324 13.59325
-144.0899 -50.791557 10.612446 12.09
-144.33087 -46.482628 10.75773 12.022
-144.29366 -52.137234 11.046112 12.726501
-144.08742 -51.734398 10.836829 12.5375
-144.09526 -51.546471 11.031853 13.10125
-144.25691 -49.799679 10.972622 12.5935
-144.23242 -40.620144 11.196206 13.0185
-144.18231 -40.347206 10.857264 13.0965
-144.23409 -53.418427 11.464403 13
-144.19656 -52.993221 11.402646 13.034667
-144.25175 -52.191677 11.428746 14.4375
-144.22701 -51.68737 11.31389 14.1035
-144.33662 -51.480343 11.326265 13.05025
-144.13702 -50.149124 11.21502 15.104
-144.13342 -49.82637 11.220315 13.1
-144.09329 -51.917568 11.732506 15.1045
-144.23604 -41.724384 11.721581 15.0175
-144.17184 -41.033112 11.884351 14.02
-144.02805 -38.250851 12.361838 11.0125
-144.29745 -36.745159 12.294979 11.0115
-144.36371 -51.122658 13.054609 14.0975
-144.30052 -37.880589 13.191415 15.0165
-144.05847 -51.439552 13.536715 14.596
-144.25781 -51.359459 13.959616 14.0805
-144.26321 -50.885818 13.97204 14.0835
-144.26132 -50.674679 13.768529 13.5755
-144.18532 -39.001232 13.742987 12.013
-144.19563 -50.930008 14.285012 15.099
-144.18394 -43.506706 14.127763 13.0625
-144.14401 -42.619484 14.238861 13.0615
-144.32324 -51.024609 14.491451 15.0975
-144.27876 -50.698689 14.460907 14.0725
-144.18025 -50.722416 14.956569 15.093
-144.0423 -42.650887 15.651216 15.0935
-144.12419 -41.785248 15.601579 13.014
-143.9462 -42.058033 2.3185093 2
-143.77812 -41.412533 2.3015823 2.5
-143.86092 -41.049107 2.3024557 3
-143.87558 -39.423645 2.2614939 2
-143.99113 -33.234795 2.0678267 3
-143.83131 -58.099514 2.9913197 4
-143.80627 -55.880901 3.0160503 4
-143.84619 -55.475021 2.9481268 4
-143.9118 -50.423843 2.9449217 4
-143.98862 -50.091171 3.0655286 4
-143.98232 -49.08297 2.9081531 4
-143.91443 -57.872017 3.4788435 5
-143.81007 -56.076008 3.4586611 5
-143.82738 -55.828533 3.4877162 5
-143.83005 -55.337852 3.3490484 5
-143.9202 -55.163338 3.4842215 5
-143.93968 -49.349167 3.3370674 5
-143.96245 -49.077957 3.3225143 5
-143.78233 -58.960182 3.9707325 6
-143.82703 -56.5131 3.9713907 6
-143.98076 -52.854866 3.7702534 6
-143.99516 -52.651684 3.7391849 6
-143.94531 -50.574402 3.9303029 6
-143.96719 -50.050102 3.8534958 6
-143.94336 -49.876057 3.932548 6
-143.95038 -49.391792 3.8075345 6
-143.94211 -48.989807 3.8812428 6
-143.96033 -48.524414 3.701807 6
-143.98009 -47.855396 3.6485968 6
-143.83643 -47.446838 3.8613594 7
-143.87717 -46.83255 3.8156121 7
-143.97179 -53.107525 4.3293581 7
-143.98862 -52.572891 4.1486478 6.5
-143.94531 -52.335369 4.3277206 7
-143.91078 -50.994534 4.1564155 6.5
-143.82867 -50.799576 4.2744875 7
-143.97638 -50.14584 4.2626872 7
-143.97633 -49.916916 4.2547975 7
-143.94388 -49.337109 4.2330885 6.8000002
-143.93517 -48.996632 4.2496252 7
-143.96718 -48.55019 4.1497226 6.6666665
-143.93306 -48.13905 4.1740398 7
-143.99397 -47.65707 4.1547923 7
-143.98683 -47.580276 4.1154623 7
-143.89706 -57.755295 4.4612498 7
-143.88866 -57.277939 4.470849 7
-143.98781 -53.147858 4.488636 7
-143.98888 -52.323692 4.4433341 7
-143.99905 -51.740726 4.4455376 7
-143.85037 -51.017647 4.5389061 7.4530001
-143.88721 -50.622368 4.6740212 7.6785002
-143.91936 -50.186829 4.6715508 7.5609999
-143.94366 -49.830284 4.7336736 8.05375
-143.94781 -49.360657 4.6559262 8.0960627
-143.90837 -49.060017 4.6017976 7.7073331
-143.9474 -48.510414 4.6600037 7.8449006
-143.98309 -48.158394 4.6460338 7.55825
-143.98325 -47.737602 4.5995603 8.1158752
-143.97572 -47.411896 4.5945363 7.7504172
-143.98839 -46.915989 4.5888329 7.7530837
-143.98454 -46.596138 4.6048379 7.5654378
-143.83664 -53.083061 4.9379797 8.1555004
-143.82176 -51.413963 4.9102755 8.1413012
-143.82378 -51.04314 4.8694372 8.1011667
-143.90022 -50.547615 5.0996923 9.1325626
-143.95493 -50.350437 4.8146229 8.1424999
-143.8259 -51.022388 5.3335352 9.0539999
-143.95303 -50.334949 5.2251596 9.1424999
-143.62408 -31.531885 5.4163876 9.0904999
-143.70387 -42.987392 5.9385366 9.1754999
-143.62859 -42.784397 5.9464064 9.0764999
-143.76643 -36.126446 5.7779727 9.6753998
-143.71371 -35.905338 5.9196305 10.072393
-143.70219 -31.679245 5.8782759 11.098792
-143.68237 -31.367128 5.8387241 10.2794
-143.98262 -56.741859 6.1649098 9.0749998
-143.79237 -56.248489 6.16681 9.4360838
-143.92322 -55.968681 6.3495321 10.1125
-143.63615 -55.016479 6.2464094 11.137751
-143.6226 -54.420544 6.0135388 10.1545
-143.60828 -54.395542 6.2715254 11.1465
-143.77477 -49.452648 6.2279234 12.131
-143.67256 -48.824768 6.3862352 12.148
-143.74478 -48.697929 6.3160377 11.37775
-143.67778 -42.990067 6.2767749 11.458583
-143.79124 -42.702347 6.3442888 11.517799
-143.82559 -42.325878 6.3350716 9.0185003
-143.68053 -37.700413 6.1666975 11.155833
-143.69875 -36.153595 6.1395993 11.216571
-143.81371 -35.875656 6.1391048 11.185044
-143.739 -35.586411 6.302671 11.161
-143.8204 -32.113747 6.2622647 10.767834
-143.74626 -31.776115 6.0823612 11.403264
-143.83488 -31.46582 6.1402144 10.804679
-143.72736 -56.242981 6.6451759 11.1185
-143.82274 -55.997494 6.4523897 10.1115
-143.91824 -54.611816 6.5459919 9.8181658
-143.65768 -54.054356 6.6219482 12.1415
-143.82118 -50.052654 6.5250177 11.12975
-143.76575 -49.770782 6.5666976 10.880464
-143.71211 -49.401669 6.6114607 10.895375
-143.71172 -48.926617 6.6618028 11.562428
-143.70081 -48.67535 6.5826087 12.1285
-143.79697 -42.972862 6.5486507 12.129938
-143.83403 -42.599545 6.5095162 12.437901
-143.9046 -42.193184 6.5134778 12.026275
-143.96404 -41.748638 6.6605344 11.1575
-143.8047 -41.558193 6.6366444 13.112
-143.61246 -38.696987 6.7089663 13.1445
-143.7854 -38.013302 6.4310942 13.1305
-143.81256 -37.914982 6.4846673 12.799
-143.84149 -37.554028 6.466197 13.123
-143.73676 -36.159859 6.6023169 11.085
-143.73705 -35.825485 6.6193218 12.234333
-143.64008 -35.463051 6.4039164 11.1685
-143.92151 -32.055897 6.5353794 12.435833
-143.88924 -31.937199 6.4845939 12.301
-143.62749 -56.124886 6.9370255 12.123
-143.60301 -55.464714 7.1907578 12.156
-143.87665 -54.983276 7.0899811 11.369562
-143.79176 -54.684448 6.9812479 10.833501
-143.84077 -53.230827 7.1892595 11
-143.81009 -53.081028 7.1309266 11.163
-143.92587 -52.422417 7.0745225 9.026
-143.76913 -49.746643 6.9121013 11.61625
-143.76933 -49.202206 6.8482475 13.119
-143.74065 -48.847591 6.8242636 13.148
-143.74471 -48.778633 6.8489075 12.613501
-143.66684 -44.427998 7.1760464 15.137
-143.66939 -44.172329 7.1754136 13.1525
-143.98505 -42.989235 6.8109007 14.133
-143.95706 -42.490265 6.9435639 14.12875
-143.91615 -40.602448 7.150135 13.775167
-143.80724 -38.924236 7.0739861 13.628875
-143.74954 -38.690723 7.0661416 12.5125
-143.97716 -38.181015 6.8783998 14.131
-143.70116 -37.481995 6.9138064 13.78625
-143.8006 -37.014561 7.004137 12.57475
-143.87238 -36.026978 6.8638935 13.1485
-143.67566 -35.475693 6.9365072 12.0805
-143.97586 -34.822891 7.1962805 12.179
-143.69649 -33.362465 7.1919317 13.1655
-143.85023 -32.603722 7.1580534 11.014
-143.92908 -32.189968 7.0538192 13.618124
-143.94739 -31.988432 7.0223556 14.1475
-143.89291 -54.933765 7.2953787 10.831
-143.87744 -54.697216 7.2094412 13.1425
-143.88771 -53.387833 7.2621636 12.12325
-143.8035 -52.939362 7.4241304 12.21315
-143.86804 -52.606823 7.4833713 12.2149
-143.91843 -52.190613 7.4713316 12.807334
-143.94916 -50.017929 7.5701604 10.006
-143.92363 -49.809189 7.4591908 12.073999
-143.69157 -47.265602 7.5684643 10.025
-143.85727 -44.853359 7.5618172 15.1455
-143.76596 -44.543373 7.4055767 15.143
-143.76144 -44.072845 7.3379765 12.6185
-143.80231 -43.858715 7.2325935 10.59375
-143.83586 -41.744629 7.3562641 15.1405
-143.84354 -41.37413 7.3967938 13.292706
-143.80351 -41.07597 7.3287668 13.12305
-143.84572 -40.574135 7.2279634 13.721601
-143.7468 -40.234474 7.3112316 13.927399
-143.70132 -39.830032 7.2881589 14.11125
-143.79314 -39.267376 7.2630906 15.13
-143.79996 -38.935921 7.3519692 13.530701
-143.86163 -38.750435 7.4534297 13.625
-143.96768 -37.701782 7.211185 14.144
-143.69563 -37.376652 7.272253 15.134001
-143.61192 -37.152557 7.2103939 15.12825
-143.91098 -36.298561 7.3360658 15.1265
-143.96826 -35.845753 7.3555942 15.1325
-143.86369 -35.022282 7.4289656 15.140249
-143.86185 -34.721256 7.3038549 13.434583
-143.69017 -33.70689 7.2456398 13.570749
-143.83098 -33.439526 7.3815646 13.896313
-143.75526 -32.928036 7.4009652 14.5138
-143.93694 -32.118687 7.3341475 13.079
-143.80322 -58.883621 7.7794414 11.66325
-143.83737 -58.657326 7.8453393 12.7447
-143.74197 -53.423641 7.7998652 12.42825
-143.76402 -53.012623 7.7882671 12.538775
-143.78743 -52.593586 7.7809105 12.733711
-143.83177 -52.237545 7.816855 13.472688
-143.98061 -51.973656 7.8600583 15.1415
-143.72734 -51.325386 7.8201365 12.13475
-143.68314 -51.159817 7.9855928 13.471833
-143.87471 -50.104214 7.674902 15.1245
-143.92656 -49.759636 7.7637181 11.5915
-143.79964 -47.33617 7.8532586 12.5224
-143.95787 -45.257343 7.7986426 15.149
-143.88322 -45.017403 7.8303385 14.879624
-143.76408 -44.691643 7.6035585 14.152
-143.82684 -41.649342 7.7361555 14.60675
-143.83365 -41.401814 7.7582159 13.1
-143.85851 -40.967022 7.6354465 15.111
-143.84041 -40.501144 7.8448892 13.099
-143.81238 -40.190777 7.8201418 15.108
-143.69052 -36.461475 7.8607941 13.1735
-143.83531 -34.622639 7.7147727 13.150666
-143.6844 -34.206512 7.6258974 14.159
-143.69623 -33.483082 7.6442924 15.151
-143.75165 -32.894356 7.6809406 14.135
-143.81792 -32.211369 7.7563863 14.498334
-143.83466 -31.962555 7.8600016 13.0065
-143.92465 -59.878212 8.396451 11.1685
-143.6413 -58.802635 8.3531561 12.166
-143.84305 -58.534149 8.2349205 12.00875
-143.87807 -58.339615 8.1233082 12.15275
-143.92876 -53.074291 8.1346817 13.086166
-143.78357 -52.651466 8.2722807 13.9561
-143.78442 -52.25404 8.0950832 12.125667
-143.7009 -51.349197 8.1168404 12.968333
-143.71159 -51.155838 8.1752338 13.384125
-143.8049 -49.678192 8.1532965 15.115
-143.9682 -49.544792 8.0622969 10.0255
-143.60103 -48.749512 8.1633348 13.161
-143.90359 -48.322807 8.2924137 13.6595
-143.95056 -45.31337 8.2708788 14.1305
-143.60995 -44.27887 8.0869741 14.1035
-143.65974 -34.29987 8.0487156 14.171
-143.93481 -32.40062 8.0375853 14.176
-143.80717 -32.361038 8.1820078 14
-143.87508 -30.594593 8.3717422 15.109
-143.97733 -59.640434 8.7976351 14.121
-143.77203 -59.502708 8.6078415 13.6195
-143.82838 -58.603874 8.5685844 12.1115
-143.65831 -53.039024 8.5523443 12.55525
-143.78845 -52.606518 8.589776 12.913938
-143.75165 -52.25428 8.5399609 11.894
-143.82138 -51.957855 8.3999004 11.102
-143.60587 -50.642063 8.4551477 14.1605
-143.65816 -48.47583 8.725111 13.163
-143.94568 -48.177578 8.416131 13.1615
-143.88368 -45.759567 8.6155052 15.106
-143.94876 -43.80616 8.4344473 12.59925
-143.84544 -43.064636 8.6823893 15.1035
-143.97023 -32.411545 8.6641798 15.176
-143.81197 -32.132797 8.5390215 13.013
-143.88197 -59.658756 8.9209337 14.1195
-143.83481 -58.884228 9.0579758 13.037833
-143.77068 -53.647156 9.1019621 13.10025
-143.81174 -53.324398 9.04249 12.400611
-143.8808 -53.009109 9.0816221 13.066625
-143.61481 -52.531429 9.1046877 12
-143.92841 -52.074425 9.1068411 14.1625
-143.74933 -50.192772 8.9320831 13.164
-143.66852 -48.833069 9.1646624 14.1625
-143.64049 -47.382408 9.0864477 12.178
-143.94881 -46.293915 8.9891119 13.06425
-143.84225 -45.003517 9.1171064 11.022
-143.63629 -44.123302 9.0740423 12.0195
-143.91872 -43.638794 9.1309786 13.099
-143.76671 -43.167789 8.9576263 11.0205
-143.70679 -39.162521 9.0134668 11.095
-143.80223 -32.511993 9.0726051 15.004
-143.61841 -30.357492 8.8970594 14.0105
-143.90234 -59.567963 9.2761679 15.1225
-143.83894 -53.304401 9.3224926 14.108666
-143.92339 -52.956123 9.2659445 13.106
-143.99745 -52.344032 9.5396118 15.162
-143.81068 -51.680103 9.334506 15.1615
-143.79288 -51.325291 9.5278044 13.612125
-143.83531 -49.807419 9.5255013 12.5835
-143.77388 -48.795212 9.2122469 13.164
-143.71751 -47.725704 9.2606745 13.1655
-143.96196 -46.862892 9.3306494 12.1
-143.82416 -46.776237 9.5382786 14.1625
-143.94951 -44.435852 9.3983946 14.1
-143.68938 -44.385368 9.3487539 15.1015
-143.67039 -40.982716 9.5134583 13.0175
-143.9653 -39.327026 9.4596977 15.098
-143.61548 -39.187393 9.4100857 15.0975
-143.76083 -58.45974 9.7710981 14.08275
-143.61646 -58.392754 9.761981 15.162
-143.88666 -53.295441 9.8572369 13.738167
-143.85648 -52.835838 9.7667904 11.630899
-143.65625 -51.99601 9.8544035 11.065
-143.8607 -51.545906 9.673831 13.55375
-143.94402 -50.566883 9.9262981 15.1625
-143.78827 -49.679184 9.6215391 12.006
-143.64497 -45.366264 9.6522665 13.049999
-143.79955 -45.029583 9.8430004 14.1675
-143.71066 -43.752304 9.6846619 14.099
-143.78004 -40.478832 9.7506247 12.519
-143.6595 -38.977795 9.610961 14.0955
-143.9221 -36.155548 9.6991873 12.014
-143.96915 -53.366081 10.305238 15.1085
-143.96371 -53.136379 10.134239 13.05225
-143.92691 -52.367081 10.357934 12.0935
-143.69463 -50.887383 10.077394 12.0985
-143.89502 -48.600044 10.092711 13.172
-143.60027 -46.95607 10.286612 13.012
-143.80705 -44.497444 10.196485 15.1
-143.72368 -42.853241 10.132936 15.0985
-143.81686 -41.39991 10.029485 13.097
-143.72253 -40.059856 10.329097 15.0965
-143.99504 -52.691635 10.553614 13.5535
-143.87018 -51.482368 10.687636 12.844126
-143.84438 -51.03064 10.446336 14.104
-143.79755 -50.722225 10.697244 13.1015
-143.64581 -50.193855 10.586038 12.0895
-143.69324 -38.271141 10.73883 13
-143.82625 -52.766251 11.137645 13.101
-143.90765 -51.456474 10.911883 14.0525
-143.78346 -50.49292 10.810149 14.103
-143.97154 -48.675621 11.059764 15.1645
-143.71498 -39.739059 11.044938 14.017
-143.74496 -39.361641 10.966528 14.02
-143.87169 -53.493744 11.338696 13.075625
-143.95091 -52.869087 11.492905 14.1035
-143.79301 -52.703506 11.416325 13.098
-143.83359 -51.805679 11.340495 14.103
-143.65916 -39.157951 11.219656 14.0195
-143.74928 -58.976898 11.859906 14.169
-143.72803 -53.793961 11.779842 15.1055
-143.81281 -53.355877 11.70789 13.766833
-143.70688 -50.492371 11.899188 13.0925
-143.67003 -47.301723 11.676064 14.1
-143.99878 -41.311852 11.606989 13.0175
-143.81992 -38.214539 11.967408 14
-143.8754 -42.259148 12.04989 14.021
-143.86954 -36.975307 12.198883 11.012
-143.71069 -35.521294 12.077845 11.011
-143.82281 -38.62114 12.4194 14.51725
-143.9202 -38.126053 12.608797 11.012
-143.92213 -51.160103 13.07157 15.102
-143.88152 -50.421387 13.573985 13.0645
-143.81242 -47.490479 13.472714 13.066
-143.65913 -40.663651 13.405837 11.012
-143.89397 -51.523964 13.6255 15.101
-143.90208 -50.588379 13.79503 13.571751
-143.9099 -49.96069 13.849659 14.0865
-143.88037 -32.913551 13.693564 12.01
-143.91896 -50.72385 14.018826 15.1
-143.8528 -50.254387 14.272627 14.587749
-143.67064 -48.543846 14.389434 14.0735
-143.98141 -50.430222 14.49439 15.097
-143.63425 -49.021599 14.514746 14.0715
-143.7838 -51.383255 14.926659 14
-143.88167 -50.793583 15.002249 14.0675
-143.75797 -47.638546 14.83793 15.0955
-143.62802 -43.958076 15.085627 14.0695
-143.66434 -41.664932 15.116387 13.0135
-143.9577 -41.700073 15.579806 12.013
-143.43846 -38.256695 2.3542523 6
-143.35046 -37.295616 2.2838235 3
-143.58531 -34.432766 2.1425259 2
-143.28828 -32.732639 2.324132 2
-143.37199 -30.681978 2.0341511 2
-143.56662 -49.271366 2.6023746 3
-143.22638 -37.838554 2.6879942 4
-143.293 -37.306137 2.4349623 2
-143.22812 -58.064682 3.0178862 4
-143.26279 -38.133034 4.3216643 8.1005001
-143.21399 -37.872654 4.7764225 9
-143.57649 -53.079582 4.9313307 8.1485004
-143.35458 -43.159271 5.1692424 8.1759996
-143.28828 -38.200981 5.0686321 9.5608749
-143.24132 -37.915134 5.0213542 9.0758753
-143.29984 -31.299795 5.1868935 10.121
-143.20822 -30.534616 4.8952508 9
-143.32204 -55.559158 5.5804906 9.158
-143.26196 -51.04258 5.447351 9.1502495
-143.23193 -38.305946 5.5407243 11
-143.26393 -31.724222 5.5696855 11.126
-143.44119 -31.424763 5.3594198 9.2365837
-143.37883 -55.638428 5.9866052 9.165
-143.32082 -54.513588 5.8762293 9.6569996
-143.41994 -54.108337 5.7142606 8.0270004
-143.26199 -50.668823 5.9677367 9.1014996
-143.37862 -48.849072 5.9753256 9.0710001
-143.27458 -48.705349 5.7656121 11.127501
-143.20392 -48.387051 5.7894859 11.12
-143.28732 -43.601933 5.8144879 11.63875
-143.33568 -43.476826 5.9087949 9.7912855
-143.36987 -43.095078 5.968039 12.119
-143.35158 -39.32486 5.9576697 12.1305
-143.23909 -39.028198 5.8412948 10.096
-143.35556 -38.588272 5.8361635 9.0675001
-143.24092 -38.176395 5.9422741 12.09775
-143.22008 -37.914726 5.9020438 11.102625
-143.46169 -36.15461 5.9699988 10.37575
-143.59605 -35.856232 5.96241 9.0165005
-143.55823 -31.494837 5.6148973 10.784667
-143.28389 -30.937923 5.8735371 9.5809994
-143.55928 -56.109322 6.2289157 9.0854998
-143.48802 -55.753838 6.2045913 10.3384
-143.49939 -54.914589 6.2078004 10.626187
-143.40187 -54.490276 6.1700573 10.75
-143.47684 -54.275551 6.1915579 9.9862146
-143.25897 -50.973709 6.1086984 10.155251
-143.49886 -49.082806 6.1199913 9.0819998
-143.29636 -48.600494 6.134047 10.60675
-143.33536 -48.257904 6.117734 12.133
-143.21819 -44.029823 6.1939588 10.60025
-143.20424 -43.988636 6.1722908 11.104
-143.38101 -43.360249 6.1001639 11.133357
-143.57526 -43.022629 6.2218823 10.656375
-143.58185 -42.553017 6.0531888 9.0830002
-143.20477 -38.818073 6.166369 10.0945
-143.25046 -38.777294 6.3097968 13.129
-143.25153 -38.241783 6.2247882 10.5805
-143.29886 -37.778397 6.1944957 11.756583
-143.41982 -36.108543 6.3144879 12.123876
-143.43735 -35.783474 6.1970501 11.372601
-143.54936 -35.593933 6.1397276 11.158
-143.25676 -30.787968 6.2880111 12.113
-143.31758 -56.551819 6.5626869 10.782666
-143.38232 -56.109665 6.6640964 10.612499
-143.33055 -55.805553 6.6315284 10.61175
-143.43181 -54.542755 6.5563698 11.155001
-143.36131 -54.310177 6.5766983 10.516478
-143.37981 -53.942528 6.5884213 12.14175
-143.49246 -49.739338 6.6548171 10.775833
-143.50761 -49.374912 6.6346545 12.646749
-143.48976 -49.0089 6.5831347 11.476501
-143.30983 -48.446831 6.6421733 11.159
-143.33116 -44.141758 6.6016021 12.4515
-143.21271 -42.907219 6.6621103 10.176
-143.33258 -38.914623 6.5780873 11.356125
-143.49333 -38.788021 6.6482496 12.122
-143.59149 -37.696648 6.5772958 12.152
-143.40532 -37.577671 6.5233479 13.1155
-143.28809 -36.953293 6.6371069 13.3805
-143.43037 -36.61343 6.5634146 12.157166
-143.33124 -36.105503 6.5370121 11.1755
-143.40953 -35.739979 6.5831509 11.633571
-143.29912 -35.505302 6.7499313 12.1615
-143.2719 -30.927826 6.6756225 11.522751
-143.21094 -30.669954 6.5844893 14.1385
-143.21078 -56.094921 7.0391412 10.1055
-143.23198 -55.694839 6.9852214 9.0085001
-143.35735 -55.349945 7.1210642 13.13
-143.4122 -54.993889 6.9591088 9.0985003
-143.39531 -54.667114 6.8849983 10.662
-143.41074 -54.385109 6.8343635 9.0150003
-143.4933 -49.834637 6.9171977 12.863251
-143.5354 -49.422924 7.034831 13.416333
-143.36858 -48.997684 6.973351 13.129
-143.3118 -48.680496 7.0324144 12.632875
-143.45404 -44.414501 6.8230977 14.141
-143.50676 -44.318523 7.0366607 13.1515
-143.41959 -39.047668 7.1124291 13.102
-143.37909 -37.321117 7.0554156 14.118625
-143.34792 -36.946709 7.1450853 14.639313
-143.44919 -36.791763 7.1055789 14.635625
-143.44022 -35.666523 6.9273419 12.081999
-143.35672 -35.165714 6.8861928 12.1685
-143.41182 -30.895399 7.009388 14.525301
-143.36304 -30.74045 6.9723763 13.385036
-143.23024 -58.473183 7.4985623 11.14325
-143.44807 -56.599781 7.346817 12.115833
-143.31187 -56.159489 7.3534946 13.1245
-143.5632 -53.352982 7.5612612 10.081
-143.53958 -52.942093 7.5714455 11
-143.42522 -52.655304 7.5463829 11.619249
-143.34811 -49.679611 7.4673982 13.579
-143.42735 -49.319138 7.3277912 13.097125
-143.32755 -47.757515 7.5943637 10.0255
-143.48064 -43.967941 7.5151067 10.0935
-143.44716 -40.693504 7.5651116 15.11
-143.44348 -40.118256 7.4079514 12.851375
-143.48065 -39.801395 7.342474 10.576751
-143.56361 -39.415386 7.4688463 12.125999
-143.42133 -38.53756 7.4540677 14.64775
-143.51587 -38.212132 7.3514848 15.136333
-143.32581 -37.718117 7.2642908 15.12975
-143.3232 -37.384537 7.396112 13.437083
-143.30981 -37.077595 7.3429899 13.433167
-143.49286 -36.700508 7.4163375 13.824668
-143.32289 -36.053818 7.4104028 14.1535
-143.58864 -33.488319 7.2689486 12.565001
-143.53984 -33.029556 7.3043566 13.57625
-143.45367 -30.97471 7.3782554 13.337875
-143.45998 -30.673157 7.2445788 15.1485
-143.41245 -59.104389 7.7889733 11.1105
-143.3851 -58.660988 7.7996035 12.6565
-143.46054 -53.447952 7.8226995 12.647832
-143.38466 -53.006371 7.802556 12.012094
-143.41125 -52.60973 7.87848 12.466364
-143.47849 -52.324516 7.8454084 14.390625
-143.58498 -51.726143 7.9167027 15.146
-143.39903 -49.613968 7.7366147 15.15
-143.42233 -49.492691 7.6439986 13.653999
-143.37964 -47.726116 7.7287436 11.467334
-143.58858 -42.162209 7.8881841 14.155
-143.58931 -41.977444 7.8921428 12.16825
-143.4631 -40.981804 7.8245935 12.468062
-143.46216 -40.755711 7.6080937 13.1
-143.34351 -39.787457 7.7469916 10.326
-143.3214 -39.46653 7.8309274 13.6912
-143.57439 -39.17363 7.6269536 12.096
-143.48294 -38.524609 7.6669121 14.1535
-143.44699 -38.020367 7.6117492 15.147
-143.36189 -37.365845 7.618907 15.135834
-143.54324 -34.437061 7.9949389 13.0065
-143.48492 -34.202709 7.8222232 13.061501
-143.40222 -33.318085 7.6817322 13.09
-143.5696 -32.265274 7.9454403 11.012
-143.39244 -30.89963 7.764266 11.0105
-143.43062 -30.790668 7.9773297 14.103
-143.39368 -53.678791 8.1115131 12.777333
-143.33539 -53.39336 8.2061186 13.191864
-143.33635 -52.951012 8.2219944 14.224751
-143.39775 -52.586712 8.1149073 12.379249
-143.44304 -52.300056 8.1471004 13.61025
-143.42426 -51.362305 8.2271175 14.1595
-143.5294 -51.073345 8.2990007 11.33325
-143.57695 -50.700497 8.2027779 15.155
-143.56308 -49.627678 8.2611828 15.1125
-143.37474 -48.761936 8.1874876 10.601999
-143.56082 -44.618145 8.3079863 13.1
-143.30011 -43.252087 8.1504545 10.062
-143.27975 -41.079113 8.1393394 13.599751
-143.47429 -40.186119 8.268878 13.599
-143.31143 -39.871429 8.2440262 13.6991
-143.23787 -39.595314 8.051218 14.0995
-143.54311 -34.896088 8.0729589 13.007
-143.24519 -34.147003 8.0242481 15.1595
-143.56071 -32.235397 8.0354214 15.1105
-143.5712 -31.99391 8.3515778 13.0125
-143.49817 -30.802036 8.0322838 14.002
-143.46187 -30.661409 8.2216673 13.0335
-143.56909 -59.925957 8.7080765 14.1215
-143.3503 -57.808098 8.5218716 10.0125
-143.24857 -57.370693 8.4617176 15.144
-143.56859 -53.224205 8.6657248 13
-143.41992 -52.932026 8.5653391 12.04035
-143.44023 -52.726746 8.4498434 13.0221
-143.57251 -52.206043 8.4956789 14.11
-143.34901 -51.272614 8.6759443 14.6095
-143.40761 -50.990795 8.5757399 13.395687
-143.40147 -50.776604 8.6164026 12.1025
-143.31798 -50.391327 8.6591377 12.1655
-143.22057 -48.962345 8.7635479 15.1075
-143.33153 -48.241943 8.6394958 12.091499
-143.33907 -42.991566 8.7265406 13.348875
-143.30292 -39.784218 8.4753942 12.05725
-143.47758 -30.608675 8.6155567 14.037499
-143.29565 -58.046623 9.0986423 13.167
-143.26833 -57.857567 9.0859509 12.096
-143.3326 -53.720276 9.1631422 11
-143.41676 -53.307781 8.9228354 12.025167
-143.49164 -53.008106 9.0360289 12.5876
-143.33678 -52.670914 9.0871115 13.054
-143.39819 -51.846027 8.9097528 14.1265
-143.26805 -51.438026 9.1506739 11.0745
-143.25514 -48.985802 8.9144611 12.66725
-143.45189 -48.587303 8.8514414 13.6645
-143.52934 -48.014729 8.9639101 14.1035
-143.37436 -46.170143 9.1052818 15.16
-143.41388 -45.863548 9.0021191 13.0915
-143.33897 -45.347908 8.8980732 15.159
-143.49039 -44.622986 9.0605936 14.1
-143.31252 -42.943581 9.0469141 14.599501
-143.39725 -41.352161 9.1591454 11.0925
-143.48239 -37.200447 9.198348 12.0945
-143.22652 -30.88619 9.0580177 13.0905
-143.25409 -58.053898 9.4337788 15.1595
-143.33275 -57.964684 9.2282667 15.156
-143.42455 -53.638428 9.4454765 13.607
-143.27728 -53.321594 9.431922 13.43925
-143.30664 -53.010677 9.4448957 13.047417
-143.35909 -52.651077 9.2908316 12.634251
-143.46153 -49.352242 9.245204 15.161
-143.57413 -48.084187 9.5169172 13.1675
-143.56514 -47.293427 9.3155899 13.66475
-143.25659 -47.18063 9.5434484 14.1635
-143.46078 -44.18383 9.2445879 12.561
-143.42589 -43.359383 9.4262323 14.129
-143.31741 -43.05341 9.3546762 13.098
-143.24194 -42.481342 9.4995251 15.099
-143.59651 -41.530338 9.3198681 15.099
-143.21619 -36.281483 9.3673525 12.015
-143.49805 -58.437012 9.7180939 14
-143.51855 -52.209 9.952632 15.1075
-143.23553 -50.543217 9.9770193 15.164
-143.21204 -49.167 9.8770046 13.1705
-143.47749 -48.718365 9.808918 13.17
-143.28171 -44.169071 9.873251 15.1635
-143.39554 -39.426682 9.7272234 12.05625
-143.35809 -38.728203 9.6988516 15.096
-143.49162 -31.723581 9.9236984 13.01025
-143.33881 -58.52742 10.036534 15.1645
-143.38829 -51.40081 10.030807 15.164
-143.48705 -48.791451 10.086645 13.1725
-143.51848 -45.221935 10.358367 12.021
-143.26556 -39.96843 10.249213 15.096
-143.53494 -58.846619 10.443994 13.169
-143.5054 -46.549057 10.632653 12.0225
-143.53548 -38.403931 10.753919 13
-143.56943 -38.336876 10.732062 13
-143.37712 -42.78286 11.091722 15.0065
-143.25012 -52.173744 11.561836 12.065
-143.53705 -51.835022 11.413394 13.60075
-143.47542 -37.83263 11.274609 10.011
-143.50754 -53.377262 11.829351 13.761333
-143.22673 -53.036522 11.624361 13
-143.25566 -37.630291 11.747835 14
-143.39655 -32.580185 11.818472 15.013
-143.29655 -37.379875 12.210425 11.012
-143.32661 -52.791077 12.432094 13.073
-143.49393 -38.800781 12.643657 15.0185
-143.55133 -38.70821 12.481208 14.016
-143.47208 -38.136768 12.671687 14.51625
-143.31491 -37.519302 12.692341 11.0115
-143.53337 -37.123474 12.442877 11.0115
-143.54643 -51.374176 13.121282 13.033751
-143.33055 -37.72076 12.958562 15.011167
-143.45128 -37.527176 13.009759 12.679667
-143.36275 -51.219177 13.491482 14.59525
-143.45302 -51.079269 13.424926 15.101
-143.55846 -50.522984 13.878114 14.083
-143.28076 -51.201767 14.038089 14.0745
-143.39958 -51.253307 14.471543 14.0705
-143.21931 -49.25882 14.489853 15.096
-143.3999 -43.373341 14.652525 14.420001
-143.33595 -41.858284 14.787729 13.013
-143.57379 -51.234241 15.193439 15.087
-143.52431 -50.942093 15.025899 15.09
-143.57108 -43.520187 14.939204 14.0715
-143.26888 -42.45903 15.15556 13.014
-143.48677 -41.285744 14.975211 12.0135
-143.49202 -43.765766 15.302449 14.0675
-143.23138 -42.4356 15.52611 15.093
-143.2305 -42.342674 15.501524 13.0145
-143.36647 -41.846325 15.287681 13.014
-143.11563 -46.387821 2.395731 2
-143.09283 -40.356674 2.2595546 2
-142.87675 -33.81908 2.0855398 2
-142.88139 -32.400646 2.3266323 2
-143.1001 -59.802742 2.7666256 5
-142.81609 -48.654564 2.4551229 2
-143.03706 -46.978607 2.4858301 4
-143.12065 -38.137516 2.6592858 2.5
-143.0654 -37.786636 2.7333417 4
-142.8502 -31.841005 2.5551131 4
-142.83983 -31.530441 2.6452627 4
-142.82106 -58.964424 2.8426466 4
-143.14003 -38.206963 3.0901806 4
-143.08281 -37.880116 3.0162773 5
-143.15216 -31.82939 2.8294106 4
-142.81895 -31.517378 2.8776433 4
-142.9395 -31.110023 3.1484206 5
-142.92419 -51.248226 3.4864428 5
-142.93732 -51.16098 3.5507762 6
-142.85263 -44.090565 3.5731273 5
-142.83542 -43.761463 3.2843676 4
-143.16479 -38.08411 3.5580821 5
-143.00046 -31.610401 3.3816345 5
-143.14915 -30.776663 3.5318673 6
-142.8726 -44.06963 3.9124746 6.5
-142.86354 -43.735859 3.6597099 5
-143.15979 -38.153957 3.8653984 6
-143.11879 -37.875969 3.8767097 7
-142.90372 -31.441404 3.7389443 6.25
-142.86055 -31.198235 3.7000844 6
-142.80664 -49.675423 4.3793106 7
-142.8069 -49.435745 4.2629242 7
-142.83308 -43.807125 4.2350483 7
-143.13007 -38.143261 4.3212886 7.7341666
-142.94739 -31.315777 4.2207079 7.5958886
-142.87379 -30.994961 4.2539783 7.8434377
-143.05206 -58.440826 4.5779209 7.5377498
-143.03682 -50.74229 4.7010102 8
-142.85497 -49.738117 4.7095785 7.5755
-142.82669 -49.437508 4.7331486 8
-142.8745 -44.019314 4.5377889 8.0699997
-142.90611 -43.806061 4.5855365 7.9666252
-142.81331 -43.460529 4.5942798 8.4576674
-143.01549 -38.179955 4.5009151 8.1309996
-142.91214 -37.860653 4.7471495 8.3303747
-142.88062 -31.635586 4.787425 8.0074997
-142.99442 -31.378084 4.7053914 8.8359442
-142.88838 -31.060261 4.7368655 9.1057186
-143.01103 -58.249672 5.066987 8.0678005
-142.92455 -51.12101 4.9205794 8.0823994
-143.0322 -50.724403 5.0788231 9
-142.82521 -49.753193 5.1506987 9.151
-142.8571 -49.413727 5.0573711 9
-142.86908 -43.793236 5.0619121 9.0507498
-142.85847 -43.526997 5.0441356 9.1072502
-143.08461 -37.826321 5.0269217 8.7301674
-143.06886 -31.735916 5.1519818 9.5935001
-142.99783 -31.357033 5.0844951 9.4229546
-142.92567 -30.975466 5.077611 9.5542822
-142.92555 -30.775415 5.0669518 10.139
-143.00224 -58.244797 5.4781494 8.1674995
-143.05679 -55.283218 5.2619605 9.1300001
-142.97397 -51.035713 5.4792805 9.348999
-142.99326 -50.674141 5.4524393 10
-142.87341 -49.754745 5.3435349 9.0513334
-142.8956 -49.394882 5.4329686 9.6050005
-142.87753 -43.846996 5.301846 9.2834635
-142.95029 -43.494637 5.3357801 8.6865501
-143.19838 -38.195084 5.5632825 11.1305
-143.18546 -37.888378 5.212584 10
-143.05063 -32.022572 5.5458446 10.489833
-143.05463 -31.77779 5.4555802 10.234
-142.84175 -31.399178 5.3527212 8.9188004
-142.899 -30.928408 5.4279876 9.987875
-142.88499 -30.646574 5.4480505 10.017887
-142.89813 -30.347157 5.4872365 10.155624
-142.94594 -58.268173 5.8523898 8.7711868
-143.02788 -55.14669 5.6697111 9.1090002
-143.13756 -54.14608 5.6936698 8.0275002
-142.85834 -51.00169 5.8588567 9.8618002
-143.01228 -50.655476 5.8352003 11
-142.86116 -49.704121 5.9365535 9.7570829
-142.90411 -49.388088 5.7743826 10.971
-142.99486 -49.005676 5.8631163 9.3107014
-143.11354 -48.653137 5.8634782 10.66459
-142.93092 -44.042126 5.8013334 10.4272
-142.97568 -43.820889 5.8412676 10.43961
-143.07053 -43.569408 5.7818737 9.5752506
-142.97853 -39.012058 5.869463 11.636043
-143.11623 -38.562153 5.9317665 11.111333
-143.05978 -38.224617 5.8801355 10.675
-143.14066 -37.829197 5.7975049 10.674899
-142.90919 -37.439266 5.7157965 9.0939999
-142.91762 -37.0532 5.7301764 9.9271669
-143.12646 -36.686386 5.8836598 10.167
-143.08588 -32.119026 5.8507938 11.379
-143.04097 -31.870924 5.746037 10.364215
-142.95987 -30.920168 5.8250651 11.179499
-142.86769 -30.649595 5.8090034 10.796224
-142.95293 -30.171879 5.76998 10.667485
-143.03584 -58.502003 6.1881638 9.0377502
-142.9601 -58.232281 6.1892691 9.6576948
-143.11003 -57.239677 6.3413005 9.0699997
-143.08101 -56.828648 6.3823709 11.1245
-143.18364 -56.578533 6.2879319 9.5892506
-143.00249 -56.36377 6.2960835 9.0693331
-142.94482 -55.767307 6.1635876 9.4868755
-142.98019 -55.274948 6.37219 9.1674995
-142.9655 -54.95285 6.0598783 10.64275
-142.87888 -54.464699 6.3309178 10.142667
-142.91747 -54.372005 6.370604 10.629749
-142.97137 -50.939251 6.1224327 10.323389
-142.93683 -50.697895 6.2421398 11.100417
-142.86145 -50.027164 6.0615458 9.0695
-142.86099 -49.750381 6.2262373 10.9434
-142.85146 -49.386139 6.1850462 11.0917
-142.86717 -49.142967 6.2491422 11.7246
-143.13127 -48.570812 6.110786 10.298083
-143.12576 -44.070923 6.2600937 12.1258
-143.09373 -43.906261 6.1353931 10.825785
-142.81674 -43.486153 6.3689628 12
-143.06065 -38.947208 6.1924338 12.011375
-143.06213 -38.602627 6.296144 12.885813
-143.00362 -38.208111 6.1450963 12.540143
-143.10631 -37.667324 6.2810407 12.783001
-142.9207 -37.478439 6.3344421 13.11825
-142.832 -37.023392 6.1220999 12.145
-143.05182 -32.476971 6.2302394 11.351812
-143.08598 -32.239536 6.1860709 11.945167
-143.05838 -30.854614 6.1980457 12.660357
-142.96129 -30.698692 6.1622076 11.968813
-142.9558 -30.163176 6.1167173 12.058875
-142.83478 -59.030319 6.6445618 11.1505
-142.86528 -58.40733 6.683516 11
-142.9632 -58.215546 6.5826621 10.716022
-143.11234 -57.96677 6.5178456 11
-142.94922 -56.959675 6.6441441 11.01945
-143.02371 -56.6203 6.687274 11.4238
-143.07689 -56.223782 6.700583 11.116625
-143.09181 -55.767479 6.6262274 10.62525
-142.8674 -55.389996 6.4019022 9.1680002
-142.9462 -55.007725 6.5657988 11.400625
-142.96588 -54.522099 6.5844264 10.820312
-142.97809 -54.235142 6.553206 11.234455
-142.88135 -50.97937 6.5405345 10.6853
-143.00137 -50.671711 6.6124363 13
-142.86456 -49.736862 6.618165 11.7185
-142.86316 -49.494274 6.5334253 13
-142.85367 -48.989426 6.5580769 11.800416
-142.84644 -45.21175 6.7356019 10.0985
-142.8466 -45.058029 6.7985716 11.0995
-143.19698 -44.074043 6.4492974 10.0985
-142.87372 -43.355919 6.5977464 12.856999
-142.99954 -38.911858 6.598918 12.610125
-143.08334 -38.651485 6.5594678 12.483833
-143.05426 -38.178596 6.6621656 13.7353
-142.86203 -37.768517 6.57969 12.112999
-142.96095 -37.504345 6.6193042 13.795166
-143.11209 -36.679298 6.787509 14.12025
-142.94395 -32.855217 6.683785 13.131937
-142.94206 -32.570415 6.6343336 12.598724
-143.01341 -32.235947 6.5212803 12.824666
-143.19789 -30.849661 6.6184087 14.132
-143.17589 -30.688305 6.6023359 14.140834
-142.99463 -30.131048 6.719276 10.001187
-142.95479 -59.325188 7.0263352 10.387375
-143.03166 -59.068287 7.1216578 10.213187
-143.00455 -58.50425 7.0221424 11.57475
-142.95145 -58.187885 6.9643626 11.245125
-143.09773 -57.93317 7.0070667 12
-142.95883 -57.089279 6.8648086 11.788918
-143.06161 -56.634033 6.9158506 11.1151
-143.01587 -56.17971 7.0277982 11.62975
-143.01097 -55.795105 6.9921942 10.584875
-143.18352 -55.399994 6.9774375 9.0120001
-142.94078 -55.004616 6.9537449 11.789291
-142.89062 -54.681625 6.9995899 12.282833
-142.8474 -49.712799 7.0466819 13.008808
-142.86418 -49.486671 6.9649315 12.622056
-142.82602 -48.878456 7.0783734 12.791167
-142.83559 -45.372108 6.8208952 14.116
-142.85449 -45.110447 6.8619246 12.1025
-142.85057 -44.656853 6.8491073 10.1775
-142.8459 -43.325687 6.9699879 14.096295
-142.87703 -43.035301 6.9785886 13.974465
-143.17339 -38.555359 6.987309 14.1445
-143.02878 -38.342175 6.8194761 14.1165
-142.82742 -37.958241 6.9136724 14.6255
-142.92427 -37.428955 7.0991664 12.074028
-142.98886 -36.809189 6.8226004 14.117
-143.14565 -35.656235 7.0712819 14
-143.08389 -35.420479 7.0207844 14.1371
-143.10791 -35.196308 6.9948139 13.158
-142.83284 -33.399143 7.0355768 13.859875
-142.97798 -33.035595 6.8539143 12.085334
-142.89784 -32.503738 6.9725399 13.091001
-142.94742 -32.303635 6.9018011 13.658751
-142.90886 -30.124765 6.9058185 14.279334
-143.00203 -59.309013 7.4787202 12.1245
-142.96733 -58.902199 7.4066763 11.337825
-142.95082 -58.488018 7.4814134 11.434001
-142.94054 -58.237667 7.3715405 11.553925
-143.05943 -57.960609 7.4721603 13
-143.01649 -55.956558 7.2458367 12.62
-142.80602 -55.324677 7.4206853 11.1075
-142.88147 -54.961529 7.3341141 13.119499
-142.87907 -49.718246 7.44802 13.748966
-142.89848 -49.475777 7.3804893 14.120138
-143.15065 -49.173866 7.270298 14.116
-142.8423 -43.30455 7.4057331 14.207916
-142.93182 -43.148655 7.3543015 10.096001
-142.89352 -40.909756 7.5161724 10.092751
-142.97284 -39.346016 7.5586872 10.0915
-142.87785 -39.023155 7.48035 14.156334
-142.84341 -38.547436 7.3961887 13.66
-143.05708 -38.188747 7.414413 15.14575
-142.93607 -37.82341 7.3348923 14.129624
-142.99535 -37.243511 7.3205585 14.152
-143.19583 -37.187744 7.5221295 15.147
-143.18211 -35.428013 7.3443274 15.1445
-142.80589 -34.491619 7.4344606 14.05925
-143.05008 -33.2668 7.5580206 14.105
-142.89352 -32.893253 7.3399029 15.141666
-142.91891 -59.02816 7.8009801 12.118699
-142.99031 -58.585835 7.6898451 12.124357
-142.9202 -58.29295 7.7433062 12.318637
-142.9838 -57.935307 7.8585982 14
-142.96754 -57.279907 7.9772935 14.148
-143.04649 -53.628201 7.9552631 13.65975
-143.08736 -53.30933 7.9418554 12.461687
-143.08281 -53.059795 7.902782 12.214624
-143.18468 -52.382854 7.977684 12.106
-142.9688 -49.737366 7.7723384 14.202786
-142.85707 -49.48357 7.7054639 14.3165
-142.89635 -49.121738 7.9164248 10.026
-143.15956 -47.835106 7.9085078 13.1605
-143.19704 -47.578323 7.7514973 14.1565
-142.99997 -44.0103 7.6729631 10.069
-142.83347 -43.820015 7.8217421 14.1035
-142.92107 -43.292774 7.620183 12.54875
-142.93268 -43.012146 7.6649547 10.086
-143.0291 -40.984657 7.8452802 12.932
-143.03993 -40.56197 7.7557392 12.262084
-143.05241 -40.189396 7.8041511 14.435666
-143.14355 -39.783394 7.8141541 10.587
-143.02296 -39.471275 7.8041434 12.112667
-143.13042 -39.14452 7.986414 14.1585
-142.98489 -38.626049 7.7341046 13.08175
-143.0798 -37.826439 7.6524725 14.136499
-142.87723 -35.765316 7.6935377 12.014
-143.11081 -34.949207 7.9097824 14.603001
-142.96181 -59.651859 8.2369566 13.118
-142.88843 -58.278744 8.0236225 12.5
-143.0385 -57.410423 8.3110914 14.3965
-143.10493 -53.725533 8.2135487 14.16
-143.04367 -53.286655 8.0913944 14.894751
-143.04301 -53.040112 8.0853987 13.123679
-143.04601 -52.685257 8.1397943 13.629
-142.80373 -52.245731 8.0671034 12.1655
-142.88101 -50.426197 8.1707649 13.163
-142.95892 -49.746204 8.2330227 14.616214
-142.93974 -49.415474 8.132967 12.63475
-142.90248 -49.024551 8.1586084 11.512751
-143.07222 -48.653809 8.3390408 13.632
-142.85217 -43.500797 8.2891045 14.62875
-143.16232 -40.993225 8.1664829 14.1
-143.13182 -39.93956 8.2134485 11.5955
-143.18323 -59.334293 8.5806046 14.1205
-143.13548 -59.140785 8.4405403 11.1035
-143.06833 -57.76313 8.5018272 12.3205
-142.84792 -57.288586 8.7111778 14.162
-143.13004 -57.075947 8.4962587 15.1475
-142.83167 -52.495621 8.4748611 15.1135
-143.03 -50.085087 8.5496264 14.809834
-142.81682 -49.877369 8.6378956 14.1625
-143.16045 -49.249199 8.666111 12.167
-143.00845 -48.977398 8.5689716 12.518858
-143.0135 -48.771378 8.7361488 12.1685
-143.13809 -48.210644 8.5576849 11.7855
-142.83313 -43.726845 8.4555216 11.097
-143.15852 -42.968044 8.6605482 12.431834
-143.06833 -42.697365 8.7723284 14.1625
-143.0426 -42.166027 8.6290302 12.810249
-143.1593 -41.958694 8.7302923 11.019
-143.18369 -40.182949 8.5013266 13.597
-143.0472 -39.267033 8.5897455 14.1665
-142.94572 -38.514496 8.5491028 12.02
-142.94606 -38.294563 8.5574493 15.099
-142.88519 -59.897587 8.8214321 15.128
-143.08583 -58.34787 8.8487568 12.05625
-143.00638 -53.032509 9.0830851 11.362833
-142.95226 -52.704422 9.0505409 11.4855
-142.87869 -50.179646 8.8829594 11.025
-143.0721 -48.933701 8.946806 14.13525
-142.8653 -48.452991 9.0275822 12.173
-142.91725 -47.75386 8.9914236 12.17575
-143.19684 -47.569122 9.1587772 13.166
-143.18671 -45.787182 9.1539593 15.1605
-142.86865 -44.128986 8.9506893 13.59875
-142.81512 -43.892094 9.1230011 12.0235
-142.90984 -41.737274 8.8768349 15.0995
-142.89638 -58.060104 9.4047174 14.164833
-143.03836 -57.946308 9.5461178 14.66425
-143.07375 -53.308594 9.4253387 12.912167
-143.06949 -53.002483 9.3622694 12.535792
-143.00038 -52.670998 9.4767017 13.5049
-142.88737 -52.16843 9.4168816 13.10375
-142.90994 -51.787174 9.4530468 12.852751
-142.83577 -50.526012 9.2090864 14.1645
-143.14732 -50.299469 9.4171982 14.6635
-143.14343 -49.213211 9.2174168 13.165
-142.91875 -45.301109 9.4148102 13.629749
-143.07324 -42.963554 9.5002213 12.097
-143.02528 -42.567162 9.4098434 12.088
-142.88898 -30.782404 9.327816 11.092
-143.08733 -57.536411 9.7331104 15.164
-142.93452 -53.606483 9.6883173 13
-142.94212 -53.503727 9.7149172 14.07175
-142.97473 -52.906845 9.7658882 14.052125
-143.05428 -52.585049 9.8390198 14.05275
-142.87318 -52.153381 9.7847557 15.107
