# .PCD v0.7 - Point Cloud Data file format
VERSION 0.7
FIELDS x y z intensity
SIZE 4 4 4 4
TYPE F F F F
COUNT 1 1 1 1
WIDTH 1167
HEIGHT 1
VIEWPOINT 0 0 0 1 0 0 0
POINTS 1167
DATA ascii
-197.7655 29.855246 26.779982 14.0085
-197.21625 29.454229 28.819157 15.01
-195.58493 3.8287659 28.653223 14.0165
-194.80006 29.232363 5.5415649 9.0614996
-194.78394 28.444426 5.1897707 8.0474997
-194.45248 24.779688 5.4290304 9.0524998
-194.52946 25.03068 5.4647517 9.0565004
-194.75063 25.960604 5.4658685 9.0600004
-194.58389 26.328279 5.358005 9.052
-194.62653 26.625528 5.3864856 9.0559998
-194.70142 26.933382 5.2330594 8.0480003
-194.59505 27.914675 5.2793708 9.0515003
-194.76817 28.662172 5.6009431 9.0609999
-194.48973 26.331156 6.9544482 9.0500002
-194.68207 27.714975 7.9541011 10.0595
-194.49205 24.658649 8.2314768 9.1134996
-194.51077 29.623648 10.237669 11.051
-194.52444 25.779802 11.273149 11
-194.4258 28.594896 12.166702 11.048
-194.46373 29.200117 13.056211 12.0605
-194.41974 29.514853 13.112223 12
-194.45497 29.815599 13.080036 12
-194.47754 25.567804 13.344755 12
-194.49896 26.206881 13.990151 12
-194.48212 27.374075 13.712543 12.0615
-194.50932 29.798784 15.448647 13
-194.54277 25.873026 15.897749 12.0735
-194.75412 27.171335 15.858816 12.073
-194.53238 26.516581 16.363371 13.07
-194.42593 28.358843 16.214035 13
-194.4088 27.503763 16.424038 13.0615
-194.41576 29.469786 16.771753 12.0475
-194.47736 29.159456 17.108915 12.048
-194.49934 27.32123 17.593277 13.071
-194.41887 27.781452 17.239428 12.52425
-194.50586 28.093927 17.778894 13.0705
-194.49918 29.068216 20.771774 14.0705
-194.40636 28.463339 21.518583 13
-194.4303 29.01453 21.467421 13
-194.43681 29.570612 21.412609 13
-194.41115 29.749666 21.455088 13
-194.50768 27.685801 22.339491 15.0605
-194.55571 29.425383 22.005964 15.06
-194.48557 22.57106 22.61458 14.152
-194.42386 27.513727 22.59465 15.07
-194.6694 28.606262 23.10059 13.0095
-194.62437 28.475481 23.207623 13.0095
-194.41165 28.946348 24.518732 14
-194.4149 29.294275 24.476561 14
-194.43628 29.633535 24.440308 14
-194.55313 28.776293 25.134478 14.075
-194.47453 28.927332 25.236099 15.0715
-194.58047 27.990429 26.240345 15.1505
-194.12698 1.4548206 6.2034349 8.1590004
-194.18974 2.7473736 6.1737003 8.1584997
-194.34348 26.716356 6.3404298 8.0404997
-194.04239 0.59897608 6.4926972 8.1625004
-194.0896 25.717916 7.4992132 9.1265001
-194.24007 8.7402668 8.8644943 9.1595001
-194.31258 17.961443 9.1575918 10.063
-194.323 18.549685 8.8568382 10.063
-194.02036 5.9272861 9.5887318 9.1674995
-194.1326 7.7071304 9.5119467 9.1645002
-194.10397 8.0090332 9.4491787 9.1625004
-194.14243 9.1267586 9.5112514 9.1639996
-194.14163 9.3928299 9.4473639 9.1619997
-194.25923 22.580549 11.176989 11.064
-194.19247 20.481764 11.691442 11.064
-194.19872 21.308489 11.707289 11
-194.0388 29.707289 12.249407 10.0475
-194.34241 27.867647 13.284903 12.0625
-194.20763 24.338087 13.625807 12.062
-194.1451 24.562197 13.679445 12.0635
-194.19635 25.859596 13.834296 12.020667
-194.32346 24.235991 14.04495 12.063
-194.38564 25.942705 14.008226 12
-194.22118 21.486166 14.566039 12
-194.30226 28.340757 14.772516 12.048
-194.17975 26.060953 15.58868 12
-194.16437 28.802088 15.517563 13.0555
-194.24443 27.772375 15.864257 13.061
-194.23607 28.11211 15.822412 13.061
-194.32106 29.357607 15.646925 13.0605
-194.38329 27.826418 16.286461 13.062
-194.33423 28.092554 16.24074 13
-194.14867 25.884228 16.600641 13.031
-194.21983 26.097319 16.536572 13
-194.29796 26.601969 16.697294 13
-194.02071 28.095972 16.49939 13.0605
-194.12164 22.631887 17.076729 13.0635
-194.26183 24.032892 16.960436 13.0625
-194.21782 24.414392 16.801973 13.063
-194.19905 26.182402 17.148581 12
-194.33699 26.563467 17.127851 12
-194.31519 27.976061 17.066805 12.0475
-194.39629 29.471495 16.896875 12.047
-194.09192 21.536749 17.512947 13
-194.31522 21.711641 17.5212 13
-194.33472 22.097681 17.468128 13.062
-194.33473 26.344603 17.402195 13
-194.01184 26.505953 17.379805 13.05
-194.13077 26.830271 17.572985 13.0485
-194.37935 27.568037 17.254189 13
-194.201 28.366705 17.388956 13.048
-194.00511 29.704393 17.270727 13.0705
-194.09245 18.363646 17.847464 13.063
-194.22614 20.138571 17.759659 13.0625
-194.02289 14.752314 18.246904 13.0725
-194.01439 17.154383 18.144968 13
-194.07611 17.443823 18.135386 13
-194.15579 18.152548 18.066299 13.063
-194.36166 23.582262 18.316202 13.0715
-194.36037 24.603052 18.016066 13.0715
-194.32144 26.781584 18.315805 13.048
-194.26689 28.333315 18.237253 13.553499
-194.06041 28.934046 18.126158 14.0555
-194.18961 29.522551 18.263876 14.0605
-194.35365 29.9522 18.031992 14
-194.16022 23.625708 18.730118 13.049
-194.00648 26.358835 18.766211 14.0615
-194.12498 26.665739 18.577938 14.030001
-194.07939 27.969091 18.504051 14.061
-194.04787 28.225634 18.579103 14.0625
-194.23351 28.602865 18.881552 14
-194.25227 28.912142 18.829689 14
-194.12842 25.88212 19.356897 14
-194.20139 15.914782 19.989485 12.0125
-194.3222 17.240454 19.878073 12
-194.2876 17.689386 19.829554 12
-194.33171 18.124674 19.79463 12
-194.02208 25.944292 19.790312 13
-194.28522 26.042355 19.666842 14.0305
-194.26863 27.772575 19.89793 14
-194.2773 28.242167 19.830065 14
-194.09267 13.282042 20.23444 12.013
-194.17096 15.558077 20.017376 12.0125
-194.07286 21.510897 20.272203 14
-194.11313 21.635874 20.390924 14
-194.226 22.095343 20.342833 14.0665
-194.37814 22.650118 20.377085 13.0735
-194.32249 24.069315 20.069908 14.0615
-194.2191 26.21451 20.079729 13.5
-194.1443 29.035046 20.17621 13.15
-194.33751 29.585371 20.378506 13.011
-194.22015 21.667343 20.538256 13.333333
-194.34004 26.231028 20.533545 13
-194.31322 28.359163 20.79755 14.0475
-194.20792 29.552549 20.686203 13.0105
-194.02106 18.47246 20.968342 14.063
-194.2413 19.258669 20.960381 13.074
-194.19006 20.184862 20.967043 14.0715
-194.03326 21.814909 21.09676 13
-194.0842 23.132639 21.017262 13.0495
-194.31909 24.633524 20.857637 13.049
-194.19644 26.703306 20.872709 13.0115
-194.2439 26.820894 21.026587 14.048
-194.32564 28.375086 21.039795 14.0705
-194.08633 23.658384 21.509861 14.049
-194.37392 27.725256 21.587893 13
-194.36174 28.186956 21.56809 13
-194.24202 28.48094 21.591845 13
-194.28404 28.884991 21.549192 13.4
-194.31131 29.400194 21.497902 13
-194.34712 29.797716 21.595987 13
-194.33653 27.437555 21.639181 13
-194.27177 27.806704 21.642691 13
-194.22427 28.12858 21.624401 13
-194.33412 28.644472 21.708288 13
-194.23654 28.897747 21.812483 13.675
-194.34795 29.412359 21.634306 13
-194.27147 29.614298 21.924286 14.012
-194.10489 24.358896 22.698179 15.06225
-194.27928 26.180975 22.533751 15.061
-194.3533 26.608196 22.527082 15.0655
-194.05765 27.892534 22.566479 15
-194.18652 28.27165 22.535851 15
-194.12154 28.812761 22.517223 14.117
-194.27046 29.532064 22.793249 14
-194.0155 17.945887 22.888899 14.0725
-194.02194 22.495247 23.072969 15.06275
-194.1577 24.30875 22.993124 14.5555
-194.28195 24.440599 22.830343 15.0615
-194.07556 26.277182 23.197945 13
-194.10834 26.60251 23.148956 13.668334
-194.15701 27.11928 23.115133 13.75
-194.17168 27.423904 23.114202 13.5
-194.19917 27.833498 23.040115 13.864
-194.21733 28.310438 23.022905 13.6
-194.24205 28.725716 22.979769 13.6
-194.21387 29.090252 23.089298 13.716667
-194.27505 29.366089 22.976391 13.753959
-194.30968 29.816774 23.022009 13.5
-194.02815 21.613138 23.479179 15
-194.0088 23.792131 23.51635 14
-194.0307 24.118128 23.475025 14
-194.04553 24.614599 23.407928 14
-194.07346 25.062155 23.366484 13.75
-194.05597 25.377796 23.360811 13
-194.06197 25.812387 23.318884 13
-194.12544 26.170195 23.267355 13.8
-194.15965 26.625008 23.257008 13.502501
-194.15295 27.037767 23.294609 13
-194.19107 27.461939 23.261158 13
-194.18314 27.90114 23.217873 13
-194.20697 28.276125 23.30344 13
-194.256 28.675627 23.27528 13
-194.25809 29.111776 23.235119 13
-194.28087 29.540258 23.199848 13
-194.01006 10.353689 24.210455 15.156
-194.06885 11.80368 24.350494 15.1555
-194.35695 13.820181 24.091631 15.151
-194.18701 25.995646 24.029856 14.012
-194.27106 27.856619 24.256262 14.011
-194.12675 13.266342 24.497355 15.155
-194.11304 24.433508 24.663654 14.012
-194.1691 26.177336 24.446871 14.0115
-194.26459 26.652086 24.794724 14
-194.29201 26.997444 24.757582 14
-194.32585 27.43004 24.703381 14
-194.31131 27.81933 24.68265 14
-194.24695 28.273043 24.653906 14.005249
-194.39578 28.620428 24.555233 14
-194.25337 29.059988 24.65637 14.005249
-194.33823 29.366716 24.629015 14
-194.3696 29.79608 24.585831 14
-194.03789 23.462193 25.051466 15.1165
-194.01453 23.699656 25.131012 14.012
-194.02695 25.333687 25.053705 14.0115
-194.15584 26.168917 24.920219 14
-194.13107 26.517035 24.917345 14.0055
-194.19344 26.904726 25.019657 14
-194.12563 27.295082 24.967878 14.007333
-194.25443 27.888088 25.04973 14
-194.28572 28.336205 25.04937 14
-194.27953 28.699587 24.822996 14
-194.30084 28.869169 25.082251 14
-194.30301 29.422327 25.019495 14
-194.34505 29.773844 24.989962 14
-194.07704 26.344439 25.412727 15
-194.00233 26.558081 25.478235 15.048
-194.04492 26.9639 25.242514 14
-194.14108 27.341654 25.374037 14.512125
-194.17908 27.707048 25.302282 14.333333
-194.11028 28.15312 25.397663 15.019
-194.16077 28.619785 25.451067 15
-194.1557 29.362282 25.530592 15
-194.14072 24.294344 25.838806 15.1005
-194.03549 26.307302 25.719696 15
-194.0199 26.588739 25.944265 15
-194.05341 27.006334 25.751999 15
-194.05443 27.380203 25.776737 15
-194.10954 27.82955 25.807688 15.009601
-194.09702 28.316259 25.703156 15
-194.13046 28.618925 25.667572 15
-194.15994 28.886791 25.801043 15
-194.20476 29.304934 25.838316 15.015834
-194.20227 29.622393 25.869017 15
-194.11163 26.567263 26.041765 15
-194.04633 27.606268 26.126242 15
-194.12975 28.221247 26.056986 15
-193.80554 4.8718581 7.9387298 9.1164999
-193.60242 6.7840705 7.930119 9.1405001
-193.68814 8.4642 7.7392473 9.132
-193.65421 13.858043 7.7660327 9.1420002
-193.78169 15.314225 7.8400669 9.1355
-193.85107 16.906689 7.8417859 9.1330004
-193.72186 19.961777 7.7018876 9.1400003
-193.84853 23.211557 7.7499681 9.1350002
-193.89107 24.933271 7.739821 9.1344995
-193.79417 20.156775 10.444555 10.134
-193.82341 22.590277 11.566521 11.062
-193.64519 18.881365 11.716764 11.063
-193.77068 21.155687 11.677645 11
-193.85687 21.384398 11.692475 11
-193.62071 25.578554 13.136476 12.0525
-193.89601 28.189741 13.457874 12.062
-193.83681 28.62606 13.395267 12
-193.9276 22.777559 13.789352 12.0625
-193.6539 25.455332 13.795326 12
-193.85274 25.81032 13.896445 12
-193.61491 7.7715011 14.174417 11.076
-193.77812 21.415403 14.539513 12
-193.80058 17.005379 15.154097 12
-193.80391 12.290369 15.464708 12
-193.83072 25.840597 15.551393 12
-193.84851 26.289454 15.830339 13
-193.85829 29.961412 15.871124 13.0615
-193.80428 21.200998 16.626413 12.0745
-193.81264 24.900438 16.787962 13.0615
-193.72025 25.741709 16.61059 13
-193.91866 26.277653 16.720194 13.0305
-193.76508 20.094774 16.95583 12.074
-193.69759 21.133677 17.032799 13.071
-193.61131 22.782801 17.067135 13.063
-193.72435 22.970026 17.069407 13.062
-193.70515 23.232813 17.123951 13.062
-193.82236 24.54812 17.004652 13.0615
-193.71109 25.739859 17.107243 12
-193.77153 26.01816 17.083591 12
-193.65652 20.956776 17.28771 13.066999
-193.67554 21.43844 17.431473 13
-193.63214 21.739889 17.345867 13
-193.6463 22.104998 17.290167 13
-193.68764 25.283243 17.284477 12.0485
-193.85616 26.214994 17.424128 13
-193.8476 28.221861 17.555878 12.048
-193.90686 29.69248 17.398567 12.0475
-193.66132 17.074839 17.987707 13
-193.77115 21.66028 17.979614 13.0515
-193.84941 23.315348 17.769505 13.051
-193.96861 23.672541 17.96088 13.0495
-193.74977 26.099428 17.686386 12
-193.76378 26.558611 17.634493 12
-193.80669 14.300051 18.249414 13.0655
-193.96072 17.035234 18.212135 13
-193.72704 25.721987 18.238579 13
-193.91623 26.064989 18.230143 13
-193.9644 27.381235 18.360542 14.056
-193.75124 12.535524 18.683352 13
-193.68143 12.836656 18.62216 13.033
-193.7291 13.306035 18.450184 13.03325
-193.83287 13.900255 18.473658 13.06425
-193.79295 14.331305 18.538048 13.065
-193.90012 14.62134 18.548235 13.064
-193.64964 21.609911 18.564663 13.072
-193.7755 26.401068 18.497805 14
-193.74776 29.9256 18.799122 13
-193.6608 12.565995 18.840748 13
-193.79785 21.631227 18.844795 13
-193.97685 25.153833 18.864056 14.0605
-193.67589 25.809587 19.381304 14.032125
-193.94577 26.0506 19.55706 14
-193.61491 12.627969 19.924919 13.0735
-193.72406 16.597425 19.849035 12
-193.80847 17.015802 19.821228 12
-193.61414 17.872656 19.748272 12.012
-193.61687 25.784918 19.795494 13
-193.76944 26.12104 19.863537 13.333333
-193.94698 28.10306 19.837898 14.0495
-193.60101 19.583406 20.054585 14.065
-193.74442 21.492708 20.177118 14.033625
-193.74489 26.180244 20.210302 13.666667
-193.77567 26.403486 20.197321 14
-193.61699 8.7832956 20.580225 13.074
-193.7494 9.994257 20.490536 13.074
-193.92825 18.886957 20.639023 14.0645
-193.87958 21.559977 20.439938 14
-193.77286 21.602266 20.477001 13
-193.61603 25.793978 20.415558 13
-193.94168 26.198206 20.439053 13
-193.75075 28.008795 20.756887 13.011
-193.66623 17.0432 20.98542 14.01625
-193.94263 17.260756 21.182501 14
-193.87628 18.30205 20.819901 14.0635
-193.91434 18.568769 20.821907 14.064
-193.76663 21.684286 21.05142 13
-193.64548 25.764433 20.9519 14
-193.78041 26.181347 20.937698 13.670501
-193.74388 27.08119 21.194916 13
-193.82848 27.227129 21.108381 13.5355
-193.80455 27.770214 21.127996 13
-193.83063 28.193127 21.085051 13
-193.77425 28.544195 21.056826 13.004199
-193.76933 29.066133 21.096098 13.004199
-193.86864 29.40892 21.013836 13
-193.89232 29.860298 20.970955 13
-193.70503 14.477212 21.520327 14.06525
-193.63118 15.097508 21.344706 14.0655
-193.71445 24.58806 21.531832 14.0715
-193.77502 26.345205 21.273945 13
-193.7594 26.593121 21.225737 14
-193.73033 27.379116 21.431564 13
-193.74608 27.729458 21.398169 13
-193.77444 28.146669 21.360546 13
-193.77505 28.615051 21.440716 13.666667
-193.86652 29.066805 21.405205 13.666667
-193.77151 29.429173 21.39592 13.687167
-193.82898 29.900547 21.310965 13.687
-193.62839 13.43654 21.64064 14.0665
-193.66502 13.898835 21.605509 14.0645
-193.70697 22.240366 21.896187 15.0535
-193.793 27.547113 21.951262 14.047
-193.72263 27.655867 21.856165 14.0135
-193.73201 28.363848 21.888338 14.53675
-193.79436 28.641853 21.856367 15.06075
-193.77959 29.047785 21.664476 14.022124
-193.65984 29.393242 21.947813 14.015834
-193.66319 29.845736 21.953175 14.0235
-193.65741 21.646128 22.104481 14.072
-193.60815 24.563208 22.35059 14.048
-193.70387 26.069181 22.147064 14.0475
-193.62007 26.618097 22.057003 15.062
-193.61328 26.85845 22.147795 15.0615
-193.612 27.940355 22.331078 14
-193.63089 28.162497 22.233879 14
-193.64705 28.61322 22.176615 14
-193.66742 29.063673 22.120913 14
-193.67628 29.389818 22.269564 14.009601
-193.67616 29.78125 22.228119 14
-193.78944 7.9221263 22.682112 14.1645
-193.74698 8.5444794 22.518793 14.1625
-193.60143 8.9145365 22.657991 14
-193.65825 9.376874 22.660002 14.032499
-193.77711 9.9360847 22.622028 14.162
-193.96503 22.945425 22.793798 15.0635
-193.88701 26.119188 22.415937 15
-193.60146 27.13801 22.576162 15
-193.75842 27.49011 22.556479 15
-193.63115 27.784498 22.457144 14.0485
-193.85185 28.133764 22.536484 15.0495
-193.60983 28.510515 22.467388 14
-193.62923 28.817457 22.431601 14
-193.79279 21.58917 23.174145 14.05
-193.91376 21.755541 23.166115 15
-193.94705 23.03348 22.911686 15.063
-193.90216 23.367041 23.189508 14.049
-193.9798 24.116648 23.167267 14
-193.99931 24.985144 22.927786 14.0485
-193.62402 26.089952 23.076746 14.25
-193.61671 26.48847 22.905846 15
-193.7588 29.978323 22.947275 14
-193.60056 9.1551752 23.485132 15.1525
-193.67049 12.32174 23.494394 12
-193.7704 14.471178 23.492222 12
-193.76588 14.896826 23.487783 12
-193.79227 19.215101 23.575291 15.0645
-193.78221 21.474222 23.201393 15
-193.76935 21.690935 23.34026 14.333333
-193.92268 22.102915 23.392218 13.666667
-193.93796 22.605946 23.447969 13.525
-193.90985 22.883516 23.510881 13
-193.96216 23.361122 23.429214 13.8
-193.90588 23.785362 23.361771 13.678416
-193.96555 24.152525 23.390631 13
-193.92676 24.603497 23.347843 13.007
-193.72345 25.908962 23.493443 14
-193.7827 26.007406 23.353077 14
-193.60097 8.5027323 23.991266 12
-193.60313 9.0418978 23.754953 12
-193.62798 9.4012117 23.870892 12
-193.6035 9.8177986 23.86141 12
-193.61569 10.244043 23.859167 12
-193.65367 10.605492 23.798525 13.576
-193.62935 11.036222 23.972803 12
-193.70824 12.180217 23.865244 13.57575
-193.65973 12.625398 23.823154 12.691167
-193.68968 12.851333 23.728537 12
-193.73378 13.208666 23.978849 12
-193.73265 13.679157 23.853039 12
-193.73701 14.100277 23.851387 12
-193.76543 14.539942 23.85446 12
-193.77043 14.963024 23.853365 12
-193.78624 15.411856 23.728352 12
-193.69547 17.840601 23.678629 14.0155
-193.66887 18.149263 23.954683 13.006001
-193.72353 18.662001 23.871407 13.75375
-193.7574 18.96697 23.9007 13
-193.75099 19.341614 23.830799 13.666667
-193.79033 19.826902 23.772579 13.666667
-193.77217 20.245037 23.741507 13.4046
-193.81145 20.561718 23.678596 13.666667
-193.84729 21.164534 23.680031 13
-193.81422 21.545158 23.742025 13.666667
-193.87494 21.80125 23.838774 13.5055
-193.67142 22.104242 23.792286 15.05
-193.78101 22.417082 23.611469 13.011
-193.97159 23.150175 23.599903 14
-193.74661 26.154737 23.699106 15
-193.61252 16.786486 24.116184 13
-193.63788 17.149752 24.251648 15
-193.67589 17.213907 24.079901 13
-193.68767 17.663538 24.031815 13
-193.88286 21.481604 24.00383 14
-193.8522 9.1402283 24.544731 15.1595
-193.88652 10.534325 24.670343 15.159
-193.88762 17.140261 24.409567 15
-193.99182 22.994337 24.659229 14.0125
-193.78137 23.207355 24.517784 15.121
-193.75653 29.0142 24.464252 15.0465
-193.71838 2.5268703 24.898018 12.1785
-193.91695 11.99375 24.806391 15.1585
-193.85387 13.998812 25.098951 15.064
-193.83034 14.185335 24.943113 15.064
-193.93645 23.572977 25.14349 14.012
-193.94449 24.368784 25.181307 14.0115
-193.98087 24.828035 25.036282 14.0115
-193.71558 26.023455 25.106895 15.0135
-193.72174 27.720583 25.108221 14
-193.73267 28.165228 25.127876 14
-193.75797 28.531807 25.091776 14
-193.71484 28.945421 25.061447 14
-193.71814 29.417925 25.021822 14
-193.76665 29.872179 24.994667 14
-193.71834 12.79178 25.208223 15
-193.77345 18.583994 25.285717 15.0505
-193.90125 24.715555 25.544769 15.049
-193.60406 25.990393 25.418631 14
-193.75998 26.209627 25.45512 14.50325
-193.77565 26.595385 25.32646 14
-193.65753 27.040899 25.405169 14
-193.68164 27.512756 25.355881 14
-193.69473 27.892057 25.315042 14
-193.70763 28.281712 25.368715 14
-193.73306 28.647163 25.33252 14
-193.79684 29.016411 25.385746 14.270374
-193.77176 29.399536 25.255663 14
-193.76562 29.754889 25.261955 14
-193.62872 14.944512 25.998827 15.0515
-193.82608 21.993563 25.961355 15.0145
-193.84949 23.141451 25.814638 15.0495
-193.88881 23.573965 25.711329 15.014
-193.94092 24.467047 25.778975 15.0135
-193.62833 24.862776 25.712051 14
-193.79456 25.233421 25.772379 14.5065
-193.60048 25.6397 25.610523 14
-193.73839 26.276394 25.798012 14.674335
-193.61629 28.322908 25.997757 15
-193.63432 28.638056 25.95669 15
-193.71207 29.084776 25.914175 15
-193.91483 29.47143 25.917366 15
-193.99438 29.739157 25.902178 15
-193.67848 19.908533 26.368601 15.0505
-193.73929 20.362417 26.219887 15.015
-193.70302 21.880386 26.190327 15.016
-193.84814 22.172548 26.179956 15
-193.94774 22.682859 26.245846 15.05
-193.84161 22.899368 26.117872 15.013833
-193.83202 23.368578 26.063734 15.049
-193.88576 23.794008 26.263268 15.0045
-193.9166 24.193342 26.292877 15
-193.92 24.532539 26.18763 15.004333
-193.9391 25.013441 26.168161 15
-193.64174 25.634329 26.068796 15
-193.99332 26.137453 26.006699 15
-193.65041 26.8454 26.129028 15
-193.87326 27.205038 26.137705 15
-193.61255 27.84552 26.190525 15
-193.63885 28.084421 26.22497 15
-193.62842 28.56423 26.152325 15
-193.66524 29.06156 26.206501 15
-193.66638 29.45005 26.151567 15
-193.70808 29.739529 26.100485 15
-193.60049 11.047225 26.537848 13.174
-193.67619 14.3292 26.770885 13.1735
-193.70934 15.125319 26.543018 13.173
-193.67317 18.6831 26.4995 15.0155
-193.69069 19.598967 26.538956 15.015
-193.74983 22.93981 26.449417 15
-193.85599 23.386839 26.406364 15
-193.62462 27.787733 26.53982 15
-193.6308 28.119604 26.493681 15
-193.64427 28.613377 26.426832 15
-193.67587 29.062456 26.772591 15
-193.7039 29.400595 26.733231 15
-193.70171 29.734625 26.685993 15
-193.60641 27.76499 26.937511 15
-193.63524 28.249796 26.876221 15
-193.64069 28.743441 26.807484 15
-193.65996 29.108278 26.946558 15
-193.67975 29.436586 26.906551 15
-193.7157 29.75691 26.872606 15
-193.58702 1.8679993 7.8771524 9.1344995
-193.54802 5.5977511 7.8840394 9.1450005
-193.54042 0.12545323 8.105649 9.1389999
-193.55396 6.9193454 10.342243 10.1405
-193.56717 16.605028 15.178173 12
-193.38611 12.321496 15.409549 12
-193.34805 12.25966 15.749104 12
-193.50089 12.553132 15.727336 12
-193.29683 3.9090433 16.673861 11.017
-193.39096 21.275736 17.193178 13
-193.40428 18.858225 17.570225 13.0635
-193.39644 19.440357 17.414227 13.064334
-193.42798 20.916626 17.287506 13
-193.49664 21.2826 17.253595 13
-193.49713 21.817068 17.208389 13
-193.35077 25.391117 17.391294 13.0505
-193.28098 16.719246 17.888489 13
-193.45364 16.886202 17.986898 13
-193.2596 17.410549 17.727913 13
-193.21182 17.700897 17.626188 13
-193.5621 18.293772 17.619884 13.072
-193.41333 19.011934 17.672869 13.064
-193.50046 19.428347 17.698416 13.063
-193.59132 28.875734 17.952927 14.0515
-193.55855 7.8906875 18.350515 12.076
-193.49243 16.701578 18.194458 13
-193.47046 16.987558 18.087414 13
-193.48579 27.389612 18.169071 14.052
-193.58897 10.829431 18.795603 13.067
-193.35229 12.374912 18.534513 13.022
-193.39471 12.519094 18.640333 13.024333
-193.32324 24.262154 18.651251 14.053
-193.34894 24.582138 18.711302 14.057
-193.40282 25.847921 18.403664 14.0525
-193.51118 26.998289 18.691265 14.063
-193.25212 29.835754 18.633322 13
-193.50078 9.4863939 19.001244 13.06625
-193.29042 12.337617 18.886276 13
-193.37172 12.525086 18.826923 13
-193.52563 21.51145 18.80669 13
-193.21164 22.625282 18.906443 14.0535
-193.28421 23.490517 19.135908 14.0625
-193.32048 23.967487 18.946194 14.061
-193.36861 25.186525 18.850462 14.062
-193.33304 25.426254 18.936451 14.0635
-193.44293 29.592287 18.901871 13.0465
-193.36827 29.99766 18.827156 13
-193.37785 8.0600443 19.327444 13
-193.20624 21.735634 19.438459 14.063
-193.23643 22.269989 19.230524 14.0615
-193.23755 23.714043 19.227236 14.064
-193.54695 25.523203 19.365498 14.0625
-193.57587 25.762247 19.373672 14
-193.47063 6.7641649 19.892805 12.0155
-193.3764 7.203023 19.98278 12
-193.41612 7.9942293 19.873354 12.015
-193.5558 25.845533 19.80884 13
-193.2075 1.7362907 20.313715 13.0695
-193.32564 3.4181147 20.000263 13
-193.41586 4.515336 20.138655 12.016
-193.33405 5.4280176 20.179342 12.016
-193.43884 5.7098932 20.138828 12.0155
-193.2886 6.075387 20.045826 12.016
-193.30705 6.7940798 20.018911 12
-193.56894 17.540377 20.279242 14.064
-193.50455 17.678125 20.39732 14.0655
-193.40109 21.092634 20.250626 14.0125
-193.44324 21.370552 20.137051 14.015875
-193.20726 25.460308 20.067457 14.0505
-193.43126 15.663529 20.690403 14.06525
-193.41275 21.553316 20.403734 13
-193.2453 16.739777 21.079439 14
-193.45071 16.970211 21.050953 14
-193.4603 17.609934 21.102676 14
-193.50468 18.018442 21.033155 14
-193.54939 18.832792 20.89183 14.063
-193.38144 21.323057 21.012104 13
-193.4558 21.607843 20.987452 13
-193.33276 25.934746 21.10504 15.0525
-193.42921 14.621671 21.435381 14.0645
-193.37491 15.752603 21.466099 14.0725
-193.43097 16.782537 21.255022 14
-193.51595 18.324877 21.231125 14.072
-193.48029 21.868139 21.567026 14
-193.50005 22.409758 21.582355 14.0495
-193.52103 25.521349 21.325788 13.0115
-193.55937 26.747595 21.211912 13.011
-193.55891 27.436914 21.240166 13.011
-193.32091 29.872208 21.472467 14
-193.36453 12.457147 21.754417 14
-193.38005 12.97788 21.870869 14.0695
-193.49593 13.364385 21.678226 14
-193.3069 14.637261 21.650436 14.064
-193.36816 20.788908 21.831415 14.05
-193.46748 21.529474 21.622282 14
-193.45398 26.217573 21.995399 15
-193.48511 26.546278 21.93297 15
-193.59067 26.934946 21.868711 15.0625
-193.55821 27.447309 21.930569 15.062
-193.57446 27.636393 21.76403 14.015
-193.56746 28.209066 21.604828 15
-193.33333 12.520402 22.062742 14
-193.25871 19.085033 22.105637 14.0505
-193.30606 21.893097 22.172392 15.0615
-193.48683 25.237757 22.203876 15.063
-193.46487 25.837486 22.230486 14.765625
-193.48981 26.640974 22.288567 14.0485
-193.59564 27.634855 22.369061 14
-193.55969 28.128653 22.081331 14.048
-193.55617 28.462629 22.210936 14.0475
-193.36284 8.1740122 22.765364 14
-193.58467 8.4097834 22.754831 14
-193.53857 18.812105 22.540901 15.0545
-193.41846 21.742445 22.5268 15.0645
-193.51837 23.018335 22.567057 14.0485
-193.33633 23.587914 22.72715 14.0495
-193.39214 25.154997 22.493143 14.049
-193.38565 25.386995 22.462509 14
-193.47952 25.807653 22.533085 14
-193.52426 26.164974 22.573568 14.25
-193.54436 26.475702 22.50729 14.333333
-193.49736 26.936663 22.498779 14.365334
-193.49004 27.497829 22.639061 14.3495
-193.57794 27.759987 22.42602 14
-193.58336 28.046892 22.522629 14
-193.45244 28.846659 22.522804 15.048
-193.32162 6.5504313 22.967499 14.066
-193.26859 17.138697 22.902145 15.057
-193.50827 17.935286 23.037031 15.0625
-193.56157 19.576651 22.841007 15.0635
-193.49098 19.739275 22.96706 15.065
-193.38208 21.389822 23.1096 15.015875
-193.52692 25.777832 23.142324 14
-193.21455 4.2562342 23.363592 14.0675
-193.21597 5.1800623 23.223795 14.068
-193.25798 15.891603 23.570364 15.0645
-193.38831 16.055368 23.412603 15.063
-193.50664 17.039251 23.595398 14.016
-193.43652 17.775986 23.289146 15.064751
-193.33859 21.144085 23.363949 14.515625
-193.36108 21.483496 23.304031 14.381312
-193.49226 25.459841 23.466322 14
-193.57648 25.77079 23.399666 14
-193.57744 8.1260233 23.876936 12
-193.58305 8.596797 23.757303 12
-193.57564 8.9195395 23.981842 12
-193.3502 17.090351 23.896278 14.0155
-193.58183 17.257696 23.934835 13.012
-193.2489 21.158482 23.714472 14
-193.33789 21.447376 23.783352 14
-193.4642 21.677237 23.844437 14
-193.57367 25.798441 23.718687 15
-193.33734 4.6387148 24.164974 13.016
-193.47818 15.065495 24.167469 13.0125
-193.53831 15.991223 24.155464 13.0125
-193.21352 16.768299 24.265707 15
-193.42081 16.995512 24.185537 15.007222
-193.31775 18.329617 24.193411 15.0525
-193.58719 20.388586 24.094301 15.0505
-193.48846 25.9942 24.000843 14.012
-193.51385 29.227343 24.320826 15.017
-193.49039 6.8363657 24.443935 12.177
-193.33452 12.836667 24.403847 13.013
-193.414 21.542368 24.493715 15
-193.59869 21.736712 24.504166 15
-193.49045 25.745676 24.727907 14.0115
-193.40118 26.795729 24.776396 15.0435
-193.354 27.862738 24.490177 15.019
-193.47263 28.240942 24.548429 15.043
-193.49747 6.0367289 24.849262 12.1775
-193.37582 12.567236 25.159721 15
-193.35748 25.977858 25.161192 15
-193.43207 27.019968 25.158957 14
-193.42831 27.398184 25.112776 14
-193.55267 28.093206 25.17708 14
-193.59698 28.490046 25.141161 14
-193.57193 4.4629397 25.268211 15.167
-193.49683 6.5649061 25.250769 15.165
-193.55122 11.154244 25.426111 15.1615
-193.4185 12.650964 25.309526 15
-193.24924 17.191502 25.435017 15.051
-193.43291 24.469166 25.515949 14
-193.41895 24.954884 25.438227 14.159215
-193.44443 25.389238 25.398298 14.002875
-193.45821 25.802164 25.354298 14.333333
-193.48405 26.160398 25.30261 14.333333
-193.4594 26.641495 25.269423 14
-193.52661 27.00498 25.300127 14
-193.53209 27.363691 25.258554 14
-193.52315 27.746206 25.210974 14
-193.27095 8.7422495 25.887617 15.067
-193.37306 9.1980066 25.85763 15.0655
-193.4095 9.4228525 25.905607 15
-193.4809 9.7595491 25.815603 15.06575
-193.44507 10.278626 25.707209 15.066
-193.47389 21.345774 25.714239 15.049
-193.5269 23.702818 25.67569 14
-193.51825 24.099543 25.625189 14
-193.52335 24.420919 25.831337 14.011
-193.36032 25.180687 25.664167 15.1135
-193.51208 26.053232 25.950165 15
-193.37007 8.1236353 26.098324 15
-193.32591 13.244699 26.281715 15.052
-193.39998 18.946367 26.293308 15.0725
-193.59517 19.578524 26.170433 15.0155
-193.25475 21.568373 26.129663 15.0265
-193.34695 21.662838 26.19306 15.0028
-193.42094 24.994289 26.295317 15.008166
-193.46036 25.460024 26.254972 15
-193.45305 25.86306 26.258001 15
-193.45432 26.143881 26.182243 15
-193.51808 26.513557 26.191656 15
-193.5621 26.985136 26.328081 15
-193.58992 27.473515 26.238991 15
-193.57855 27.978727 26.371634 15
-193.59528 28.631678 26.281731 15
-193.4516 29.301432 26.315044 15.11225
-193.52124 8.2200508 26.689287 13.17475
-193.52135 8.992774 26.53977 13.1745
-193.57272 10.220105 26.679567 13.17425
-193.31512 17.185905 26.671976 15.016
-193.50494 17.927309 26.442831 15.016
-193.47646 18.297739 26.619715 15.051
-193.21266 19.85545 26.555426 15.051
-193.56303 20.461382 26.567715 15.0145
-193.27823 21.728806 26.708147 15
-193.27051 22.204052 26.60294 15
-193.40358 22.553553 26.582272 15
-193.31245 22.95826 26.701176 15.003375
-193.33594 23.426414 26.585203 15.00825
-193.40457 23.967772 26.603867 15
-193.38489 24.124071 26.618145 15
-193.42786 24.565239 26.545431 15
-193.44652 24.997267 26.691475 15
-193.47791 25.444273 26.646933 15
-193.51697 25.844561 26.613836 15
-193.51997 26.114382 26.59701 15
-193.53708 26.533764 26.539011 15
-193.53345 27.032869 26.523094 15
-193.56831 27.477634 26.484306 15
-193.20448 14.563294 26.986156 15.017
-193.24246 15.816682 27.000216 15.073
-193.21805 19.807545 27.168358 14.1115
-193.24574 21.154831 27.133034 15.004666
-193.29216 21.410072 27.031677 15
-193.2775 21.778086 26.968426 15
-193.34158 22.18018 27.046024 15
-193.33487 22.527706 27.062149 15
-193.36005 22.979273 26.972708 15
-193.36708 23.430677 26.976746 15
-193.42261 23.845224 26.894108 15
-193.38533 24.074495 26.946491 15
-193.4153 24.518715 26.886091 15
-193.47408 24.989271 26.912359 15
-193.48172 25.501272 26.837 15
-193.55559 27.09273 27.020477 15
-193.5784 27.422094 26.979076 15
-193.59305 27.714819 27.144924 15.0115
-193.44534 29.212679 27.128769 15.1125
-193.21082 21.17894 27.318874 15
-193.2567 21.519556 27.351553 14.390834
-193.29123 22.019161 27.20525 15
-192.91689 7.840672 15.941622 11
-192.98488 8.1410837 15.833849 11.015
-193.16057 17.072227 17.869257 13
-193.16379 17.48893 17.798363 13
-193.11984 15.052476 18.038294 13.065
-193.16508 15.532342 18.131695 13.0655
-193.19954 16.583466 18.057167 13
-193.04854 12.268472 18.681643 13
-193.18306 29.523647 18.643784 13
-193.10156 20.957565 19.172562 14.054
-193.15919 23.030319 18.942905 14.0575
-192.8528 7.5980687 19.229649 13
-193.03249 7.8496671 19.252705 13
-193.05235 8.0623941 19.385986 13
-192.96939 19.596851 19.515186 14.0585
-193.13449 20.499317 19.529982 14.062
-193.06609 21.347046 19.220785 14.058
-193.13484 21.9547 19.530666 14.0645
-192.91963 3.4177327 19.948679 13
-193.0488 18.342884 19.908861 14.0625
-193.10416 19.966698 19.744576 14.0635
-193.14825 3.8697746 20.282595 12.0165
-193.09627 0.67779988 20.608677 12.0175
-193.16652 1.3959281 20.58415 12.0175
-193.08289 2.0459106 20.439611 12.017
-193.13841 16.737225 21.052622 14
-193.06018 29.77153 21.376989 14
-192.9677 11.391891 21.988619 14.0665
-192.98224 12.266172 21.909973 14
-193.04872 12.620387 21.787777 14.0165
-193.09895 12.958278 21.789948 14
-193.08849 13.42991 21.704231 14
-193.05484 21.045555 21.989521 15.054
-192.87566 9.8835678 22.24402 14.0655
-192.9053 10.3228 22.112204 14.0665
-192.9781 10.574928 22.325834 14.065
-192.92368 10.821808 22.231844 14.066
-192.96017 21.477688 22.020216 15.058
-193.13994 21.85936 22.275093 15.063
-192.98965 8.1409922 22.711445 14
-192.96883 7.7315373 22.957706 14.0655
-193.05826 8.099988 22.830048 14.066
-193.04616 8.9781675 23.044882 12.175
-193.19249 21.245552 23.01129 15
-193.03906 23.890129 23.075624 15.051
-193.11853 25.483982 22.807693 15.0505
-192.88272 3.4717257 23.471069 14
-193.17389 3.7937477 23.469582 14.03325
-193.10072 4.4528584 23.285671 14.067
-193.04404 9.6475401 23.407597 12
-193.08952 12.775027 23.26358 12
-193.17082 15.549146 23.294621 15.0595
-192.94592 22.26376 23.352018 15.0515
-193.06021 1.1608206 23.998835 14.067
-193.08734 1.4220587 23.917101 14.068
-192.96056 1.6902089 23.820068 14.0675
-193.15802 11.38846 23.759377 12
-193.09859 11.75184 23.864925 12
-192.83408 14.556263 23.62561 15.0635
-192.85289 20.57275 23.646683 15.052
-193.12863 3.9521759 24.269743 13.0165
-193.05779 16.933712 24.127377 14.525499
-192.98508 29.76861 24.12583 15.002501
-192.91261 0.7207188 24.445587 13.0175
-192.96988 0.90973204 24.492752 13.017499
-192.95258 2.0677228 24.470774 13.017
-193.16302 17.116764 24.621651 15.0515
-193.06683 25.972557 24.70771 15.025
-193.18791 26.487808 24.66713 15.021
-193.14996 27.419128 24.491138 15.0245
-192.94447 9.6235046 25.109234 15.0675
-192.86047 12.325798 25.088737 15
-193.08595 12.49426 25.11912 15
-193.1907 12.448586 25.31045 15
-193.19676 8.1974192 25.998369 15
-192.92818 8.7478256 25.969452 15
-193.02359 9.1473246 25.896191 15
-193.08781 10.11815 25.823799 15.065
-193.18057 12.877313 25.88212 15.073
-193.1825 21.532127 25.709774 15.015
-192.96637 7.0165181 26.274622 15.066
-192.8743 7.736237 26.19125 15.0655
-192.98666 8.1278143 26.096151 15.026401
-192.9171 16.792934 26.392881 15.017
-193.18625 18.610542 26.288376 14.013
-192.83591 4.032805 26.690441 13.176
-193.18585 6.3471689 26.44515 15.0675
-192.95973 7.2180715 26.466574 15.0655
-192.9176 15.024113 26.725235 15.0175
-193.12611 16.242136 26.644854 13.173
-192.93568 16.972496 26.722738 15.0515
-193.1291 18.241093 26.625237 15.0155
-193.03258 19.0639 26.666115 15.015
-193.08363 19.929399 26.720564 15.004833
-193.12282 20.250465 26.724985 15
-193.11833 20.546904 26.558506 15.025
-193.15546 20.908653 26.621693 15
-193.17877 21.403782 26.544374 15
-193.18619 21.905834 26.461979 15
-192.89584 7.2169099 27.141895 13.1755
-193.02682 9.2555265 27.148579 13.175
-193.02864 11.301902 27.132101 13.1745
-193.04234 13.411897 27.124872 13.174
-193.12607 15.459945 27.140631 13.1735
-192.90251 15.667713 26.840193 15.0165
-192.98331 16.547838 26.9751 15.028
-193.06021 17.479778 27.050739 14.09425
-193.05873 18.241028 26.869385 15.033251
-192.98471 18.445526 26.850924 15.0505
-193.03416 18.880077 26.937742 15
-193.07213 19.386818 26.860003 15
-193.11613 19.693954 27.154779 15
-193.16405 20.221016 27.076971 15
-193.17683 20.564598 27.021511 15
-193.1837 20.892879 26.967285 15
-193.19356 21.235531 26.911722 15
-192.81125 5.3558717 27.590288 13
-192.80984 5.7641225 27.5846 13
-192.83749 6.179234 27.585819 13
-192.81021 6.5830541 27.574759 13
-192.81613 6.9742055 27.571766 13
-192.84064 7.3274074 27.506584 13
-192.85678 7.7513032 27.505547 13
-192.86021 8.1627073 27.501986 13
-192.85229 8.5824175 27.496016 13
-192.86099 8.9757128 27.494339 13
-192.87698 9.3922691 27.494442 13
-192.90887 9.8033171 27.498543 13
-192.90669 10.216922 27.495018 13
-192.91194 10.643462 27.493385 13
-192.93311 11.06463 27.495737 13
-192.9446 11.494494 27.496098 13
-192.94492 11.891067 27.494362 13
-192.93184 12.230452 27.416119 13
-192.96661 12.533873 27.496605 13
-192.98518 12.947877 27.499638 13
-192.99474 13.360224 27.50087 13
-192.99635 13.781652 27.50053 13
-193.00497 14.216406 27.502033 13
-192.98878 14.637524 27.506174 13.684166
-193.00124 15.072008 27.501152 13
-193.02736 15.493645 27.507517 13
-193.05629 15.826932 27.593164 13
-193.05083 16.129379 27.514259 13
-192.91953 16.531084 27.306381 14.626599
-193.04839 16.855627 27.435833 13
-193.04271 17.280458 27.435547 13
-193.02255 17.761246 27.48234 14.51125
-193.09999 18.153324 27.464609 14.025499
-193.1089 18.587667 27.455418 13
-193.10783 19.017923 27.457317 13
-193.12578 19.452923 27.372227 14.00725
-193.11926 19.886122 27.46509 13
-193.14487 20.488937 27.428574 15.014
-193.19751 20.86319 27.236601 15.014
-192.80618 5.4260488 27.848822 13
-192.84933 6.6534982 27.845816 13
-192.86609 7.0507512 27.846006 13
-192.8468 7.4612355 27.838017 13
-192.88358 7.864388 27.843285 13
-192.89174 8.2825203 27.84211 13
-192.88635 8.7190018 27.837967 13
-192.89514 9.1387482 27.837502 13
-192.90623 9.5597897 27.83782 13
-192.90062 9.9774265 27.834608 13
-192.92752 10.404026 27.839096 13
-192.94907 10.830139 27.84264 13
-192.92366 11.244923 27.835733 13
-192.9572 11.675812 27.842566 13
-192.9866 12.085462 27.848759 13
-192.93114 12.630217 27.860373 14.026501
-193.00426 12.938699 27.852509 13
-193.01259 13.36646 27.854687 13
-193.01933 13.794652 27.856785 13
-193.02974 14.631368 27.861067 13
-192.89935 14.891517 27.689569 14.367667
-193.06401 15.478547 27.871885 13
-193.02272 16.382332 27.820221 15.0515
-193.07857 16.668907 27.60136 13
-193.06424 17.072556 27.6 13
-193.0872 17.510338 27.607521 13
-193.14189 17.804815 27.76078 13.087
-193.13554 18.390045 27.623981 13
-193.12375 18.819771 27.624443 13
-193.13374 19.2794 27.630339 13
-193.1694 19.705223 27.642033 13
-193.17856 20.145107 27.648144 13
-193.17583 20.603836 27.652061 13
-193.17783 21.043404 27.657146 13
-192.82112 5.6665998 28.106243 13
-192.81018 6.0597615 28.1008 13
-192.84723 6.4846673 28.106464 13
-192.83313 6.8991933 28.100681 13
-192.85184 7.3215566 28.102692 13
-192.84616 7.7391629 28.09939 13
-192.90361 8.1720142 28.110834 13
-192.87964 8.5867481 28.103899 13
-192.88834 9.0098515 28.104725 13
-192.92203 9.4397621 28.111561 13
-192.91714 9.8399544 28.109854 13
-192.92879 10.266071 28.112185 13
-192.95784 10.697388 28.118778 13
-192.93987 11.117573 28.114885 13
-192.9657 11.549824 28.121307 13
-192.97861 11.979608 28.125055 13
-192.89252 12.655246 28.081934 14.368
-193.00716 12.842534 28.134024 13
-193.02654 13.276738 28.140106 13
-193.02171 13.70515 28.14094 13
-193.03035 14.138192 28.145132 13
-193.02983 14.569459 28.147524 13
-192.81345 4.439961 28.607771 13
-192.85617 4.8668962 28.613941 13
-192.85147 5.2850022 28.609392 13
-193.04048 17.797045 28.619024 14.172
-192.78462 7.498024 15.95738 11
-192.74754 7.7592392 19.188589 13
-192.5704 3.1126556 19.990492 13.0685
-192.59444 3.2986832 19.927902 13
-192.79167 7.9976087 19.798616 12
-192.61153 3.3940058 20.160097 12.017
-192.45004 0.17274456 20.571568 12.0175
-192.69379 8.8956909 22.340887 14
-192.78703 10.423126 22.056961 14.066
-192.72314 7.8299408 22.583633 14
-192.75397 8.3279085 22.490273 14
-192.79329 15.742874 23.01524 15.0555
-192.53128 3.2955704 23.482773 14.03425
-192.52962 13.18486 23.402502 15.1465
-192.53949 14.623375 23.543919 15.146
-192.72716 16.506474 23.516994 15.066
-192.47223 3.5863073 23.995337 13.017
-192.77945 8.1068916 23.723215 13
-192.6391 14.471643 23.855839 15.06575
-192.54146 16.101646 23.693007 15.1455
-192.4548 0.1655653 24.144827 14.069
-192.66376 3.6306534 24.309834 13.0165
-192.52278 12.441303 24.288086 15.06625
-192.64812 16.706512 24.345098 15.053
-192.77194 28.751469 24.16988 15.04
-192.69363 29.156631 24.07095 15.024
-192.72363 0.31987014 24.643785 13.017
-192.68326 25.182888 24.728743 15.0185
-192.56372 25.349663 24.67231 15.0215
-192.7411 25.683937 24.774368 15.044
-192.59047 7.937912 25.949459 15
-192.70575 7.8631477 26.030321 15
-192.5139 4.6176758 26.742491 15.034
-192.57712 4.9894676 26.682354 15.066751
-192.7504 5.7844772 26.684767 15.066
-192.63052 6.3047638 26.516056 15.067
-192.47835 13.568172 26.78657 15.022
-192.6911 15.071148 26.569742 15.019
-192.79564 16.645817 26.482702 15.0165
-192.49408 3.4455869 27.01037 15
-192.51469 3.9247742 26.990671 15.033751
-192.69971 12.655792 27.019218 14.0145
-192.61948 13.155098 26.954891 14.516001
-192.64685 13.333539 26.918909 15.019
-192.63467 0.20160489 27.525751 13
-192.65108 0.80132872 27.514973 13
-192.66266 1.2019616 27.50828 13
-192.68839 1.795519 27.500889 13
-192.42316 2.0775373 27.311687 15.067
-192.58348 2.4348011 27.365387 14.378166
-192.70993 2.8102629 27.484293 13
-192.64615 3.2228241 27.366259 14.03325
-192.71341 3.6139681 27.46921 13
-192.73787 4.0802755 27.529079 13
-192.74892 4.4872971 27.524895 13
-192.76422 4.895834 27.521944 13
-192.75253 5.234808 27.449572 13
-192.77876 5.6248646 27.4494 13
-192.78442 6.0314236 27.444443 13
-192.78076 6.456934 27.437315 13
-192.78336 6.8641281 27.432199 13
-192.64809 7.5982475 27.346523 15.0535
-192.75627 13.428757 27.386724 15.0525
-192.64954 0.09872061 27.77178 13
-192.67844 0.50669777 27.769981 13
-192.68085 0.91083348 27.762369 13
-192.70424 1.2988349 27.76022 13
-192.70767 1.704157 27.753349 13
-192.71378 2.1206229 27.747196 13
-192.72195 2.5278952 27.741951 13
-192.72079 2.9237359 27.734989 13
-192.72783 3.3216174 27.730167 13
-192.7719 3.7374947 27.733921 13
-192.79913 4.1502671 27.863266 13
-192.79034 4.5794911 27.85553 13
-192.78375 4.9891777 27.848835 13
-192.53944 5.4431992 27.804186 15.054
-192.78903 5.814064 27.84049 13
-192.79706 6.2285867 27.837959 13
-192.64761 0.31703764 28.13064 13
-192.67493 0.73051465 28.130325 13
-192.67384 1.1397535 28.123758 13
-192.70528 1.5346318 28.125223 13
-192.70514 1.9451028 28.119404 13
-192.72995 2.3400176 28.119848 13
-192.71198 2.7688143 28.110203 13
-192.71127 3.1807406 28.105055 13
-192.7359 3.5980227 28.106001 13
-192.77051 4.0179462 28.109503 13
-192.78061 4.433815 28.107655 13
-192.7739 4.8469162 28.102224 13
-192.78865 5.2649651 28.101986 13
-192.66122 0.32319841 28.623861 13
-192.68054 0.73911297 28.621923 13
-192.68231 1.1319581 28.616484 13
-192.71735 1.5310212 28.619007 13
-192.69775 1.9418489 28.60882 13
-192.69972 2.3569434 28.60391 13
-192.75391 2.7821028 28.611395 13
-192.76437 3.2000029 28.609009 13
-192.76929 3.5966074 28.605827 13
-192.77682 4.0151138 28.603283 13
-192.58667 9.0165443 28.573458 15.054
-192.66876 12.864784 28.462189 15.0525
-192.30093 0.21363537 24.561541 13.017499
-192.10368 12.098737 26.98661 15.024
-192.28116 2.0891414 27.247679 15.0675
-192.2794 9.9776306 27.447037 15.023
-191.96936 1.9311324 25.64411 14.0225
-191.88725 12.044227 26.936621 15.02
-191.97104 8.48281 27.700237 15.0265
-191.82425 5.8044577 28.368389 15.0535
-191.67612 3.7560642 28.774071 15.054
-191.23961 7.1631641 27.781958 15.027
-191.55467 1.6026217 29.217022 15.0545
-190.92799 3.0219209 28.727716 15.044
-190.91957 1.6688554 29.091421 15.048
-191.14227 1.0388241 29.416922 15.051
-190.72437 2.717237 28.728422 15.04
-190.65422 1.0780271 29.096569 15.0445
-185.7457 1.1423692 7.6002407 9.1540003
-185.87901 0.29446322 8.2088118 9.1615
-184.94002 7.3712711 9.4266062 10.1345
-184.53587 14.047151 7.3743262 9.1485004
-184.57442 6.7992606 8.045023 9.1584997
-184.79707 6.1627154 9.3768549 10.139
-184.12215 6.1189542 8.5262785 9.1615
-184.06277 7.120585 8.5872936 9.1630001
-182.8284 28.837605 2.5828726 8.0635004
