# .PCD v0.7 - Point Cloud Data file format
VERSION 0.7
FIELDS x y z intensity
SIZE 4 4 4 4
TYPE F F F F
COUNT 1 1 1 1
WIDTH 1231
HEIGHT 1
VIEWPOINT 0 0 0 1 0 0 0
POINTS 1231
DATA ascii
-147.19638 68.335907 -1.8145245 2
-146.89243 68.573051 -1.6497142 3
-146.9473 68.815605 -1.7248607 2
-147.17844 69.335701 -1.741978 2
-146.91273 76.946304 -1.8062561 3
-147.15784 60.822086 -1.3887074 3
-146.92149 61.407917 -1.2541847 3
-146.93562 66.937469 -1.3084781 5
-146.99901 64.552322 -0.82613194 5
-146.93597 66.531723 -0.97934473 5
-146.89403 74.161255 -0.91593289 5
-146.9848 74.555992 -0.92960739 5
-146.81013 76.256683 -0.87186348 5
-146.91832 86.246178 -0.95128393 6
-146.82855 89.849121 -0.95610154 6
-146.88657 60.920551 -0.56586206 5
-146.99419 61.408871 -0.44673425 7
-147.11304 66.383453 -0.42901206 7
-146.90173 67.578796 -0.48043329 7
-147.02112 74.048973 -0.67540592 5.75
-147.02744 74.598236 -0.66300946 5.8333335
-146.99915 74.875198 -0.69772887 5.75
-146.86086 80.954514 -0.44368368 8.0754995
-146.84747 89.552582 -0.7774139 7
-146.8989 60.706329 -0.23777424 6
-146.95715 60.933537 -0.22354133 6.2857141
-147.00243 61.388687 -0.20525491 6.5
-147.0136 64.424187 -0.15201932 6
-146.87981 65.795357 -0.27894908 5.3333335
-147.04031 66.244026 -0.27746397 5.5
-146.98886 66.462608 -0.31911489 6
-146.84412 74.893196 -0.30151129 7
-146.89397 75.747688 -0.048732057 7
-146.91719 76.108101 -0.26668817 6.3333335
-146.98286 81.745598 -0.33401465 8.0605001
-147.11333 82.720406 -0.064999767 9.0564995
-147.16072 82.994286 -0.063894369 9.0635004
-146.88007 89.362648 -0.12774204 9.0255003
-146.8054 89.962227 -0.044868354 9.0209999
-146.92473 65.48069 0.16288239 7.0244999
-146.91277 65.766907 0.066629075 6
-146.98988 66.290009 0.23924905 7.7967501
-147.04977 66.563812 0.031914379 6
-146.99483 75.936256 0.20110007 7
-146.96312 76.143051 0.18981488 7
-146.97182 77.061478 0.22299561 9.0734997
-147.14929 77.394547 0.20550691 9.0530005
-146.85455 80.28466 0.19052857 7
-147.04243 82.690277 0.025948489 9.0404997
-147.00084 82.98336 0.1917866 9.7069006
-147.15675 88.260902 0.34099552 8.1627502
-147.01067 88.5924 0.3862063 8.1586246
-146.91026 89.005219 0.33095628 8.3710003
-146.90802 89.537636 0.27641469 8.838625
-146.99821 89.677917 0.36919296 11.0315
-147.03696 64.803238 0.54201734 7
-146.9778 65.53524 0.5193392 7
-146.8233 80.623077 0.75127602 10.022
-147.15559 81.37616 0.73167849 11.067
-146.8918 81.940651 0.58814347 11.0635
-147.05702 82.213982 0.64448726 10.862551
-146.97066 88.624626 0.60209614 10.01975
-146.96863 88.926277 0.48922017 8.8881102
-147.12067 89.334206 0.6260854 9.3966665
-146.84445 89.77224 0.62091905 11.03425
-146.84286 80.620384 1.0779427 12.0335
-147.00285 81.773224 0.9306792 10.079
-147.12206 82.211899 0.85552651 11.860499
-146.82271 83.119049 0.80811894 8.0354996
-147.10374 88.281471 1.0352947 12.528325
-146.98196 88.55072 0.99742407 11.099418
-146.94719 88.848434 0.89915079 11.25725
-147.02914 89.562759 0.93279737 12.0225
-146.88272 89.941269 0.95994318 12.0355
-146.85909 80.986382 1.356423 12.027
-146.80302 81.932007 1.5698997 9.1610003
-146.8029 87.933449 1.5727344 14.024
-146.99765 88.231636 1.3664448 11.570036
-147.08107 88.450974 1.2305124 11.022124
-147.02193 89.060463 1.3393705 12.018
-147.17155 89.990646 1.5928782 9.1534996
-146.84659 78.571297 1.9518545 9.1739998
-147.14705 81.417046 1.8074168 14.552
-147.15028 81.722824 1.6521103 14.0635
-147.06282 82.672958 1.6958115 9.1619997
-147.05951 82.960487 1.7513248 12.310158
-146.91551 87.845566 1.6160152 9.1545
-146.81473 88.451691 1.7732065 14
-146.9906 89.096123 1.7618124 13.018001
-146.94199 89.306435 1.6179241 10.111167
-147.13663 78.711555 2.3791192 10.773999
-147.03394 82.999039 2.3617065 14.023
-147.04492 83.403992 2.294549 13.0175
-147.13322 88.888008 2.1284413 14.0185
-147.11424 89.239807 2.3135366 12.0125
-147.06589 78.780579 2.5683434 12.03925
-147.09698 78.963562 2.5878224 12.278656
-146.95171 79.305908 2.6872997 13.031167
-147.01508 79.8013 2.6139774 13.517
-146.95361 83.132927 2.750541 10.161
-147.07928 83.370667 2.6562135 14
-146.92113 78.257751 3.1297987 12.420917
-147.00966 78.730865 3.0233095 15.007083
-147.05731 78.975166 2.928015 12.599584
-146.96629 79.502792 2.9418497 12.05075
-146.94958 79.639328 2.8062143 11.0085
-147.15495 81.38076 3.1290617 15.0755
-147.13908 81.672295 3.1635029 10.1655
-147.08849 83.06266 2.8140221 15.023
-147.02609 83.505615 2.9501679 14.576
-146.86818 83.687531 3.0942202 15
-146.83588 87.605545 3.0930119 14.0785
-146.95735 78.669716 3.3323328 13.208
-146.99921 87.946983 3.2953594 15.0765
-147.05786 77.979446 3.8807366 15.013
-146.98979 78.221176 3.8928943 15.0125
-146.96094 78.607559 3.6576204 13.123166
-146.81909 81.948586 3.7902291 15.078
-146.98051 77.759872 4.0392089 11.167
-146.91919 78.103508 4.1841922 13.108954
-146.96411 77.876152 4.6051412 13.7285
-146.85974 78.017776 4.6622024 14.0085
-147.02254 85.394257 5.2147861 12.1595
-147.05043 79.449493 6.2384787 14.161
-146.65086 69.853912 -2.0403109 3
-146.40123 72.4963 -2.0463791 2
-146.74866 61.210575 -1.6702229 7
-146.59256 62.212822 -1.6986593 7
-146.62491 64.754196 -1.8303666 4
-146.47067 65.139847 -1.8440083 2
-146.57425 66.656479 -1.7130431 3
-146.63249 67.164474 -1.8394536 1.5
-146.60722 68.206612 -1.679046 2.3333333
-146.47549 68.897842 -1.7793882 2
-146.56667 69.318886 -1.8857206 1.4
-146.66228 70.007584 -1.6794995 3
-146.43669 74.257195 -1.8027179 2
-146.54555 74.633293 -1.822451 2
-146.79303 77.088554 -1.8026532 3
-146.64581 62.551674 -1.4402182 6.3333335
-146.61063 63.017937 -1.3232006 3
-146.54153 74.673271 -1.5963638 3
-146.64322 86.527977 -1.3962004 4
-146.41252 86.809715 -1.4408439 4
-146.56622 87.820351 -1.3737818 4
-146.50963 88.118225 -1.3953341 4.5
-146.4894 89.283028 -1.2957633 5
-146.67851 89.752457 -1.3562332 4.5
-146.54791 66.750031 -0.88620597 6
-146.56822 77.166588 -1.086413 5
-146.70807 78.040779 -0.98325551 6
-146.53891 80.830826 -0.83594006 6
-146.44196 81.990623 -0.85485047 7
-146.54463 82.555794 -1.0234079 6
-146.51192 86.135864 -0.99561882 5.8333335
-146.4594 87.045212 -1.1021963 5
-146.46486 89.361847 -1.0018114 5.6666665
-146.70648 89.793312 -1.0279419 5.75
-146.75412 61.024036 -0.45759284 6
-146.44443 65.090797 -0.44256485 7
-146.62614 66.664024 -0.62173712 6
-146.67932 74.134033 -0.6022408 6
-146.689 76.271584 -0.73877895 5
-146.7885 78.499954 -0.72048903 6
-146.42792 80.031067 -0.52933991 7
-146.75046 80.550667 -0.46552178 8.0769997
-146.63716 81.053482 -0.47450718 7.5365
-146.55511 81.396095 -0.60222429 7.0241666
-146.40009 81.753235 -0.60819614 7
-146.66913 82.187515 -0.60740685 7
-146.42288 82.6408 -0.75864255 6
-146.51593 82.903252 -0.71389204 7
-146.52853 86.209862 -0.73269933 7
-146.58275 87.524284 -0.56313062 8.0655003
-146.46019 89.007156 -0.49880108 7.9350996
-146.40768 89.362793 -0.58175522 7.3569999
-146.59006 89.691719 -0.40112096 8.0129995
-146.74028 60.838139 -0.073567636 6
-146.79681 61.258434 -0.17616329 7
-146.50233 65.114647 -0.27791384 5.8333335
-146.6752 65.424095 -0.27441534 5.2727275
-146.70052 65.762848 -0.13767861 5.5
-146.6194 66.244415 -0.26052061 5.5
-146.6582 76.132774 -0.25253376 7.0052142
-146.55397 78.226318 -0.21833822 8.0583334
-146.56248 81.406998 -0.32176709 8.0567503
-146.59094 81.612297 -0.29119074 8.0525007
-146.47012 82.263039 -0.1713749 8.7001791
-146.62271 82.441467 -0.079508387 8.8444004
-146.45207 83.305756 -0.088679083 7.5082502
-146.48466 86.299835 -0.22037911 7.6117005
-146.55197 86.906631 -0.27001795 8.0240002
-146.59201 88.125374 -0.2063992 8.4249992
-146.4604 88.639893 -0.16819344 8.5787916
-146.50653 89.043289 -0.19345243 8.0109501
-146.59729 89.432564 -0.20723572 9.0249786
-146.65816 89.721779 -0.12373464 9.3706665
-146.66187 64.626953 0.060314514 6
-146.66873 65.128128 0.12014116 6
-146.68925 65.300293 0.20103766 7.3705001
-146.5385 65.954842 0.058080889 6
-146.56767 66.151901 0.092229538 6
-146.45482 66.557312 0.24706294 8.06425
-146.61334 75.819435 0.12922849 7.3425002
-146.71805 76.116615 0.051554732 7.3445001
-146.71284 76.457329 0.10399663 7
-146.63087 77.469322 0.16249546 9.0648336
-146.53625 80.596863 0.14044897 8.0166245
-146.57008 80.949707 0.21471137 9.5387497
-146.54208 81.588928 0.32201132 10.0725
-146.64081 81.884674 0.33950952 10.0385
-146.54106 82.521973 0.099372804 9.8032494
-146.71138 82.988678 0.28884339 10.072
-146.41751 83.567085 0.38473338 11.043
-146.4393 88.275978 0.062882289 10.546249
-146.59189 88.621361 0.16934983 10.18075
-146.57939 89.01075 0.27338222 8.9700975
-146.53961 89.391563 0.23234062 10.685
-146.49741 89.706116 0.2799519 10.316604
-146.66722 65.047752 0.51666033 7
-146.67682 65.288399 0.51068676 7
-146.40416 76.924011 0.79564571 11.0555
-146.54689 77.399467 0.46824044 10.049167
-146.70949 80.124069 0.64256012 8.0872498
-146.59718 80.457573 0.60132009 9.6868334
-146.40833 81.553146 0.67371428 11.032
-146.45964 83.408691 0.47036538 11.064
-146.67123 88.707977 0.51729494 10.018
-146.62259 89.041351 0.5774985 9.5786161
-146.58208 89.381882 0.60523325 9.6494493
-146.58984 89.823669 0.53528816 12.674937
-146.51791 79.935066 0.90256304 12.0595
-146.4614 80.247711 0.99886847 12.0315
-146.72957 80.714493 1.1288157 12.0295
-146.60785 80.996819 1.0334572 11.023875
-146.54604 82.603493 1.0417837 12.06625
-146.44472 83.016747 1.0092907 13.549625
-146.46928 88.205429 1.1785234 12.01875
-146.47392 88.608719 1.0654033 10.43784
-146.69984 89.078323 1.0735377 10.814799
-146.46016 89.391357 1.0923269 11.413334
-146.46069 89.728928 1.0157508 12.785126
-146.47679 78.32077 1.4296436 9.1684999
-146.42694 78.813782 1.4614248 10.5975
-146.57346 80.22538 1.2711208 12.0285
-146.64255 80.669472 1.3796295 12.5285
-146.6497 81.052467 1.4759262 13.0385
-146.65132 81.506378 1.3708775 13.5555
-146.60262 81.789871 1.500105 12.5525
-146.51073 82.156876 1.4963608 11.597
-146.51199 82.654526 1.453797 14.311438
-146.78352 82.829247 1.3847995 13.06375
-146.71764 87.852966 1.5431579 9.1551666
-146.59656 88.270905 1.493565 11.277307
-146.52246 88.527008 1.4364903 11.195139
-146.78067 89.175545 1.3871731 12.016
-146.59175 89.447212 1.5130681 11.219584
-146.43448 89.647446 1.5235169 11.013
-146.41646 78.813347 1.9147781 13.02
-146.54295 79.860817 1.9396833 14.0295
-146.48743 81.334335 1.9768343 14.073
-146.53508 81.852959 1.752956 9.8584995
-146.62155 82.038239 1.7292211 14.399834
-146.73697 82.56076 1.6737577 12.077
-146.66635 83.884155 1.9702924 13.076
-146.70377 87.969902 1.6768918 13.687833
-146.58893 88.204674 1.7672 12.727214
-146.46216 88.558784 1.6904504 12.3595
-146.5481 89.338791 1.8043963 11.361139
-146.4706 89.661377 1.7923845 12.57775
-146.75137 79.767731 2.2709382 13.0135
-146.60692 80.088707 2.224241 15.068
-146.51932 81.585236 2.196718 15.027
-146.47372 81.687576 2.0677087 12.51725
-146.47534 82.308395 2.1696496 14.0235
-146.61301 83.929123 2.1166201 14.07375
-146.56012 89.382317 2.1203485 12.761063
-146.70401 79.550285 2.5721085 13.365001
-146.69737 79.727081 2.6396337 12.4108
-146.70689 80.167923 2.685761 11.0095
-146.41167 83.04126 2.629986 10.16
-146.43532 83.810997 2.4663961 14.0765
-146.71046 78.623657 3.0983026 12.483357
-146.43207 79.831871 2.8613548 13.0095
-146.58612 83.424652 2.9688478 14.724
-146.67615 78.65377 3.3530231 13.006625
-146.64928 83.084427 3.48031 15.0775
-146.78947 85.601547 3.5365095 10.1675
-146.42632 86.222343 3.4912286 10.1675
-146.52272 86.417023 3.5141284 10.167
-146.56165 86.950378 3.5862815 10.166
-146.4969 78.125885 3.8519216 13.112166
-146.7605 78.49511 3.6110568 14.0115
-146.61017 77.970695 4.2015429 12.7785
-146.56023 78.165581 4.1558132 13.441751
-146.72697 87.037827 4.1803493 11.159
-146.51497 87.330788 4.3138885 11.16
-146.79669 77.896225 4.522296 13.1695
-146.72787 78.296524 4.5671511 13.5895
-146.58698 83.160889 4.6935053 11.1655
-146.72325 85.743378 4.7061806 11.16375
-146.43761 86.116081 5.0664148 12.158
-146.48193 77.715996 5.4354701 14.164
-146.50929 77.960953 5.8613253 13.6635
-146.69061 77.947647 6.0989509 15.1695
-146.44034 87.288261 6.6884217 12.165
-146.57104 89.242317 6.4146137 14.1775
-146.04239 69.714737 -2.0168126 1
-146.05974 70.327599 -2.0285525 1
-146.38214 73.098732 -2.0940762 5
-146.22772 74.608566 -2.0268538 2
-146.20828 75.670906 -2.0535932 2
-146.2816 62.088093 -1.6498963 2
-146.02299 67.317032 -1.6119448 3
-146.33527 67.714615 -1.6582414 2.5
-146.22195 68.310577 -1.7713101 1.75
-146.18208 68.607208 -1.6172698 3
-146.13794 70.474152 -1.8682275 2
-146.23006 70.870377 -1.8829899 2
-146.30052 71.47699 -1.8234843 2.3333333
-146.02283 71.820877 -1.8658339 2
-146.30179 72.233917 -1.9473203 2
-146.17023 72.578247 -1.8285943 2
-146.14862 72.988678 -1.7755277 2
-146.20395 73.488617 -1.7926412 2
-146.2998 73.843475 -1.7794037 2
-146.30983 74.273003 -1.7964202 2
-146.3073 74.655594 -1.8517306 2
-146.35844 75.181679 -1.8385733 2
-146.28731 75.627403 -1.8492601 2
-146.10323 77.234558 -1.8356023 3
-146.18774 60.135494 -1.3065999 3
-146.16963 60.675175 -1.2162458 4
-146.10258 60.963024 -1.2547386 4.25
-146.16467 61.762356 -1.2869663 3.5
-146.23013 68.282867 -1.5055398 3
-146.23451 75.827904 -1.3100791 4
-146.33965 86.645439 -1.2980807 4.6666665
-146.26671 88.561905 -1.5315427 5
-146.21248 89.036812 -1.2836604 5
-146.27621 89.884979 -1.2393671 5
-146.35394 60.0989 -0.96844852 4
-146.14581 60.712566 -1.0697063 6
-146.30386 60.982029 -0.93685138 5.3333335
-146.13802 61.222725 -0.91099828 4
-146.12361 65.857246 -1.1112748 4
-146.38573 66.769867 -0.92611545 5
-146.12366 66.898102 -1.0280554 5.25
-146.03493 75.924164 -1.0861005 4
-146.2448 80.770332 -0.87797844 6
-146.26831 81.229347 -0.87141776 6
-146.34084 82.289597 -0.90839839 6
-146.18773 82.472687 -0.93850666 6
-146.03163 86.247025 -0.95759118 5.5
-146.32193 87.199516 -1.0964799 5
-146.26926 87.833672 -1.0925488 5.3333335
-146.22989 88.17131 -1.0873586 5.5
-146.01863 88.724564 -1.1772573 5
-146.10225 89.074333 -0.97447926 6
-146.27875 89.361397 -1.1027822 5.3333335
-146.38612 89.851013 -1.170992 5
-146.06978 60.59095 -0.42936602 5.6666665
-146.20409 60.943291 -0.41072038 5
-146.10916 64.792709 -0.43391523 5
-146.11867 65.05159 -0.73009747 4
-146.37437 66.607239 -0.49492985 7
-146.07532 66.844902 -0.60274845 6.25
-146.28099 76.216805 -0.42375898 6
-146.13107 78.234879 -0.55512124 6.8000002
-146.26744 80.691254 -0.541619 7
-146.07309 81.469994 -0.5191111 7
-146.11444 81.65963 -0.4770425 7
-146.11497 82.333168 -0.61470979 6.5
-146.30931 82.508179 -0.75584126 6
-146.11884 83.153893 -0.46122494 8.0684996
-146.1508 86.171402 -0.5424456 7.5230627
-146.19415 87.068901 -0.76553559 7
-146.07664 87.881561 -0.54789925 8.0535002
-146.2215 89.849632 -0.6813575 7.3551669
-146.16917 60.253109 -0.10562155 6
-146.17508 60.618225 -0.227265 5.6666665
-146.24216 60.916523 -0.2949129 5.8333335
-146.3752 64.607346 -0.05924822 6
-146.06349 66.053879 -0.18664224 6
-146.18076 66.536301 -0.20681153 6.5
-146.1936 66.922089 -0.23891991 6
-146.13274 75.855141 -0.39559186 7
-146.17947 76.04808 -0.033103094 7
-146.20647 78.196152 -0.2422006 8.0619993
-146.36528 80.656776 -0.18602021 8.0349998
-146.06772 80.938911 -0.12792924 8.7226667
-146.33194 81.303741 -0.33119732 8.0594997
-146.13237 81.812759 -0.24393637 8.3094997
-146.22552 82.244118 -0.081530102 9.0601006
-146.14323 83.096153 -0.22234392 8.3274374
-146.11324 83.433472 -0.18272439 8.6522846
-146.14273 83.667305 -0.19914731 8.6518221
-146.19278 86.258476 -0.29210615 7.849875
-146.12473 86.631874 -0.21497533 8.0214996
-146.10228 86.949577 -0.2221725 8.3885679
-146.14977 87.25724 -0.17399015 9.3081245
-146.22276 88.288086 -0.02619634 10.067
-146.28035 88.643394 -0.088788927 9.5446882
-146.28683 88.985596 -0.16263694 8.4792891
-146.26633 89.394073 -0.14372498 8.3911247
-146.31337 89.765167 -0.14717332 9.4873333
-146.19891 60.256256 0.028784102 6
-146.2242 60.606159 0.097849011 6.25
-146.14342 65.473015 0.081512213 6
-146.20116 65.656563 0.062965736 6
-146.12973 66.161301 0.22052401 7.7670355
-146.31718 66.522934 0.19723573 7.5443754
-146.10797 75.518616 0.22348537 8.2748756
-146.19847 75.802788 0.13524988 7.6808333
-146.16023 77.408524 0.36786091 9.9241867
-146.20728 77.900818 0.24301936 9.5617504
-146.10265 80.345284 0.1893996 8.9021883
-146.21149 80.571259 0.31634107 9.5397491
-146.19354 81.313263 0.21357955 9.8787918
-146.29839 81.750999 0.30251125 10.039
-146.13109 82.164902 0.29567495 10.460792
-146.23668 82.437897 0.27700308 10.556126
-146.06447 83.042313 0.20343596 9.7345829
-146.09787 83.415741 0.18383668 10.177422
-146.24921 83.656105 0.26513225 10.6
-146.13727 87.00766 0.18568143 9.701333
-146.38705 88.207115 0.1216765 9.0185003
-146.342 88.644341 0.22273858 8.5882502
-146.20561 89.03392 0.19854061 10.344467
-146.24849 89.373634 0.23795806 10.808249
-146.18713 89.811195 0.16269103 9.7659664
-146.04117 75.503029 0.41844839 8.7784996
-146.13617 75.818054 0.71970326 8.0863752
-146.09872 76.955948 0.47049099 10.064125
-146.14088 77.311172 0.44617555 10.054214
-146.1749 77.818108 0.41966397 10.040501
-146.09099 80.268883 0.50428873 10.2726
-146.22499 80.509392 0.53614247 8.7332497
-146.19 80.953545 0.62726533 10.074417
-146.1386 81.369827 0.63239813 10.57125
-146.08493 81.868317 0.65470761 11.34905
-146.21182 82.262321 0.61306936 11.435455
-146.24704 82.464455 0.56213182 11.0695
-146.11551 83.006638 0.60228264 10.585999
-146.10797 83.464165 0.51745623 11.474583
-146.06169 83.666519 0.53460079 11.498233
-146.16516 86.756119 0.51461029 8.1545
-146.07588 88.655823 0.57573152 9.3788128
-146.08011 88.916519 0.59949225 9.8549995
-146.25835 89.380142 0.58029711 10.306892
-146.26247 89.783241 0.6220113 12.511198
-146.04172 79.537674 0.98030412 11.892417
-146.05283 79.80851 1.0193734 12.1995
-146.20032 80.185326 0.98133928 12.045801
-146.13127 80.526825 0.98830771 12.377833
-146.15952 81.031288 0.95355487 12.388667
-146.2345 81.383263 0.97785896 11.710667
-146.14323 81.836388 1.0147064 12.55975
-146.21071 82.195183 1.0332493 12.604957
-146.16824 82.601959 1.0002857 13.051272
-146.15298 82.974953 1.059884 13.586615
-146.11131 84.219475 0.94542062 13.06275
-146.3542 88.362221 1.1288046 14.533751
-146.24205 88.605011 1.0549268 12.42997
-146.11731 88.958633 1.0220011 11.968516
-146.25755 89.450768 1.0037756 12.942151
-146.14903 89.719742 0.96224624 12.324072
-146.07309 77.724342 1.3403105 9.1794996
-146.18604 78.255417 1.4730562 9.631999
-146.15248 78.547691 1.3564484 10.16225
-146.15605 78.905838 1.3867357 10.765
-146.12746 79.424675 1.2986821 11.689499
-146.13249 79.734077 1.4358979 12.368857
-146.13045 80.176292 1.4220604 13.797063
-146.07492 80.661781 1.4174813 11.2501
-146.0639 80.920639 1.3758842 10.480749
-146.1922 81.949585 1.4254817 12.39055
-146.18987 82.168999 1.4013757 12.225715
-146.18155 82.702698 1.2638607 13.5655
-146.18626 83.117607 1.2369211 11.0165
-146.28181 88.373047 1.5104481 11.51225
-146.23714 88.610756 1.3882101 11.923978
-146.1906 89.063843 1.3727627 9.5792503
-146.21748 89.383316 1.4143486 11.150777
-146.29015 89.680916 1.5144093 12.060625
-146.13469 78.554436 1.7610955 12.914695
-146.19092 79.096252 1.8268774 11.790125
-146.20703 79.309357 1.8740383 13.784375
-146.104 79.751404 1.7213571 15.04325
-146.1893 80.124336 1.7591319 12.519751
-146.01662 80.500679 1.8622134 11.0075
-146.06947 80.922867 1.7563926 13.0225
-146.28812 81.56324 1.7670394 9.1678333
-146.28165 81.796219 1.7501057 10.747928
-146.22139 82.217102 1.749475 9.1653748
-146.10016 83.422142 1.8532804 13.709167
-146.32878 83.864197 1.7778907 11.119125
-146.30582 84.074844 1.9033037 13.0765
-146.3774 88.251976 1.6207945 13.017
-146.29115 88.519806 1.6776251 12.5
-146.28601 89.439125 1.6643033 11.511001
-146.37627 89.676544 1.7031627 11.082
-146.12239 78.30098 2.0338893 10.179
-146.3114 78.684189 2.0106301 10.005
-146.28055 79.054779 2.0468554 10.005
-146.17671 79.270889 2.2354615 10.62475
-146.24506 79.762199 2.167887 14.369667
-146.14584 80.108734 2.0605593 10.007
-146.37389 80.652664 2.2400494 15.07
-146.0127 82.541641 2.1821332 10.175
-146.20459 82.934013 2.2271974 12.5125
-146.05733 83.244705 2.2173417 10.1745
-146.18962 83.770233 2.2513614 11.7515
-146.14995 84.058022 2.2592199 10.727
-146.01857 78.646645 2.7037232 13.0105
-146.01909 79.384247 2.6661327 11.004
-146.01987 79.812431 2.5439727 11.009
-146.18063 80.766586 2.4517293 14.077
-146.11589 82.500351 2.5002897 14.52
-146.0975 88.761215 2.4971132 10.1675
-146.04294 88.859604 2.4743285 10.171
-146.35266 89.657539 2.4127996 12.0095
-146.38676 83.027199 2.8655117 14.0125
-146.19339 83.212906 3.0681148 15.0165
-146.39665 78.523972 3.4209154 12.0025
-146.05547 78.888512 3.5073884 15.012
-146.26854 79.396942 3.3033695 14.544001
-146.06612 83.479576 3.4919274 10.169
-146.14868 83.873566 3.4660833 15.0785
-146.20692 84.240509 3.4995902 10.16875
-146.15855 84.604111 3.5042202 11.127874
-146.19012 84.895851 3.489254 13.003
-146.38858 85.374466 3.5258257 14.0055
-146.26469 85.751122 3.5213511 10.1115
-146.04912 86.194321 3.51737 10.084
-146.19446 86.642746 3.5169587 10.16675
-146.20001 77.844009 3.8589058 12
-146.16034 78.130859 3.854646 14.7615
-146.29883 78.66716 3.94874 13.51
-146.28221 84.890358 3.7015896 15.01
-146.06638 87.759254 3.988822 11.1575
-146.18564 77.470894 4.1752162 10.671249
-146.23425 77.961555 4.1629457 10.1745
-146.25671 78.147972 4.2187676 12.843249
-146.19423 86.562744 4.2964664 11.161
-146.1479 87.351288 4.3262415 11.1605
-146.25233 88.269958 4.1789327 11.158
-146.144 77.58815 4.752984 14
-146.14934 77.747505 4.5795898 13.724332
-146.13892 78.153618 4.4668984 12.901199
-146.22949 78.55423 4.7361584 9.0349998
-146.0013 84.582985 4.4884481 11.164
-146.11302 85.767464 4.6309104 12.1555
-146.27802 86.384804 4.5816598 11.1625
-146.18666 86.494011 4.4343724 11.1615
-146.23796 87.197792 4.6093383 11.1625
-146.11513 77.872589 4.9757142 11.502999
-146.15134 78.129883 5.0258856 12.664001
-146.11238 83.645218 5.1055479 12.161
-146.16119 85.43045 5.0706553 12.159
-146.09216 86.016167 4.8053856 12.1565
-146.04448 86.882401 5.1559095 12.158
-146.21765 77.817802 5.4511361 13.680182
-146.07689 78.158424 5.4263635 13.834785
-146.34789 78.69873 5.5560303 15.0025
-146.1671 78.990105 5.5560389 15.002
-146.21219 86.976105 5.5211005 12.871
-146.22394 77.53302 5.6224332 15.1765
-146.08333 77.718407 5.6601901 14.499667
-146.05962 78.195847 5.6820278 13.3638
-146.07982 78.585915 5.8196712 13.828667
-146.04993 86.294601 5.6756091 13.1545
-146.05774 87.199127 5.7120066 13.1545
-146.14206 77.794006 6.0108552 14.1625
-146.07092 78.296478 6.1044979 15.08275
-146.14391 88.066704 6.0826159 12.1615
-146.03964 80.660286 6.8517389 15.1585
-146.37384 86.348015 7.192059 14.1565
-146.02449 85.937454 7.3617001 14.158
-146.00227 89.771698 7.9359512 13.1615
-146.14227 89.644272 8.3558903 13.163
-146.10263 89.55883 8.402503 14.158
-146.01175 89.75592 8.5148573 14.1585
-146.06358 89.350159 9.1203489 15.156
-145.9619 68.03952 -2.0902157 5
-145.98299 72.092575 -2.106513 5
-145.60718 64.394409 -1.8051889 4
-145.80125 65.31636 -1.7439554 4
-145.77065 65.821014 -1.8896083 4
-145.80928 67.119568 -1.6301873 2.5
-145.71634 67.548309 -1.881366 1
-145.72287 68.175682 -1.6937842 2.5
-145.73372 68.532356 -1.9703085 1
-145.8549 68.952072 -1.984917 1
-145.81886 69.364685 -1.9059974 1.5
-145.90398 69.706711 -1.8399173 2
-145.8028 70.200867 -1.7856526 2
-145.75522 70.738228 -1.7357075 2
-145.87846 71.245705 -1.7462018 2
-145.85321 71.800774 -1.7289524 2
-145.95328 72.389046 -1.722664 2
-145.98595 72.506798 -1.7319541 2
-145.94215 72.887962 -1.7489345 2
-145.77301 73.451698 -1.7884634 4
-145.71431 76.504951 -1.9422225 2
-145.7242 76.81781 -1.8766633 2
-145.74574 86.066566 -1.6220776 7
-145.77463 60.237034 -1.3441521 3.25
-145.97392 60.90099 -1.2448266 3
-145.70139 63.886257 -1.3130314 3
-145.98474 64.853966 -1.4526281 4
-145.68967 65.740807 -1.5025105 4
-145.73798 66.17157 -1.5694524 2
-145.64183 67.808472 -1.5955945 3
-145.9489 76.176781 -1.3019887 4
-145.82547 77.777283 -1.3959702 4
-145.76421 79.871323 -1.4654305 7
-145.65692 87.710564 -1.2876967 4
-145.9994 61.591766 -1.0099183 4
-145.63954 63.134087 -1.1702495 3
-145.92644 65.347862 -1.0806698 4
-145.72176 66.948639 -0.89235252 5.6666665
-145.70349 72.142639 -0.88245356 4
-145.94965 72.65966 -0.91333109 4
-145.79504 75.926895 -0.99696898 4.5
-145.83528 80.614807 -0.81615716 6
-145.88326 80.951843 -0.92061371 7
-145.69574 81.425339 -0.84914517 6
-145.73596 81.661125 -0.86112326 6.5
-145.72728 82.259468 -0.94597691 5.5
-145.79274 82.486015 -0.88909894 7
-145.68602 82.966118 -1.0653319 5
-145.89659 85.905563 -1.0157813 5.5
-145.82671 86.151848 -0.92247719 6
-145.85834 86.66082 -1.1260952 5
-145.64827 86.913284 -0.84969431 7
-145.86311 87.484993 -0.93964112 6.5
-145.77075 87.820892 -1.0175183 6
-145.90132 88.063683 -0.9036805 6
-145.89433 88.641045 -1.0450798 5.5
-145.82901 88.90799 -1.006444 5.6538463
-145.7159 89.471893 -1.0965694 5.25
-145.63824 89.810371 -0.90879172 6
-145.86438 60.198486 -0.67364514 6
-145.64377 63.105381 -0.74221951 4.5
-145.77036 66.938721 -0.57231879 5.4000001
-145.67354 72.546936 -0.56794417 5
-145.79362 72.807495 -0.57850945 5
-145.67958 75.783669 -0.5054813 6.3333335
-145.75923 77.848175 -0.4905653 7
-145.76689 78.184143 -0.51015228 7.1957498
-145.71562 80.070175 -0.56509817 7.4693999
-145.76819 80.600266 -0.56211132 7.3591666
-145.76779 81.109886 -0.64006037 6.6666665
-145.72917 81.329582 -0.58636004 7.1854167
-145.78058 81.865799 -0.60369968 6.8147001
-145.84497 82.186577 -0.64443618 6.8673215
-145.80928 86.252869 -0.65946984 7.1509285
-145.75264 86.609901 -0.4728471 7.5206876
-145.61717 87.00515 -0.44873589 7.51825
-145.86075 87.303917 -0.5054639 8.0510006
-145.85677 87.811203 -0.63023257 7.4702778
-145.92155 88.080223 -0.65975255 7
-145.75929 88.602226 -0.65316111 7.3052144
-145.75093 88.884422 -0.60144669 7.4000001
-145.91628 89.769951 -0.68741637 7
-145.75641 65.392036 -0.26629165 5.3333335
-145.63953 72.230881 -0.24142882 6
-145.77686 75.51973 -0.093680687 7
-145.75725 75.773422 -0.26252243 6.7881427
-145.79617 76.194397 -0.056809701 7
-145.7343 77.694946 -0.39126283 8.0799999
-145.83122 78.18779 -0.19258708 8.1074648
-145.6465 79.792313 -0.12684673 8.4068127
-145.77504 80.175789 -0.085203022 8.6265936
-145.72551 80.569946 -0.087803714 8.7181311
-145.74272 81.008224 -0.1801232 8.1576872
-145.735 81.364372 -0.1864756 8.3070478
-145.73683 81.858849 -0.24408293 8.2979374
-145.7735 82.204216 -0.10322189 8.9111786
-145.66817 82.520813 -0.10717309 9.0548754
-145.86815 83.027412 -0.14254647 8.8431463
-145.87355 83.380356 -0.14710362 8.6758585
-145.8316 83.64576 -0.11214747 8.5032501
-145.62981 84.108536 -0.14000303 8.1684999
-145.84074 86.245232 -0.2933301 8.298317
-145.76788 86.590363 -0.2407517 8.1851244
-145.82956 87.068291 -0.23388532 8.4326744
-145.80258 87.268616 -0.19525613 8.447196
-145.6877 88.927475 -0.18937077 8.2737503
-145.71312 89.791245 -0.13440463 10.246
-145.86731 65.451401 0.27356866 8.0684996
-145.89278 65.677284 0.19121547 7.4367499
-145.79672 75.521523 0.17539033 8.3580837
-145.74306 75.782166 0.17042476 7.9978442
-145.91278 76.197815 0.070567422 7
-145.67685 76.576683 0.2885471 9.0815001
-145.64902 77.058708 0.38476831 10.016334
-145.76437 77.434067 0.11901373 9.0714998
-145.80608 77.789955 0.14453398 9.2501001
-145.84752 78.222343 0.12255795 8.6121883
-145.67084 79.009933 0.28652507 10.057
-145.6665 79.860901 0.1514461 8.6579447
-145.73218 80.138618 0.211051 9.5098763
-145.83185 80.545189 0.22744063 9.8713741
-145.75214 81.00209 0.25602505 9.5302753
-145.75679 81.375557 0.2146534 9.9513836
-145.65459 81.799072 0.21573414 10.185947
-145.80777 82.213486 0.28069517 9.8094587
-145.67532 82.602203 0.26882148 10.047746
-145.84529 82.983818 0.20954922 10.260419
-145.8876 83.36412 0.21088684 10.077286
-145.83603 83.714012 0.3115083 8.732667
-145.84814 86.715752 0.099483415 9.6420336
-145.87752 87.010254 0.20030977 9.6794958
-145.89676 87.282005 0.22242668 9.9190006
-145.71675 88.591179 0.23805061 10.57377
-145.73259 88.943001 0.27955803 10.796572
-145.69264 89.555527 0.19931731 11.709708
-145.74385 89.804543 0.1897973 11.176857
-145.73872 75.769997 0.62366307 8.2613192
-145.71666 76.037109 0.70880079 9.0165005
-145.67723 76.596703 0.65837407 10.727417
-145.68726 77.021278 0.5952974 9.9001999
-145.84203 77.34552 0.63797659 9.7654991
-145.66951 77.815422 0.69733053 10.902642
-145.84164 78.020348 0.75380075 8.5109997
-145.7021 78.715027 0.61295056 8.7364998
-145.6566 78.862915 0.61785066 10.022751
-145.74789 80.230835 0.54100478 9.9031229
-145.82414 80.610863 0.55241096 10.473572
-145.79082 81.016998 0.5877707 10.238905
-145.72609 81.357307 0.58806938 10.520438
-145.77792 81.804459 0.58561617 11.092596
-145.78404 82.136864 0.55265594 10.181412
-145.68721 82.636879 0.50036854 10.708167
-145.86548 83.042038 0.49916983 11.520316
-145.88737 83.40731 0.52157748 11.232197
-145.78732 83.832985 0.5880003 10.490318
-145.74786 84.05455 0.71627903 12.039875
-145.94115 86.770615 0.53585017 10.7675
-145.90378 86.970589 0.45491448 10.034357
-145.78864 88.674377 0.52357334 9.617732
-145.8412 89.009003 0.54862708 10.301963
-145.75087 89.382652 0.67981017 12.0333
-145.83148 89.878761 0.52828288 13.0605
-145.65903 76.957764 0.96059722 11.891938
-145.78687 77.826309 0.99069268 10.82505
-145.79124 78.13932 1.0247077 11.884542
-145.93573 79.178116 1.1568298 12.071
-145.84602 79.391617 1.0222291 12.44875
-145.89334 79.7649 1.0847363 11.886322
-145.85948 80.158981 1.0299095 12.2572
-145.83395 80.662201 0.99765843 12.226524
-145.75862 81.013649 0.97732949 12.241026
-145.7516 81.33387 0.98211026 12.982278
-145.79352 81.833992 0.94075108 12.244567
-145.80112 82.21254 0.98986846 12.418537
-145.78499 82.496407 1.0288408 13.137362
-145.89388 83.023346 1.0410787 12.795375
-145.72696 83.526711 0.8686437 13.284523
-145.71657 83.762756 1.0182085 13.008158
-145.82309 84.156609 1.0565459 12.864725
-145.73238 84.54113 0.80109245 13.0625
-145.88037 88.749908 0.99118072 12.52025
-145.8083 89.016579 1.0098964 11.866166
-145.7821 89.413315 0.95447707 11.017625
-145.80009 89.979836 0.84908527 14.297625
-145.79498 77.850815 1.2913244 9.803875
-145.8739 78.32547 1.4273267 11.071438
-145.84599 78.529068 1.3963099 10.876332
-145.70152 78.858803 1.5643356 13.072
-145.91415 79.744766 1.4334123 13.597967
-145.79242 80.188667 1.3808999 13.214771
-145.81726 80.644997 1.3670212 12.399257
-145.75362 81.009224 1.3593347 12.442082
-145.70744 81.381866 1.2992406 11.6205
-145.70256 81.702148 1.3615465 14.549749
-145.73354 82.19487 1.4155366 14.635
-145.83669 82.6362 1.4148582 12.095
-145.75638 82.949409 1.2424343 14.5595
-145.67111 83.882942 1.2540209 15.018666
-145.61893 84.873192 1.430938 12.078
-145.67557 85.653046 1.5047699 9.1584997
-145.70653 88.481415 1.4917195 9.1549997
-145.84334 88.935532 1.4794465 9.1752501
-145.77817 89.312752 1.446154 11.565792
-145.82567 78.342308 1.6869862 9.838625
-145.92305 78.536201 1.7848053 11.683
-145.778 79.05439 1.837563 12.611428
-145.81631 79.20327 1.8907864 10.0095
-145.83459 79.72467 1.7668182 14.81375
-145.65298 80.269241 1.9020768 10.00775
-145.80768 80.587158 1.8005415 13.782811
-145.79138 80.959694 1.6361593 12.76975
-145.86092 82.353043 1.7394661 9.1645002
-145.70236 82.506378 1.7975425 9.9464998
-145.86613 83.013008 1.7952417 10.8735
-145.76768 83.431747 1.7181544 11.59525
-145.76173 83.772156 1.8066595 12.09375
-145.8671 84.721191 1.6049486 12.0785
-145.65948 84.932999 1.6909106 13.077
-145.70949 88.510468 1.6534194 11.112334
-145.72049 89.066498 1.7963694 10.644273
-145.7401 89.313766 1.689271 11.0971
-145.9303 78.582138 2.0137594 14.27625
-145.87009 78.926941 2.0392423 10.17625
-145.79037 79.467796 2.1786175 14.218585
-145.82175 79.750397 2.153966 12.54425
-145.81728 80.602577 2.1503966 13.078334
-145.63734 82.358154 2.2655926 12.117001
-145.80936 82.569565 2.2671716 13.5155
-145.67204 82.932678 2.150028 11.806999
-145.7972 83.411766 2.039104 11.362167
-145.77835 83.812309 2.1854007 11.0567
-145.80325 84.132339 2.0977302 15.074
-145.75017 88.928612 2.3200917 12.408299
-145.72969 89.260178 2.2853034 12.54
-145.99667 78.703499 2.6368721 15.0735
-145.79285 80.89946 2.4477293 13.57825
-145.67332 82.547089 2.4194584 14.519125
-145.66447 82.888451 2.7240691 14.0115
-145.68439 83.28981 2.5406632 11.0045
-145.77335 88.99588 2.5541191 11.867
-145.88571 77.421745 3.5040894 10.172
-145.69464 77.863121 3.4214106 10.171666
-145.97815 78.032471 3.3914886 9.1754999
-145.79134 81.790062 3.478255 10.17
-145.71858 82.054329 3.5534306 14.0055
-145.65709 83.082542 3.3277674 13.004
-145.94023 77.822144 3.8604221 12.0805
-145.91083 78.112572 3.9687331 13.0025
-145.81779 83.10585 3.6623783 12.0005
-145.96692 83.666313 3.8722529 14.004
-145.80954 77.824203 4.2017732 12.304386
-145.78122 78.076263 4.1722484 12.3054
-145.95845 83.567215 4.0812869 14.004
-145.78722 83.988785 4.1291146 11.1625
-145.94427 84.091362 4.3319836 13.0045
-145.82944 84.479622 4.0875978 11.1615
-145.86382 86.569443 4.153645 11.1595
-145.74782 86.986023 4.3933492 11.161
-145.86729 77.479439 4.6347828 13.877999
-145.78723 77.760269 4.6305795 13.458843
-145.82855 78.159721 4.5989366 13.264001
-145.96652 84.56913 4.4711885 11.1635
-145.96223 84.829597 4.4133887 11.163
-145.91617 86.158188 4.527401 11.163
-145.97874 86.429031 4.4781117 11.162
-145.62373 86.93956 4.7335563 12.155
-145.90927 87.206749 4.5006351 11.1615
-145.86484 87.841049 4.6077466 11.7575
-145.65353 88.261017 4.6963015 12.1535
-145.66154 77.733498 4.857007 15.0095
-145.80492 78.183357 5.0957108 12.226889
-145.89449 84.945946 4.8644495 11.827332
-145.8425 85.305473 4.9460483 11.166333
-145.78485 85.627029 5.0237303 11.662251
-145.9304 86.388695 5.0821447 14.0025
-145.91074 86.727623 5.1049838 11.496167
-145.76064 87.048424 4.9993567 11.561999
-145.75153 87.408958 5.0825005 12.157001
-145.70377 87.903137 4.8546267 12.154667
-145.92009 77.801697 5.4038043 13.721166
-145.86194 78.198265 5.3956485 13.5675
-145.66371 79.011467 5.4856906 13.163
-145.79967 79.361961 5.5640092 14.160666
-145.71005 79.657211 5.494431 14.1615
-145.87318 87.011261 5.2505999 13.1685
-145.65015 88.461624 5.4133272 13.1675
-145.98734 78.188232 5.7873859 14.4995
-145.84184 78.67765 5.9833727 15.168
-145.71768 78.885063 5.7990675 14.44
-145.95586 80.021034 5.8117738 15.1775
-145.65973 82.220749 5.6820164 12.165
-145.78624 86.581642 5.9410114 13.156
-145.97006 88.04274 5.6575518 13.158
-145.96684 78.192177 6.0620952 14.107999
-145.76418 88.476967 6.2509327 15.001
-145.86241 86.499542 6.5058908 13.159
-145.96539 88.204163 6.446949 14.168
-145.65416 85.502335 6.9804482 13.162
-145.82167 86.567406 7.0986075 12.167
-145.91426 86.170197 7.4270687 13.163
-145.70345 86.77877 7.2648711 12.1675
-145.77577 87.047401 7.3968372 13.162
-145.63278 85.124771 7.7650132 14.1605
-145.87436 86.307388 7.8322911 15.1545
-145.73683 86.745476 7.97541 14.1595
-145.75771 86.820793 7.7443628 13.16325
-145.68071 86.488838 8.2220364 14.658501
-145.65834 87.142883 8.1908588 15.155
-145.79396 87.313904 8.112299 15.1545
-145.86644 89.692276 8.138073 13.162251
-145.78972 88.225708 8.4875383 14.657499
-145.65601 89.849831 8.6369419 14.822
-145.66418 89.78804 8.8137474 14.1595
-145.32947 69.648804 -2.0702069 3
-145.5538 73.507828 -2.0040996 2
-145.59848 76.707672 -2.1097319 2
-145.22969 64.270599 -1.7973359 4
-145.33723 66.112823 -1.8120309 1
-145.34084 66.719925 -1.8229451 1
-145.20578 68.546616 -1.6980603 2.5
-145.50229 68.920654 -1.7976569 2
-145.35397 69.556023 -1.8591385 1
-145.33224 69.783936 -1.7010517 2
-145.4115 70.170097 -1.8040739 1.25
-145.35204 70.546654 -1.7530644 1.5
-145.42003 70.955231 -1.7883414 1
-145.44791 71.411179 -1.797189 1
-145.51157 72.267242 -1.6815419 3
-145.36363 73.354263 -1.8662519 4
-145.3154 75.509361 -1.8683497 1
-145.54126 89.828125 -1.6064922 3
-145.27477 62.943653 -1.4697255 3
-145.39853 63.421963 -1.2676549 3.3333333
-145.26534 64.291954 -1.2125689 5
-145.41812 65.552017 -1.5188239 3
-145.24239 66.683517 -1.499162 2.5
-145.59836 66.968651 -1.586939 3
-145.23759 67.469337 -1.5795643 3
-145.50694 67.692596 -1.589988 3
-145.40749 71.883774 -1.2360556 3
-145.34343 75.771835 -1.2675722 7
-145.44148 86.634079 -1.2549595 4
-145.41292 88.140099 -1.2807894 4
-145.33127 88.566223 -1.3640214 3.3333333
-145.29829 88.931824 -1.2627193 5
-145.3862 89.607346 -1.208197 5
-145.5938 61.922493 -1.0538296 6
-145.57536 62.794678 -0.84150124 4
-145.42429 62.944164 -1.0511117 3.5999999
-145.37358 63.501339 -1.1637926 3.5
-145.55811 65.333488 -0.97876239 4
-145.50691 65.664062 -0.89066553 4
-145.3222 66.649315 -0.92342168 4.5
-145.46495 66.942711 -0.94327867 5
-145.45763 71.946854 -0.91607088 4
-145.36093 75.958633 -0.9388395 6
-145.20506 76.101028 -0.82034171 5
-145.49773 79.96711 -0.88419127 7
-145.24606 80.037651 -0.90708429 7
-145.57109 80.699402 -0.9549247 7
-145.5377 80.81411 -0.87664634 6
-145.52885 86.210785 -0.87077212 6
-145.35081 86.608978 -0.94240642 6
-145.40004 86.922791 -0.86158156 6.3333335
-145.46529 87.473106 -1.019745 5.6666665
-145.5034 87.710655 -0.87168485 6
-145.32219 88.15963 -1.1141423 5.3333335
-145.30223 88.531921 -1.0658611 5.7142859
-145.50034 89.013695 -0.99744004 5.6666665
-145.39119 89.512238 -1.0824221 5.5
-145.48802 89.827042 -1.1736128 5
-145.42667 63.059433 -0.72346693 4
-145.40413 63.47617 -0.78638273 4
-145.36247 64.08255 -0.6746437 5
-145.2511 64.676292 -0.68127096 5.3333335
-145.2907 65.494675 -0.60770512 4
-145.27744 65.693977 -0.60489261 4
-145.33015 66.168152 -0.66940558 4.6666665
-145.45625 66.505852 -0.62181395 4.25
-145.42871 71.831467 -0.60713416 4.9375
-145.45538 75.816544 -0.62491488 5.7142859
-145.31776 76.032585 -0.61774582 6
-145.39914 77.87252 -0.63934469 6.3333335
-145.55473 78.081467 -0.65393192 7
-145.47664 79.853981 -0.47521535 7
-145.38503 80.109825 -0.58834565 6.75
-145.49754 80.756073 -0.49645317 7
-145.35677 81.012512 -0.54909158 7
-145.57521 81.387581 -0.55257988 7.0254998
-145.49399 81.904137 -0.46687239 7.4309998
-145.54988 82.260391 -0.74637157 6
-145.58505 82.534096 -0.77864444 7
-145.48499 86.305489 -0.72747767 7
-145.38625 86.599396 -0.63116992 7.2982502
-145.37849 86.989258 -0.57650369 7.6632962
-145.30327 87.308662 -0.679914 6.9375
-145.43822 87.715157 -0.65343386 7
-145.41164 88.396072 -0.40943792 8.0124998
-145.53062 88.577377 -0.51865327 7.9141879
-145.35677 89.126518 -0.57892871 7.6969166
-145.31145 89.410583 -0.53419238 8.1221418
-145.39847 89.837105 -0.46280804 8.8214521
-145.44429 62.829655 -0.38644332 5
-145.49309 65.423599 -0.32974789 5.25
-145.47157 65.678177 -0.31866571 5
-145.35612 71.665627 -0.26036769 6
-145.5067 75.846001 -0.20615117 6.7421584
-145.42328 76.046982 -0.21426132 6.5
-145.51111 76.983971 -0.032551561 8.1724997
-145.41643 77.814255 -0.1490481 8.2679377
-145.39124 78.097794 -0.12918632 8.1503754
-145.41531 79.513641 -0.12389675 8.4087496
-145.41606 79.740173 -0.10166066 8.6533499
-145.3322 80.17363 -0.18861938 8.3589611
-145.46057 80.660225 -0.16212179 8.0270004
-145.44696 81.083191 -0.27172118 8.3048334
-145.3739 81.428932 -0.076077066 8.9602613
-145.45663 81.798325 -0.10292682 8.8519173
-145.40665 82.186081 -0.11507407 8.6826773
-145.49445 82.602776 -0.034600914 8.689167
-145.5556 82.844292 -0.0092113605 9.0310001
-145.53188 83.810585 -0.18012518 8.1687498
-145.58327 86.526344 -0.33548361 8.0262499
-145.57979 87.165161 -0.03917256 9.5546246
-145.33585 88.672211 -0.27613938 8.7174997
-145.45508 88.872993 -0.24380499 9.3242083
-145.34471 89.520973 -0.16873433 9.392333
-145.38849 89.754967 -0.13687219 10.320202
-145.50562 75.43885 0.31390852 8.52775
-145.47929 75.808708 0.30181533 8.2173176
-145.38963 76.030754 0.23462863 7.7813334
-145.42712 76.605415 0.38037705 9.5690002
-145.46013 77.0411 0.33152276 9.8696251
-145.4138 77.379799 0.24745138 9.3648596
-145.40944 77.750153 0.13076897 8.8876667
-145.295 78.193428 0.20561765 8.3214998
-145.35727 78.672089 0.19163358 9.650692
-145.3308 78.942032 0.21077533 9.1538229
-145.28816 79.462173 0.082445227 9.3237085
-145.33188 79.776924 0.24130508 9.3865662
-145.46379 80.095848 0.29251432 9.8800554
-145.32188 80.701614 0.1991522 9.6978331
-145.40082 81.032791 0.15457776 9.6056995
-145.43654 81.454033 0.22071597 10.005384
-145.41556 81.855339 0.27783859 9.9710703
-145.39494 82.187454 0.18572591 9.4876442
-145.39445 82.611923 0.25885379 9.8096113
-145.49516 82.991722 0.18560365 10.196643
-145.55788 83.222107 0.061856002 10.045
-145.5289 83.957237 0.34423226 8.165
-145.4102 84.318726 0.37732169 11.028937
-145.33812 84.541092 0.35428697 8.1590004
-145.53079 87.112091 0.10314402 9.1282501
-145.33951 88.620132 0.32517061 10.419868
-145.37097 89.042885 0.31361008 11.117582
-145.3376 89.413948 0.26907334 10.564065
-145.3674 89.705101 0.21554485 11.415388
-145.51773 75.545395 0.51182371 10.038626
-145.42972 75.845413 0.62510723 8.8165121
-145.38481 76.124847 0.64030778 8.9680767
-145.38002 76.546944 0.60099131 10.471975
-145.54251 77.020683 0.58739591 10.270312
-145.45551 77.366768 0.63543105 9.7621603
-145.27879 77.78064 0.62358493 9.3438845
-145.45631 78.154297 0.56365067 8.1145
-145.35315 78.663773 0.60475749 10.024714
-145.33968 78.977394 0.5534867 9.2943373
-145.25513 79.371826 0.5543223 10.2031
-145.3448 79.861107 0.52736646 10.248758
-145.37674 80.135788 0.58097064 10.452518
-145.55696 80.468491 0.63959813 10.02025
-145.57545 80.986588 0.5830391 11.562
-145.4548 81.466362 0.50514311 9.9934769
-145.4366 81.742538 0.58651441 11.03589
-145.42599 82.218987 0.52268702 9.9885626
-145.37013 82.551964 0.48392436 9.6959829
-145.44426 82.943405 0.56643379 10.889423
-145.46156 83.871979 0.64508873 12.148616
-145.33086 84.244957 0.52848464 10.996063
-145.37955 84.445892 0.66994965 12.450766
-145.2589 88.677971 0.55157983 13.028095
-145.34727 88.953423 0.5663324 12.835736
-145.34145 89.426781 0.56381422 12.147092
-145.29605 89.666359 0.64596385 13.224566
-145.41199 75.763794 0.88146031 11.2085
-145.45844 76.177292 0.865991 11.0465
-145.3186 76.452034 0.96829021 12.0395
-145.55861 77.14782 1.0526578 11.507791
-145.48735 77.35038 0.94583917 11.292635
-145.36198 77.829025 0.93487912 11.124583
-145.44926 78.167679 1.0280331 11.167107
-145.29576 78.585083 1.079254 10.477063
-145.55219 79.185226 1.1165771 13.052
-145.32182 79.370941 1.016922 11.911375
-145.50862 79.671715 1.0929979 13.043125
-145.26732 80.239578 0.90824276 10.872071
-145.27063 80.489349 0.92465276 12.06525
-145.45871 81.475266 1.0997008 13.480573
-145.43954 81.901901 0.85151249 13.384334
-145.34769 82.219254 1.0744189 13.266251
-145.4146 82.594116 1.0757731 13.424406
-145.39009 82.904739 1.0998324 13.720668
-145.44885 83.873116 0.98886067 13.7205
-145.33015 84.218666 0.95034844 12.559902
-145.3701 84.598625 0.98425829 13.484674
-145.2726 84.806061 0.9979164 13.54775
-145.392 89.011658 0.93233883 13.577569
-145.29657 89.39138 1.0004922 12.654687
-145.41029 89.767235 0.96098197 14.492704
-145.46902 77.897324 1.3515254 11.01575
-145.46425 78.285194 1.3808343 10.426445
-145.39015 78.539688 1.344142 9.9267235
-145.39064 78.9758 1.3207647 12.897916
-145.22028 79.31601 1.3122079 14.0335
-145.34145 79.759834 1.4770989 13.931938
-145.53203 80.315567 1.4622844 13.645599
-145.47331 80.535332 1.386744 11.877547
-145.42924 81.070496 1.3838845 11.406166
-145.45732 81.529465 1.3403178 13.579063
-145.5002 82.221115 1.322423 14.792376
-145.48016 82.624748 1.2830763 13.324543
-145.33791 82.919067 1.3661512 11.57975
-145.39745 83.77948 1.370098 13.76725
-145.33051 84.084244 1.3205127 15.065
-145.39273 84.652779 1.3859019 14.133314
-145.33675 84.846069 1.3320817 14.5505
-145.31354 85.583305 1.5976546 15.0235
-145.47786 88.675217 1.4476031 11.864126
-145.46974 88.94529 1.4002627 11.374429
-145.35754 89.420494 1.417066 11.517453
-145.26031 89.678291 1.4761586 9.1036673
-145.29836 78.342384 1.8397403 9.4501677
-145.39816 78.477539 1.6957269 13.021626
-145.41528 78.993698 1.7452615 13.167313
-145.46254 79.353088 1.8367598 14.036166
-145.33495 79.670044 1.7312497 12.535749
-145.38625 80.150345 1.7657573 13.797874
-145.41231 80.634911 1.8172642 13.609179
-145.28612 80.988571 1.7672027 15.057875
-145.38345 81.922462 1.6376913 9.0566664
-145.53992 82.26062 1.8017313 9.1665001
-145.42218 82.546997 1.7420328 10.554001
-145.58992 83.080917 1.8011398 9.1660004
-145.56354 84.125404 1.9609606 12.0805
-145.27058 84.647888 1.8203678 12.746167
-145.42278 84.843369 1.7889822 15.035749
-145.37723 85.49884 1.7038411 12.933321
-145.4176 85.698555 1.7667146 13.812
-145.43134 88.573303 1.7624805 11.782483
-145.5219 89.051498 1.8522847 12.747499
-145.45389 89.315445 1.7813462 14.253375
-145.33192 89.761665 1.8540778 11.791167
-145.2159 79.212708 2.1365128 14.0765
-145.44492 80.172409 2.3136551 12.0815
-145.39542 81.948372 2.2652719 10.157
-145.35472 82.658607 2.2872746 10.735551
-145.33746 83.026054 2.2907729 10.158188
-145.32169 83.378181 2.3325927 10.708143
-145.55923 83.792831 2.1388447 12.032999
-145.37241 84.108231 2.1332927 11.793688
-145.33102 84.590317 2.3729255 15.077
-145.48535 85.21579 2.3197 14.078
-145.46628 85.796112 2.0773525 14.390666
-145.54443 89.314377 2.1627452 13.507999
-145.27608 89.801575 2.034344 11.0005
-145.29941 79.19088 2.5079815 14.079
-145.43158 79.24865 2.5922759 15.076
-145.40973 80.659592 2.4456227 14.07825
-145.36955 82.529907 2.5532825 11.09905
-145.31625 83.022232 2.5552433 13.1095
-145.2791 83.49733 2.6330905 14.5145
-145.40106 83.84803 2.5278838 13.6795
-145.28268 84.007187 2.7398064 11.004
-145.28084 85.478096 2.4504342 14.079
-145.27405 77.645386 2.9690421 12.009
-145.21176 78.548935 2.920449 15.0785
-145.21954 79.277412 2.864037 14.0805
-145.38179 82.744308 2.8996229 14.0105
-145.39095 83.506226 3.0591486 14.006
-145.51538 77.574532 3.3776543 10.1715
-145.44763 81.519775 3.3913774 10.0425
-145.22972 81.617935 3.3404353 10.169
-145.21944 82.220154 3.3584151 10.169
-145.36832 83.091904 3.4733164 12.002501
-145.47711 84.173859 3.3236668 15.0795
-145.48433 86.887863 3.4105518 10.1665
-145.22113 77.455124 3.9440501 13.1755
-145.30284 77.835678 3.8036945 10
-145.32323 81.585114 3.9721203 11.164
-145.31467 82.684372 3.6225522 12.1775
-145.2683 86.582169 3.9528737 11.1585
-145.54745 87.018814 3.9259768 14.0825
-145.5737 78.062775 4.2825203 15.011
-145.27519 81.761101 4.1984253 15.0815
-145.47319 82.35173 4.0212207 11.1635
-145.36945 82.491943 4.1161923 15.0045
-145.37404 86.952248 4.1045408 11.159
-145.27762 89.352737 4.2215185 11.1575
-145.21402 89.616211 4.2524662 11.158
-145.38519 77.87944 4.6007667 13.534599
-145.3717 78.205772 4.6306205 13.253
-145.57587 84.61676 4.5283451 12.1565
-145.47906 86.170784 4.7184272 12.156
-145.50186 86.616776 4.6354833 11.163
-145.31641 87.927826 4.6439648 12.153
-145.26593 88.223618 4.7062349 11.162251
-145.20193 89.884018 4.6338787 12.1595
-145.24532 78.535049 4.8150387 12
-145.51021 78.993553 5.0900807 12.166
-145.37909 85.528168 4.9458494 12.1585
-145.48915 87.716362 5.0045457 12.156166
-145.2979 88.151215 4.8443012 11.163
-145.20312 88.695374 5.1595678 12.1565
-145.24905 78.003044 5.436975 15.175
-145.3598 79.007195 5.4108343 13.660749
-145.52612 79.303993 5.3177228 14.584
-145.38179 79.762764 5.5553832 15.08875
-145.26646 85.322464 5.4466705 13.582
-145.28529 88.065201 5.4859366 12.159
-145.45081 79.305862 5.7025046 15.174
-145.38797 79.76799 5.7649322 15.1735
-145.3848 80.310181 5.8575854 15.173
-145.52893 86.498596 5.996635 13.1565
-145.36542 87.851929 5.7069812 13.435833
-145.36435 88.14212 5.6302834 14.0015
-145.42776 84.997314 6.3467374 11.1715
-145.48245 86.548889 6.2685423 12.660874
-145.20099 88.285141 6.1212769 14.174
-145.4492 79.559143 6.5338707 15.159
-145.2533 79.724594 6.6239352 15.159
-145.54248 87.017014 6.494257 13.1585
-145.54504 87.807495 6.4685378 15.002
-145.29364 83.061096 7.050312 15.156
-145.48865 85.045837 6.9712615 12.168
-145.35809 85.92952 7.0970082 12.665
-145.30994 89.121346 6.8984509 12.165
-145.57758 89.840111 6.9612298 13.1575
-145.37984 84.967285 7.4387021 13.163999
-145.51881 85.805771 7.5442119 13.1635
-145.53215 86.249573 7.2924881 14.1575
-145.31314 85.111488 7.8175898 14.161
-145.24649 85.887329 7.7406082 15.155
-145.41267 86.20932 7.6334662 14.159
-145.27162 84.945114 8.0568953 15.1575
-145.5282 86.549049 8.0174665 13.1645
-145.46414 86.836601 8.1321363 13.165
-145.31374 88.104614 8.0267687 15.153
