# .PCD v0.7 - Point Cloud Data file format
VERSION 0.7
FIELDS x y z intensity
SIZE 4 4 4 4
TYPE F F F F
COUNT 1 1 1 1
WIDTH 1257
HEIGHT 1
VIEWPOINT 0 0 0 1 0 0 0
POINTS 1257
DATA ascii
-129.76357 57.116535 -1.7519604 2.7692308
-129.81277 57.390968 -1.7699608 2
-129.76021 57.654453 -1.7295177 6
-129.76447 58.099892 -1.7772349 1.5
-129.75032 58.699883 -1.820575 2.2
-129.79211 58.924389 -1.8544625 3.5
-129.72557 59.368614 -1.7845869 2
-129.84193 59.777912 -1.8589041 2.25
-129.91595 36.034714 -1.2711822 6
-129.82538 37.539539 -1.2041415 6
-129.70499 39.857307 -1.4051503 6.6666665
-129.82852 42.795254 -1.3908366 6
-129.786 44.677593 -1.4422873 6
-129.97937 47.13467 -1.2586051 6
-129.77394 47.446392 -1.3274665 5.8571429
-129.8425 47.733269 -1.321529 5.25
-129.83537 48.15057 -1.324734 5.6666665
-129.66144 48.671532 -1.3495991 5
-129.69624 48.946449 -1.2800895 5.3333335
-129.61858 49.535843 -1.4143267 7
-129.72368 49.653835 -1.4391588 5
-129.67433 50.132397 -1.2505677 5
-129.96362 50.785965 -1.2443985 5
-129.80316 50.977573 -1.4822209 5
-129.92612 51.549526 -1.2784696 5
-129.79388 51.674004 -1.3629813 5.75
-129.80234 52.289097 -1.4826661 4.75
-129.87885 52.560078 -1.4731356 4
-129.82263 52.892784 -1.5342778 4
-129.76141 53.359291 -1.4122567 4.3333335
-129.73448 53.750759 -1.5157402 4.5
-129.73712 54.114769 -1.488831 4.6666665
-129.88292 54.592907 -1.5566424 3.4000001
-129.77792 54.920479 -1.5335832 3.6666667
-129.91617 55.522858 -1.5626682 3
-129.77737 56.07375 -1.563478 5
-129.79193 33.156437 -0.81459707 7
-129.86647 36.270969 -1.1349796 6
-129.67645 37.565632 -0.97156155 6
-129.79897 37.757542 -1.0745666 6
-129.83365 39.793644 -0.92711371 6.1999998
-129.63515 40.355137 -0.98503846 6
-129.81903 41.897572 -0.91767806 6
-129.61964 42.123066 -0.9409827 6
-129.87494 42.787167 -1.0201416 6
-129.72064 42.804806 -0.96193641 6
-129.91025 43.79266 -0.95451623 6
-129.96495 44.918194 -1.1549881 7
-129.85719 47.102062 -1.1035678 6
-129.97993 47.225368 -1.1549122 6
-129.79294 49.195301 -1.1710017 6
-129.89847 51.344547 -1.127159 5
-129.76083 39.862518 -0.45976552 7
-129.88382 47.000336 -0.4933089 7
-129.76953 51.531837 -0.67694271 6
-129.76738 47.213058 -0.018135948 8.0939999
-129.72878 51.441059 -0.24046907 7
-129.742 39.872711 0.33556023 8.0898333
-129.8062 47.152523 0.24686155 8.0594168
-129.82518 47.275921 0.32608631 8.0871668
-129.65749 51.475552 0.19523573 8
-129.93132 51.792233 0.17497437 8
-129.95192 54.337963 0.39171404 9
-129.92 54.592064 0.36956546 8.6985006
-129.6277 55.057121 0.036360953 8.0561666
-129.85858 59.779179 0.21909271 9.3722782
-129.78305 39.809441 0.54928571 8.0811005
-129.6823 40.114204 0.71923101 8.0528326
-129.83803 46.368488 0.54248554 8.0340004
-129.88402 46.632412 0.53442138 8.0544996
-129.78601 47.056839 0.51622438 8.0761671
-129.87846 47.403008 0.51919967 8.078167
-129.72304 47.876259 0.59987003 8.0943327
-129.63455 48.331642 0.79771739 9.0834999
-129.7205 54.285969 0.56655866 9.062501
-129.81763 54.610523 0.6390419 9.2717037
-129.77817 54.969238 0.6680066 9.0209999
-129.63011 55.318291 0.79313678 10.048333
-129.79277 30.698769 0.9142375 7
-129.77255 31.015209 1.1114945 8.0734997
-129.74055 36.677113 0.88523233 8.0506248
-129.73766 38.787968 0.85903245 8.0380001
-129.93275 46.12635 1.0063868 9.0810003
-129.88576 46.428349 1.096295 9.0819998
-129.75891 47.034813 0.95664209 9.0551672
-129.88458 47.311638 0.95460814 9.0275002
-129.61505 47.891758 1.0651075 9.0334997
-129.81514 48.28091 0.96990746 9.0507278
-129.73256 48.51947 1.0310117 8.9122505
-129.68315 52.853336 0.97742367 10.067
-129.96368 53.915565 1.0604717 9.5895004
-129.8262 54.309635 0.98406345 9.9153576
-129.8187 54.678013 0.93148851 9.8353748
-129.73097 54.999264 1.0620599 10.025729
-129.73566 55.376846 1.0080929 10.525887
-129.90938 30.615267 1.266064 7
-129.70735 41.207466 1.488574 9.0690002
-129.79607 47.392239 1.5592033 9.0909996
-129.70531 48.213791 1.4719987 9.0904999
-129.7872 48.642727 1.4627283 9.9042311
-129.7867 48.901398 1.5212927 9.4208336
-129.64027 53.157261 1.5412184 11.0855
-129.84276 53.843098 1.38377 10.337626
-129.81097 54.211746 1.3060154 9.8024998
-129.78113 54.653393 1.3941578 10.613067
-129.76184 54.909916 1.3120565 11.271181
-129.70258 46.971478 1.6901686 10.0385
-129.81946 47.409534 1.6250707 10.0825
-129.71165 47.864311 1.7460159 9.4902
-129.64584 48.484001 1.7229818 9.0935001
-129.68076 49.0275 1.6058455 9.0930004
-129.7227 53.914841 1.6257232 11.57625
-129.77538 54.188721 1.7420992 11.4165
-129.79219 54.723743 1.724344 12.229845
-129.7711 54.868076 1.7021335 12.774417
-129.81371 48.534245 2.0504944 11
-129.67114 41.693283 2.6666226 9.0939999
-129.74631 41.43993 3.0522861 10.050876
-129.76973 41.468796 3.3841126 10.088834
-129.95782 39.477455 3.89079 10.0925
-129.88863 39.907883 3.8763125 10.061251
-129.6628 40.344826 3.8665583 10.092
-129.66609 41.127415 3.7061663 10.093
-129.94014 41.568737 3.6053798 10.0915
-129.98444 41.660873 3.9172158 12.064
-129.80486 39.734188 4.273716 11.025499
-129.83972 40.161583 4.1492853 11.411832
-129.70409 38.840752 4.4414139 12.039
-129.88284 39.366558 4.4581947 12.051999
-129.85765 39.878147 4.5625196 11.287199
-129.63629 40.002354 4.6032939 11.0915
-129.89784 40.652985 4.7674146 11.087999
-129.86443 40.923622 4.7725515 10.0935
-129.78175 39.926392 5.1677823 13.0685
-129.95108 40.09222 4.8388586 9.1344995
-129.93231 40.960392 4.9068918 12.297999
-129.84555 30.141495 5.5183444 11.03
-129.98782 39.283848 5.4215498 12.026
-129.79474 39.861427 5.2621579 13.0725
-129.8709 39.342426 5.6070724 12.0245
-129.65981 30.135757 6.0561247 12
-129.79645 30.283604 6.5945773 11.707667
-129.73969 30.251371 6.8903356 12.014999
-129.73041 30.947056 6.9964681 11.019
-129.75259 30.058216 7.3290005 13.047833
-129.93161 30.400761 7.3950682 11.094
-129.80443 30.561611 7.8325434 12.696334
-129.78534 30.306805 8.0174093 12.089
-129.75797 30.72505 8.2254448 13.0715
-129.70052 30.833389 8.265481 14.042
-129.82286 30.869705 8.529129 14.0715
-129.89238 30.264431 9.038415 13.285749
-129.80661 30.243395 9.3454542 12.088333
-129.71387 30.42823 9.5644455 15.04875
-129.84697 30.427097 9.649786 15.0545
-129.27217 51.163101 -2.7036574 7
-129.37871 56.185265 -2.6399331 6
-129.4735 50.884888 -2.0765085 6
-129.43077 57.765377 -2.0163722 5
-129.22778 44.895649 -1.7939103 6
-129.2973 46.970829 -1.7918944 6
-129.49838 48.323795 -1.6752281 6
-129.39189 49.578236 -1.8684874 6
-129.23494 49.855175 -1.605725 6
-129.3754 50.282375 -1.9990729 6
-129.27562 50.407997 -1.6068531 6
-129.21933 51.363419 -1.6092211 5
-129.2039 51.619076 -1.6366726 5
-129.55484 54.250378 -1.6258874 5
-129.47273 54.608482 -1.6406635 4.1999998
-129.32388 54.984039 -1.642769 3.4000001
-129.32834 55.46574 -1.7129395 4.1666665
-129.33624 55.923523 -1.6805562 3.6666667
-129.39146 56.191959 -1.7180607 2.5999999
-129.42279 56.691734 -1.7170379 3.4285715
-129.3414 56.989746 -1.7712607 2.4000001
-129.42715 57.393715 -1.7578335 2.5454545
-129.39 57.747261 -1.7937655 2.5555556
-129.42783 58.257904 -1.8215376 3.25
-129.42601 58.522556 -1.8218672 3.75
-129.34351 58.984837 -1.8222518 2.4000001
-129.44171 59.346283 -1.865407 3.75
-129.38564 59.77533 -1.878408 2.1666667
-129.5069 36.392685 -1.2687596 6
-129.52907 37.658722 -1.2543503 6
-129.51193 39.764027 -1.3309152 7
-129.36259 40.307133 -1.3157009 6
-129.3618 42.510807 -1.393083 6
-129.27408 43.091869 -1.2569748 6
-129.50023 44.229382 -1.4436121 6
-129.53142 46.459663 -1.5040363 6
-129.46249 47.16972 -1.5013046 6
-129.38908 47.413059 -1.3465235 5.1428571
-129.50755 47.747284 -1.3140591 5.7142859
-129.45085 48.278786 -1.3410219 5.6666665
-129.36295 48.514126 -1.36568 5.8000002
-129.37662 49.004765 -1.2984564 5
-129.33179 49.443798 -1.5122275 5
-129.24855 49.707062 -1.2623769 5
-129.43509 50.74934 -1.5409768 5
-129.33684 50.895939 -1.261768 5
-129.48837 51.564236 -1.3174485 5
-129.36435 51.795498 -1.4428296 6.3333335
-129.32275 52.288475 -1.4977485 4
-129.39459 52.681454 -1.4754158 4
-129.39037 52.92532 -1.4434804 4
-129.53015 53.424587 -1.3800293 4
-129.38316 53.74987 -1.4615698 4.3333335
-129.3036 54.217934 -1.5729053 6
-129.48857 54.589611 -1.5434753 3.5714285
-129.38789 54.944286 -1.5510539 3.4000001
-129.23354 55.308002 -1.5520394 3.5
-129.44475 55.723843 -1.5866882 3
-129.42874 56.025566 -1.5846643 5
-129.43619 34.108418 -0.96456403 7
-129.42918 35.950825 -1.153249 6
-129.35834 36.028324 -1.0046618 6
-129.41777 37.08749 -1.0235746 6
-129.575 37.543949 -1.034568 6
-129.34668 37.774921 -1.0403343 6
-129.41183 39.274181 -1.0112514 7
-129.41777 39.665688 -1.0091801 6
-129.36412 40.018963 -1.079782 7
-129.34892 40.63839 -0.99703515 6
-129.22337 42.071449 -0.97048187 6
-129.32867 42.566921 -1.0425881 6.5
-129.48399 42.851635 -1.0493039 6
-129.36646 49.206356 -1.1840947 6
-129.20621 30.209091 -0.12124151 7
-129.43594 37.227619 -0.17093527 7
-129.30478 50.534893 -0.26548254 7
-129.24147 54.661423 -0.26031184 7
-129.41841 55.009228 -0.045874178 8.0641947
-129.49133 39.720818 0.33903587 8.0825005
-129.51233 47.165165 0.26000726 8.0901003
-129.47058 47.274029 0.33406636 8.0909996
-129.30794 54.135246 0.20582765 8.1933327
-129.32376 54.636986 0.29230255 8.4141665
-129.35735 55.055664 0.14994721 8.3600655
-129.35855 55.276222 0.21712531 8.3882771
-129.52644 59.793137 0.15937492 8.5477505
-129.59598 31.267982 0.79319775 8.0889997
-129.39958 39.553608 0.5503431 8.0950003
-129.4989 39.677406 0.61442357 8.0726995
-129.40607 47.064583 0.5336042 8.0638332
-129.35693 47.326286 0.46733478 8.0698338
-129.36153 47.97892 0.58617282 8.0904999
-129.48334 48.227333 0.66859031 8.2796993
-129.33284 52.764439 0.68463832 9.0284996
-129.26262 53.149097 0.66839731 9.0264997
-129.36626 53.748531 0.72554159 9.7236662
-129.45097 54.207397 0.53909129 8.6617861
-129.45979 54.591824 0.5398342 8.9517231
-129.39774 54.966019 0.62451321 9.4088593
-129.4099 55.368523 0.67708611 9.2955666
-129.40303 34.989052 1.0548494 8.0874996
-129.40637 36.967815 0.82624578 8.0622501
-129.3811 41.072926 0.90944767 8.0939999
-129.43088 47.084686 0.89262033 8.7531672
-129.58922 47.278305 0.87668496 8.0935001
-129.31682 47.823967 0.90685284 8.4200001
-129.38394 48.315331 0.87841988 8.8355618
-129.47792 48.492485 0.88291323 9.064167
-129.46356 52.867844 0.91923064 10.05725
-129.27663 53.822796 0.87591177 10.0558
-129.35097 54.186321 0.88421738 9.7453337
-129.3913 54.555477 0.86658967 10.425312
-129.37923 55.040108 1.0335932 9.7679844
-129.44046 55.403858 0.94705707 10.507838
-129.26532 55.675659 1.1821769 12.0585
-129.50368 30.755095 1.4487144 7
-129.29561 41.042782 1.4922811 9.0734997
-129.42288 46.601154 1.5333788 9.5695
-129.54718 46.986652 1.3152895 9.0819998
-129.39471 47.557812 1.575122 10.068251
-129.26108 48.104755 1.5142939 10.07725
-129.40552 48.534801 1.4100227 9.3380003
-129.52939 48.894402 1.5557759 9.0944996
-129.46748 54.264912 1.5357258 11.2635
-129.43614 54.683395 1.3791801 10.694259
-129.3878 54.956318 1.3429166 11.691889
-129.4749 55.21283 1.2441311 12.051999
-129.37022 47.445499 1.7446136 9.4878998
-129.40869 48.253883 1.7344234 9.4911003
-129.28438 48.473087 1.8409597 9.0950003
-129.52438 54.335789 1.808733 11.0895
-129.44724 54.683586 1.7845801 11.29525
-129.33165 54.904148 1.7538294 12.770474
-129.23505 47.273403 2.2840061 10.0895
-129.35664 47.679775 2.1151063 10.413167
-129.35962 54.683273 2.0461042 13.805875
-129.20332 54.876499 2.0024426 10.094
-129.29347 41.361309 2.7034488 9.0942497
-129.24356 40.667789 3.069134 10.02425
-129.26276 41.480587 3.0452807 10.373667
-129.52132 39.90704 3.466404 9.0109997
-129.27644 40.465435 3.574739 9.0939999
-129.47511 41.450821 3.3923702 10.420834
-129.37509 39.794323 3.7788379 9.4442005
-129.35371 40.236092 3.7588396 9.0939999
-129.51704 40.940392 3.7756751 10.0935
-129.55345 41.482235 3.6896429 10.093
-129.54941 38.974209 4.2824774 11.0265
-129.26422 39.306957 4.1708045 10.0955
-129.44289 39.927891 4.0910139 9.0939999
-129.37766 40.095924 4.1905842 11.407166
-129.47707 40.539364 4.1413312 12.068833
-129.48077 38.926289 4.4339571 11.025
-129.38484 39.874535 4.7515793 11.06175
-129.38919 39.835449 4.9280767 11.365929
-129.47733 30.424059 5.4301615 11
-129.31688 39.863728 5.2905335 12.415833
-129.43417 40.001621 5.3047228 13.076
-129.59625 40.898991 5.3723984 9.1409998
-129.39751 30.345634 5.9985757 12
-129.43481 30.689419 5.9610367 12
-129.52525 30.267765 6.0220246 12
-129.48376 30.278687 6.6547823 12.03175
-129.25826 30.536541 6.77946 12
-129.50891 30.466173 7.1764889 12.675667
-129.40021 30.293751 7.2907457 13.068
-129.41054 30.465076 7.2354565 13.012
-129.32869 30.706821 7.6942716 13.033501
-129.50945 30.909451 7.9009233 13.0315
-129.30902 30.271475 8.2450943 13.072001
-129.37366 30.582243 8.1794024 11.7575
-129.34459 30.982149 8.2599039 13.284374
-129.3308 30.669054 8.5178251 14.046166
-129.43854 30.920856 8.4957523 12.0905
-129.48714 30.288336 9.103734 14.022667
-129.46799 30.182697 9.3279266 13.0865
-129.32617 31.383181 9.4380493 15.061501
-129.23294 31.752918 9.5334282 15.072
-129.57506 30.277061 9.6206045 13.0925
-128.81082 55.957111 -2.5412905 6
-129.175 50.371449 -2.0646715 6
-129.10979 55.763344 -2.3319123 6
-129.14647 59.408096 -2.0053656 4
-128.91341 44.39558 -1.7904099 6
-128.92758 48.561687 -1.8551967 6
-128.86415 48.901691 -1.6004182 6
-128.92551 49.462124 -1.6009549 6
-128.92996 51.429115 -1.6368914 5
-129.01028 54.957718 -1.6723291 5
-128.90419 55.290974 -1.649918 3.5
-128.98372 55.916199 -1.6789225 4.3333335
-128.972 56.159492 -1.7140756 2.5
-129.0233 56.649437 -1.7641459 3.1111112
-128.92229 57.041218 -1.7903818 3.25
-129.01234 57.387276 -1.7912604 2.2222223
-129.01186 57.766338 -1.8030279 4
-129.02243 58.074398 -1.7802976 1.6363636
-129.05122 58.583645 -1.8161265 2.75
-128.90733 58.960201 -1.8478925 2.75
-129.01833 59.378403 -1.8614762 2.25
-129.12341 59.701439 -1.8428155 3
-129.18272 37.739368 -1.2386186 6
-128.90141 43.564579 -1.2806253 6
-129.1555 43.833855 -1.4447283 6
-129.07361 46.087269 -1.4652178 6
-129.0062 46.852379 -1.2513802 6
-129.00214 47.378849 -1.3508408 5.4666667
-129.0211 47.821789 -1.3678509 5
-128.95026 48.300385 -1.391166 5
-129.05617 48.571014 -1.3880726 5.2857141
-129.0464 48.963085 -1.3798879 5.6666665
-128.80649 49.239536 -1.4848611 5
-128.89153 49.833313 -1.280618 5
-128.9594 50.268932 -1.4644421 5.5
-129.17183 50.567268 -1.5443478 5
-128.88815 51.017605 -1.3231275 5
-128.80078 51.270893 -1.4527655 7
-129.05721 51.881779 -1.4132329 5.75
-128.91866 52.256763 -1.4759144 4.5
-129.04413 52.644146 -1.4869516 4
-129.06096 53.030457 -1.472427 4
-128.99521 53.594784 -1.4730831 4
-128.974 53.698223 -1.4519643 4.75
-129.10442 54.148968 -1.5090389 4.6666665
-128.98058 54.641529 -1.4800637 4.5555553
-129.00464 55.126694 -1.5372885 3.3333333
-128.97867 55.386181 -1.514586 3.7142856
-129.18761 33.50425 -0.84277159 7
-128.85493 35.982037 -1.16772 6
-128.94418 37.118629 -0.99181014 6.3333335
-128.98438 37.433689 -1.0916371 6
-128.83359 40.614155 -1.0255504 6
-129.0721 40.853016 -1.0120423 6
-128.99101 41.811428 -1.1799018 7
-128.8374 42.093803 -0.99779618 6
-128.94449 42.765514 -1.0206892 6
-129.09319 42.939297 -1.0782417 6
-129.17978 43.930576 -1.0073155 6
-128.8476 44.18111 -1.0271246 6
-128.86023 50.082443 -0.84965658 6
-128.86169 54.669392 -1.0926439 4.9000001
-128.91705 33.987652 -0.77917242 7
-129.00542 34.484592 -0.77322012 7
-128.95673 37.242477 -0.76239914 7
-129.17274 50.309261 -0.77565098 6
-129.12843 50.664822 -0.77056587 6
-128.86212 54.627785 -0.68261421 6
-128.85686 30.232639 -0.21659945 7
-128.84616 30.552589 -0.08393801 7
-129.02463 33.959061 -0.18647747 7
-128.936 36.899864 -0.22367783 7
-128.9324 37.239452 -0.24826267 7
-128.93005 49.829319 -0.31374052 7
-129.05331 50.572773 -0.28320417 7
-129.12823 54.228966 -0.31939957 7
-128.94521 54.661144 -0.2568284 7.2272859
-128.97107 54.969761 -0.14218587 7.7323122
-129.00018 55.425743 -0.055959467 7.926722
-128.91451 36.791004 0.25560111 8.0942497
-128.998 50.543869 0.20980005 8
-129.17993 53.991116 0.19094245 8.0974998
-129.09131 54.129246 0.20308562 8.4377995
-128.99362 54.623466 0.14493185 8.3289328
-129.04012 55.060211 0.2148207 8.4698238
-128.94638 55.436024 0.12556066 8.3008556
-129.02397 31.050289 0.77828336 8.0804996
-128.99803 34.532108 0.4567478 8.0819998
-128.92982 36.923218 0.59984744 8.0912495
-129.11447 46.775974 0.46350992 8.046999
-129.01907 46.915565 0.65733141 8.0951662
-129.03748 47.718098 0.70130724 8.0942497
-129.03365 48.35944 0.79131937 9.0830002
-129.032 53.446396 0.41610312 9.0530005
-128.99722 54.260284 0.65864694 9.0852003
-129.00412 54.631287 0.53197527 9.0478745
-128.96907 55.040459 0.53007925 9.1651554
-128.98257 55.302673 0.51557165 9.3493996
-128.92506 31.814682 0.95463288 8.0819998
-129.0742 34.328724 0.91681492 8.0760002
-128.91574 35.072224 0.93211722 8.0904999
-129.16678 37.847057 0.84397471 8.04
-129.05038 47.784439 0.90820199 9.076333
-129.19463 48.383854 0.8933782 9.0834999
-128.99448 53.561813 0.97673088 10.056
-129.08481 53.828808 1.087115 10.842999
-129.01399 54.206749 0.81145883 10.0745
-129.02554 54.627541 0.95818228 9.2007504
-128.97502 55.008278 1.0003407 10.341711
-128.96281 55.415844 1.0512793 10.185762
-128.98698 55.820305 1.110435 11.112839
-128.91591 41.520931 1.3563273 9.0819998
-128.94441 47.57653 1.5119104 9.0924997
-128.95854 47.834503 1.5358754 9.8296242
-129.12544 48.124043 1.4894081 9.5879993
-128.91537 53.806835 1.4877845 11.4606
-128.98769 54.703663 1.3811415 10.729916
-129.0657 54.998047 1.3877525 10.731847
-128.90283 55.322674 1.4070537 12.408571
-128.8719 55.853573 1.2921097 10.090709
-128.97032 47.739349 1.7412254 9.2592497
-129.0385 48.068783 1.6667747 10.0835
-129.16795 48.490845 1.7702538 9.0959997
-128.97528 53.825062 1.7465224 12.078
-129.10716 54.678051 1.7788216 11.680101
-129.08369 54.883202 1.7396916 11.200904
-128.94409 55.40258 1.699308 11.429049
-128.89424 55.604313 1.6292925 13.07075
-128.97604 47.500092 2.2458601 11.079
-128.9635 47.914139 2.1055882 10.250249
-128.88737 54.059498 2.0290956 13.0745
-128.91437 54.457813 2.0692399 13.31775
-128.93938 41.469109 2.6323245 9.0943747
-128.86739 40.202457 3.1339834 9.0939999
-129.08163 40.520954 3.1124086 9.0965004
-129.17523 41.184875 3.1953931 11.082
-129.17929 41.266117 2.9789917 9.559
-129.15373 39.966488 3.4446983 9.0109997
-128.92868 40.6763 3.4813895 10.421333
-128.86646 40.229687 3.849674 10.093
-128.99544 40.471069 3.7888188 10.421833
-129.1631 38.719883 4.3975577 11.026
-129.0536 40.133308 4.2081876 11.557812
-129.04541 40.497681 4.1278439 12.069333
-129.0667 39.747284 5.0617957 11.287498
-129.06757 30.653624 5.3597484 11
-128.93167 39.907669 5.2666554 13.0805
-129.06076 30.578194 5.88134 12
-129.17302 30.254234 6.1103859 12.08
-128.9566 30.494473 6.0530143 12.0805
-129.15906 30.14946 6.6360874 12.032
-129.04068 30.527302 6.7573009 12
-129.04842 30.498964 7.1357236 13
-128.97508 30.291521 7.2154942 12.364833
-128.86449 30.799824 7.3937573 10.0125
-128.84288 30.816669 7.3612976 11.0945
-129.10945 30.32449 7.8692517 13
-128.96353 30.623125 7.8592429 12.562
-129.0193 31.022144 7.9265265 13.031
-129.13292 30.356167 8.2028389 13.064167
-129.08278 30.620539 8.2648554 12.629858
-128.96114 31.013046 8.1976395 13.265374
-128.86957 31.251263 8.221756 13.437601
-129.10999 30.595087 8.520462 14.035999
-128.96805 30.976427 8.6241932 13.582874
-129.02242 31.341034 8.5032959 13.027
-128.88383 31.307486 8.9629049 12.563499
-129.07791 30.36541 9.449522 14.081
-129.13216 31.141239 9.31534 15.04925
-128.89023 31.400463 9.3856611 14.366666
-128.76891 49.271763 -2.047209 6
-128.47795 55.59074 -2.3780258 6
-128.46791 55.740192 -2.1810229 6
-128.50755 43.967243 -1.7857778 6
-128.67862 46.017651 -1.7823246 6
-128.55978 47.458447 -1.7651135 6
-128.70296 48.702858 -1.9805272 6
-128.66083 50.939526 -1.6141589 5
-128.64705 51.246681 -1.6371717 5
-128.67517 52.298504 -1.6862873 5
-128.47615 53.511234 -1.7362757 5
-128.60454 54.218578 -1.6827545 4.6666665
-128.50317 54.652943 -1.7475009 5.8000002
-128.57063 55.061123 -1.6918519 4
-128.56223 55.472717 -1.7178335 4.125
-128.57381 55.85564 -1.7054744 3.75
-128.57875 56.210106 -1.7430165 2.95
-128.61055 56.589298 -1.7715096 3.090909
-128.66176 57.054852 -1.7775348 2.5999999
-128.60748 57.355846 -1.7953053 1.7058823
-128.58763 57.867126 -1.7733862 4.5999999
-128.52979 58.164516 -1.8046515 1.2222222
-128.70401 58.68441 -1.8561012 3.3333333
-128.52779 59.022472 -1.8340385 3.1428571
-128.60744 59.478447 -1.8760594 2.8333333
-128.57721 59.772957 -1.8947974 1.8571428
-128.73526 37.119297 -1.3440216 7
-128.75056 37.331348 -1.2374994 6
-128.78888 40.160648 -1.3196644 6
-128.46161 41.936638 -1.3990993 6
-128.78026 43.460217 -1.446013 6
-128.51123 43.905811 -1.3085598 6
-128.7028 46.179989 -1.3739508 6
-128.43431 46.741798 -1.3523481 6
-128.47437 47.047028 -1.3700458 5.3333335
-128.5681 47.387657 -1.3638272 5.8571429
-128.53053 47.692104 -1.4077017 6
-128.68373 48.681324 -1.3970573 5.4285712
-128.577 48.969685 -1.3856761 5.4285712
-128.57309 49.501415 -1.4149729 6.5
-128.5383 49.951645 -1.2999827 5
-128.59848 50.703541 -1.3060232 5
-128.55008 51.17379 -1.344624 5
-128.77332 51.988377 -1.3920332 5
-128.54085 52.230461 -1.5042475 4.5
-128.60017 52.695488 -1.4802281 4.4000001
-128.6774 53.035633 -1.4703743 4
-128.56375 53.434212 -1.4575547 4
-128.55077 53.867519 -1.4767996 4.75
-128.68994 54.39323 -1.4605385 4
-128.64575 54.617886 -1.3533909 4.9444447
-128.62703 54.98167 -1.5704682 3.5999999
-128.70874 55.336456 -1.5746175 3.625
-128.62308 55.703072 -1.5931702 4
-128.52573 33.61013 -0.87582725 7
-128.49362 34.270203 -1.0022599 7
-128.48003 36.0741 -1.0647811 6
-128.56937 37.10619 -1.0929083 6
-128.61728 37.263054 -1.069784 6
-128.68695 37.949757 -1.0723727 6
-128.61386 39.854027 -1.040044 6.3333335
-128.5591 40.898571 -1.0389396 6
-128.70486 41.763126 -1.0583206 6.5
-128.51048 42.245838 -1.0672631 6.5
-128.65376 42.997616 -1.074468 6
-128.40273 43.506847 -1.1201982 6
-128.43692 49.504154 -0.93091685 6
-128.58934 50.065559 -0.87171596 6
-128.6826 54.642639 -1.0219381 5.4807692
-128.53433 30.184282 -0.50557113 7
-128.4958 30.74555 -0.61566454 7
-128.69835 33.819569 -0.63674521 7
-128.45163 34.187439 -0.5183897 7
-128.56612 36.764603 -0.54954875 7
-128.5732 36.95982 -0.54867363 7
-128.4915 54.307953 -0.5820536 6.5999999
-128.64159 54.570789 -0.65833092 6.25
-128.53398 54.838898 -0.62079227 6.3333335
-128.78426 30.271931 -0.055871475 7
-128.62447 30.630386 -0.28399819 7
-128.56822 34.308266 -0.14379694 7
-128.62161 36.969082 -0.2263018 7
-128.68423 50.152946 -0.33460695 7
-128.6098 54.304527 -0.21654187 7.6688333
-128.64154 54.675133 -0.18830322 7.6019521
-128.57994 55.007557 -0.22426909 7.3761001
-128.66429 55.297264 -0.13983744 7.7284999
-128.60649 50.147934 0.18789433 8
-128.60823 53.527073 0.22308272 8.0124998
-128.50986 53.824295 0.13961405 8.0105
-128.58969 54.267242 0.011501272 8.0539999
-128.60683 54.653534 0.22462128 8.5119867
-128.55998 55.057735 0.20206213 8.4268322
-128.62567 55.265617 0.18343434 8.3716335
-128.56677 33.96912 0.7181707 8.0810003
-128.64447 36.15295 0.54943955 8.0815001
-128.64659 36.852303 0.53554296 8.0906248
-128.44818 37.753799 0.63665676 8.0914993
-128.65689 53.830132 0.71961594 10.051624
-128.67369 54.392014 0.67030817 10.0445
-128.62868 54.632435 0.62596118 9.6531944
-128.6723 55.081379 0.58343178 9.1608334
-128.59737 55.341988 0.55832171 9.2998009
-128.49915 55.828243 0.71775764 8.0955
-128.64204 36.158939 0.80883348 8.0734997
-128.77034 36.911816 0.83682895 8.0415001
-128.78162 40.720356 0.95021206 8.0939999
-128.59727 47.481583 0.91296947 8.7954292
-128.74869 47.776012 0.95504999 9.0839996
-128.72043 48.014137 1.0119125 9.0844994
-128.50266 53.449963 0.90975565 10.058375
-128.56538 53.841042 0.89641893 10.085251
-128.54459 54.56778 0.94473958 10.272571
-128.64214 55.08321 0.93381435 9.9371061
-128.60713 55.38459 1.0146453 10.127084
-128.59055 55.814552 1.0705144 10.817544
-128.46075 56.032925 1.0461252 11.535335
-128.6338 39.613396 1.5199473 9.0565004
-128.70911 47.328403 1.5488137 10.083
-128.67593 47.707775 1.4322566 9.2549162
-128.66678 48.092091 1.4485676 10.064501
-128.5546 50.956104 1.5068674 11.0535
-128.54033 52.94315 1.2289866 11.04775
-128.64156 53.38047 1.2719867 11.036
-128.6842 53.881485 1.4662588 9.5942497
-128.71419 54.221542 1.4655083 12.062833
-128.58882 54.672955 1.3543805 10.2612
-128.59296 54.999531 1.3482624 10.910269
-128.56326 55.352226 1.4479785 11.464796
-128.64124 55.87331 1.3227124 11.323175
-128.61903 56.022575 1.2867748 12.254
-128.64363 46.933861 1.6491799 10.075251
-128.61266 47.368069 1.7729214 9.3421249
-128.69998 47.746746 1.7800605 9.59025
-128.55429 53.9846 1.9108791 11.255666
-128.54872 54.207397 1.903391 10.907084
-128.47751 54.541149 1.7505836 12.069
-128.54124 55.445187 1.707744 11.997308
-128.55667 55.658512 1.7980877 12.672668
-128.59015 41.113159 2.3593416 9.0939999
-128.50435 41.324116 2.3827384 9.0939999
-128.60841 47.26136 2.0221424 9.0959997
-128.50111 54.288254 2.1027522 12.820188
-128.68352 54.467297 2.0521722 12.821812
-128.5369 41.376961 2.6934125 9.0944996
-128.45102 41.837662 2.6590214 9.0950003
-128.46492 39.892788 3.0691907 9.0939999
-128.7827 40.094784 3.1440084 9.0939999
-128.79063 40.443501 3.0108051 9.0939999
-128.74722 41.030361 3.1676781 11.072001
-128.50473 41.635433 3.1440711 11.0775
-128.50926 39.764751 3.4757488 10.58675
-128.55579 40.211918 3.353524 10.336124
-128.73936 39.996784 3.9571099 11.0275
-128.55978 40.215786 3.8731577 10.2916
-128.63588 39.963017 4.0459242 10.095
-128.66225 40.065773 4.1256304 11.568001
-128.68019 40.95171 4.048501 12.072001
-128.5616 30.520678 6.1028352 11.092
-128.69406 30.137852 6.9115238 11.02
-128.71867 30.47789 6.9423494 11.0195
-128.63075 30.988544 7.4913421 12.027
-128.68945 31.272297 7.4616833 10.51375
-128.53445 31.047476 7.973525 12.0895
-128.79587 31.637268 7.838985 11.0155
-128.71866 30.58316 8.142787 12.58475
-128.59067 31.142273 8.1988115 13.693166
-128.59843 31.334082 8.1244612 13.53995
-128.48633 31.771296 8.0917807 14.0645
-128.53987 30.587511 8.5603418 13.0835
-128.54565 31.035755 8.6608372 13.664099
-128.62698 31.369993 8.4425249 13.08325
-128.58984 30.972309 9.010581 12.59025
-128.66782 31.409304 9.048604 14.021
-128.5994 31.623247 9.1469116 14.0815
-128.60629 31.145933 9.2392187 14.07
-128.61969 31.358606 9.3483372 15.017833
-128.63715 31.695623 9.2485819 14
-128.12691 55.499165 -2.5091178 6
-128.3007 55.872547 -2.4590635 6
-128.10065 55.475189 -2.2941871 6
-128.17595 59.962646 -2.0791202 4.5
-128.22209 46.385555 -1.6841813 6
-128.18179 47.050243 -1.7592429 6
-128.04852 48.666187 -1.6535794 6
-128.2757 50.953716 -1.6236976 5
-128.21503 52.047176 -1.6819952 5
-128.20923 52.759304 -1.7416413 5
-128.21236 53.035603 -1.7380826 5
-128.14302 53.235485 -1.7277303 5
-128.23955 53.770649 -1.7182564 5
-128.17157 54.10252 -1.6878132 4.3333335
-128.17212 54.648945 -1.7043681 3.7142856
-128.26894 55.074574 -1.6741527 3.4285715
-128.2249 55.402924 -1.6386079 3.3333333
-128.16475 55.786797 -1.739448 4.2857141
-128.10953 56.178841 -1.7374588 2.6923077
-128.27376 56.500713 -1.765783 4.2857141
-128.16168 56.966568 -1.7767661 3.3333333
-128.21088 57.392075 -1.7907733 1.4545455
-128.15823 57.813385 -1.8289762 2.2727273
-128.22693 58.171116 -1.8306407 2
-128.2632 58.502377 -1.8099062 3
-128.12215 59.088615 -1.8620288 2.8333333
-128.24457 59.346859 -1.9056014 2.6666667
-128.16797 59.739056 -1.9076408 2
-128.33559 33.895451 -1.2710716 7
-128.36359 36.041355 -1.285515 6
-128.15161 38.595486 -1.265082 7
-128.38261 39.794052 -1.3260072 6
-128.05214 41.494808 -1.2291497 7
-128.17239 44.413319 -1.329492 6
-128.13019 45.027248 -1.4341278 6.5
-128.09911 46.167301 -1.3913102 6
-128.14708 47.058426 -1.3214394 6
-128.17238 47.411243 -1.3946005 5.125
-128.1996 47.871235 -1.4129754 5.1999998
-128.12033 48.208252 -1.5068148 6
-128.21678 48.673569 -1.3662089 5.5294118
-128.18355 48.992794 -1.4887891 5
-128.16537 49.286549 -1.3732771 5.5
-128.26299 49.781879 -1.4035146 6
-128.39307 50.046757 -1.5564476 5
-128.10765 50.536572 -1.3834263 5.6666665
-128.18504 51.21595 -1.3760093 5
-128.15102 52.191986 -1.5072391 4.4545455
-128.10297 52.671001 -1.5316225 4
-128.12361 53.107269 -1.5385007 4
-128.29805 53.44894 -1.4407607 5
-128.15573 53.807438 -1.5310043 4
-128.2858 54.135647 -1.5565385 4
-128.09694 54.660282 -1.5374529 4.5
-128.2448 54.941696 -1.5712061 3.6666667
-128.33849 30.991299 -0.844028 7
-128.34526 36.128902 -1.0429069 6
-128.20187 36.527496 -0.93991315 6.6666665
-128.01382 37.141113 -1.0906883 6
-128.22612 38.88134 -1.0553286 6
-128.16486 40.115387 -1.0677155 6
-128.27336 40.816769 -1.064358 6
-128.08794 41.527248 -1.1974607 7
-128.1192 42.326134 -1.0327679 6
-128.24236 43.155876 -1.0646815 6
-128.0276 43.626698 -1.1481665 6
-128.11888 44.254547 -1.1487442 6.6666665
-128.25229 54.298534 -1.0878968 7
-128.36632 30.08637 -0.54749089 7
-128.12975 30.69245 -0.7671935 7
-128.2012 33.762638 -0.57068247 7
-128.18204 34.178432 -0.44974679 7
-128.39745 54.125183 -0.43717071 7
-128.00963 54.448914 -0.40692118 7
-128.15627 54.984455 -0.50908697 7
-128.27257 30.360117 -0.17838919 7
-128.2558 30.604805 -0.20303425 7
-128.24284 33.937901 -0.37922189 7
-128.26309 36.622646 -0.26715595 7
-128.24039 54.336998 -0.11413831 8.0859175
-128.1765 54.621769 -0.31239694 7.1360626
-128.18083 54.990547 -0.19930071 7.5323024
-128.18834 55.234589 -0.056048181 8.0621872
-128.07384 36.154041 0.33556008 8.0892506
-128.33896 49.658298 0.19594517 8.0775003
-128.3364 52.771095 0.16482215 8.0109997
-128.27223 52.958717 0.093928225 8.0100002
-128.3582 53.500603 0.23818418 8.0123329
-128.10274 54.182678 0.12821011 8.1025419
-128.19632 54.625351 0.24650502 8.6784096
-128.24344 55.043495 0.15728861 8.3884907
-128.25891 55.299992 0.25206313 8.7229109
-128.04767 55.601379 0.31453025 9.033
-128.0396 35.976696 0.50847119 8.0810003
-128.1859 36.083302 0.61620742 8.0860004
-128.33118 36.505535 0.77021462 8.0769997
-128.2505 37.774242 0.76991451 8.0419998
-128.16179 47.445614 0.69517821 8.7298326
-128.12852 50.690907 0.66599029 9.0473003
-128.29176 50.869968 0.74087346 9.0340004
-128.14198 54.225689 0.63633084 9.3949165
-128.16275 54.705944 0.6851154 9.961875
-128.27348 54.983986 0.58585232 9.3152189
-128.24406 55.354523 0.56407988 9.4880323
-128.16069 55.770702 0.70614302 9.5757504
-128.19373 56.070305 0.75485814 10.53225
-128.13556 30.713961 1.023031 8.0695
-128.07478 37.797886 0.93865645 8.0889997
-128.28889 39.769733 0.85795784 8.0255003
-128.39774 47.34515 0.82117134 9.0845003
-128.12729 47.808037 1.0840621 9.0844994
-128.25781 50.777981 1.0891697 10.0425
-128.26173 50.889671 1.1258111 10.046201
-128.03946 51.709728 0.9709838 10.06
-128.11032 52.714214 0.88191646 10.04
-128.1797 53.082653 0.88374245 10.037333
-128.2106 53.449821 0.96569902 9.7209997
-128.17949 53.760113 1.1077591 9.0124998
-128.27446 54.117268 1.1207006 10.025249
-128.15576 54.640781 1.1753199 9.0094995
-128.17343 55.092121 1.0692604 10.708166
-128.25771 55.446289 1.0022166 10.425688
-128.20241 55.85054 1.0477784 10.693912
-128.2897 56.062366 0.96304655 11.047999
-128.18893 39.575592 1.5267102 9.0705004
-128.06055 41.010563 1.3380461 9.0839996
-128.21396 46.982796 1.5283152 9.4224997
-128.37544 50.453045 1.2031673 10.0735
-128.11971 52.53664 1.2508099 11.046
-128.06798 53.706543 1.3547118 11.03
-128.29951 54.238426 1.2693889 9.8086882
-128.17656 54.473198 1.3466997 11.042601
-128.15402 55.117954 1.2243307 11.31025
-128.27892 55.394958 1.4779873 11.07415
-128.2086 55.805923 1.3183589 11.746663
-128.14366 56.050438 1.2053754 12.0735
-128.1133 53.791786 1.9175735 11.503213
-128.33171 54.139275 1.8001102 10.67975
-128.15929 54.572247 1.667954 12.543625
-128.1667 55.017578 1.6908003 12.690666
-128.27022 55.407375 1.70693 12.264805
-128.38841 55.626587 1.6840016 12.526751
-128.39587 41.146 2.1540139 10.0525
-128.15096 41.212624 2.3654554 9.0955
-128.29596 54.186596 2.0744252 11.073501
-128.01707 41.57975 2.7795599 9.0944996
-128.2859 41.503796 3.097707 11.083
-128.1411 41.652374 2.9991162 10.55125
-128.25426 40.181057 3.4426088 10.58675
-128.23825 40.790051 3.3562014 9.0950003
-128.05058 41.037807 3.4956715 9.5932503
-128.28897 41.441444 3.3469634 10.257417
-128.28879 39.423687 3.7423239 11.082
-128.20503 40.221981 3.6213136 10.589251
-128.33379 40.74926 3.819505 10.093
-128.15712 40.907764 3.8275101 10.4885
-128.2339 40.584408 4.1455331 11.58
-128.3076 40.933712 4.1411662 12.0775
-128.04089 30.732916 4.9928002 9.0469999
-128.0056 30.828131 5.2516365 11.031
-128.18832 30.505419 5.9491248 11.091
-128.14243 30.741583 6.2960634 11.587
-128.17047 31.819418 6.6739049 11.0195
-128.35301 30.940674 7.0120077 10.721334
-128.24568 31.491598 6.9369268 10.515875
-128.31119 31.751455 6.9433656 11.0175
-128.28949 31.035608 7.3553586 13.0355
-128.29935 31.64028 7.5103974 13.033
-128.06108 31.022036 7.7037625 13.0325
-128.33028 31.58589 7.8729568 13.0305
-128.30484 31.694422 7.8374896 12.585
-128.08228 31.049067 8.1657467 11.094
-128.20288 31.373569 8.185791 11.592751
-128.23424 31.669083 8.1223583 13.722667
-128.2744 31.176916 8.7487736 12.093
-128.23103 31.363199 8.5593319 13.748166
-128.29068 31.142248 9.014431 13.091
-128.20653 31.349119 9.1672583 14.0805
-127.71854 58.940819 -2.6892912 6
-127.8316 47.093758 -2.0155699 6
-127.88128 47.752571 -2.0184791 6
-127.76351 48.49794 -2.0180588 6
-127.79338 49.14735 -2.0215037 6
-127.60133 53.261642 -2.3163302 6
-127.68629 58.793476 -2.0670404 5
-127.66364 59.457016 -2.0494635 4.5
-127.96313 59.693539 -2.0837998 5
-127.69349 43.118351 -1.7780603 6
-127.67312 46.130379 -1.6783489 6
-127.7402 46.647514 -1.8296907 6
-127.64051 47.34549 -1.9579169 6
-127.85577 47.885208 -1.9618258 6
-127.73341 48.633411 -1.8947811 6
-127.79349 50.747002 -1.6076601 5
-127.62727 50.920303 -1.6300207 5
-127.82899 51.738144 -1.6825163 5
-127.92117 52.558758 -1.781971 5
-127.74097 53.3214 -1.7091774 4.3333335
-127.85947 53.747105 -1.6532363 4.1428571
-127.72379 54.352215 -1.7030122 4
-127.79989 54.690571 -1.6451278 3.5
-127.81814 54.945286 -1.6633632 3.6363637
-127.86549 55.410519 -1.6650738 3.8333333
-127.7372 55.782074 -1.7404578 4
-127.78175 56.193428 -1.7615666 2.8571429
-127.86002 56.614681 -1.7431223 3.3
-127.81732 57.012459 -1.7720953 4
-127.78297 57.395851 -1.7891793 1.9411764
-127.82448 57.731216 -1.8008913 2
-127.80802 58.176071 -1.8191712 2.0769231
-127.81598 58.636745 -1.8924332 2.75
-127.77473 58.909103 -1.9207791 2.4000001
-127.81153 59.365891 -1.8649664 3.2857144
-127.67536 59.762863 -1.9260203 1.5
-127.86812 35.191093 -1.2500136 6
-127.79994 35.895638 -1.2941412 6
-127.79372 36.091827 -1.2924972 6
-127.78826 41.90699 -1.4000332 6
-127.85416 44.910519 -1.3491915 6
-127.80676 46.026752 -1.3909625 7
-127.90219 46.729115 -1.3700042 6
-127.73055 47.159718 -1.4076415 5.3333335
-127.81503 47.320915 -1.412038 5.125
-127.79818 47.793091 -1.5031612 5.4000001
-127.98128 48.378979 -1.4461597 5
-127.73462 48.55183 -1.503316 5.3333335
-127.77097 48.904404 -1.3768669 5.25
-127.76958 49.354599 -1.3883615 5.25
-127.87491 49.811367 -1.4924668 5
-127.80045 50.650578 -1.3938426 5.6666665
-127.91069 51.078194 -1.4636445 7
-127.82464 52.219948 -1.5353308 4.181818
-127.71002 52.651192 -1.5505775 4
-127.79677 53.023308 -1.5608835 4
-127.68166 53.213966 -1.5553671 4
-127.7991 53.676666 -1.5195931 4
-127.81702 54.528671 -1.5429294 4
-127.74116 33.163204 -0.91934377 7
-127.97858 35.152172 -0.99801409 7
-127.98423 36.155746 -1.0852605 6
-127.69647 37.193962 -1.045953 6
-127.88378 39.751297 -1.0363095 7
-127.75629 40.980206 -1.1057998 6.3333335
-127.90214 41.369354 -1.1053433 7
-127.95123 42.114223 -1.1045673 7
-127.74962 42.512226 -1.090636 6.5
-127.89445 43.352364 -1.0869253 6
-127.70782 43.943634 -1.1671466 6
-127.80995 44.592934 -1.1002311 6
-127.902 30.739107 -0.5607245 7
-127.97893 54.672047 -0.50619102 7
-127.78453 54.893116 -0.46827152 7
-127.90248 30.246492 -0.080003023 7
-127.71804 54.254677 -0.0083286744 8.041667
-127.96362 54.478512 -0.27239749 7.3631668
-127.89926 54.991047 -0.20565832 7.6308827
-127.95787 49.093678 0.1922805 8.0810003
-127.73913 50.987633 0.13010988 8.0518751
-127.7422 54.258755 0.058855698 8.025651
-127.81164 54.560116 0.26431403 8.6270828
-127.8747 54.963848 0.21138154 8.3976936
-127.82617 55.377842 0.22556046 8.7161341
-127.8802 55.682095 0.2804063 9.0350838
-127.99481 34.219574 0.65901911 8.0815001
-127.76986 35.883171 0.79391092 8.066
-127.82029 36.286335 0.54927826 8.0943327
-127.93695 36.414841 0.66413003 8.092
-127.78786 41.048206 0.580419 8.0950003
-127.74474 41.973984 0.40155038 8.0939999
-127.65768 50.636101 0.68361562 9.0375004
-127.85278 51.0289 0.64793438 9.0380001
-127.77173 51.606651 0.75496036 9.0290003
-127.71561 53.954288 0.49407953 9.0284996
-127.90221 54.383518 0.65452695 10.043
-127.81385 54.572418 0.59274811 9.6168575
-127.81442 54.925865 0.52961618 9.5947294
-127.84814 55.628181 0.44864511 9.0895004
-127.62138 30.586439 1.0238034 8.0655003
-127.78823 30.849497 0.97097319 8.0459995
-127.81345 31.991873 0.87479055 8.0495005
-127.86862 35.957054 0.91609722 8.085
-127.95291 39.594021 1.1828135 8.0939999
-127.73697 50.077747 1.1967816 10.0395
-127.72572 51.446983 1.0624211 10.042125
-127.8279 51.762905 1.0122405 10.03875
-127.82679 52.71014 1.0892125 10.0875
-127.77439 53.766094 1.0380774 10.470358
-127.72462 54.272118 1.0709364 9.2791252
-127.78495 54.659775 1.0149479 10.403187
-127.87475 55.023994 1.0939219 11.065374
-127.83327 55.427402 1.0388539 10.988707
-127.79268 55.73724 1.0200304 11.109739
-127.81431 32.854576 1.3144004 7
-127.76154 42.198963 1.2953222 9.0636663
-127.78127 51.074368 1.4822769 11.0435
-127.71782 51.42218 1.3992138 11.0555
-127.87666 53.369232 1.3043498 11.046125
-127.95942 53.616467 1.3033214 11.0325
-127.74324 54.220043 1.4739192 11.530167
-127.70663 54.70187 1.405226 11.545834
-127.88417 54.921749 1.3392707 11.079166
-127.93126 55.404938 1.2911217 11.061213
-127.8473 55.822212 1.2896756 11.169626
-127.78109 51.010376 1.6095296 11.037
-127.8417 53.27417 1.6925066 12.0715
-127.68889 53.859867 1.8460333 12.053875
-127.78139 54.184471 1.8201479 12.767455
-127.97713 54.559822 1.6182785 12.061501
-127.68596 41.974457 2.245321 9.5904999
-127.74202 42.536674 2.2898715 9.0944996
-127.84386 54.21357 2.0659184 13.501057
-127.92905 41.507427 2.6774402 9.0947495
-127.86342 42.03614 2.5131633 9.5885
-127.86847 41.434467 3.0161724 9.889699
-127.86777 41.70953 3.015353 9.4263334
-127.91229 40.731125 3.4366941 11.0825
-127.71556 40.942684 3.5336142 10.754167
-127.78591 41.49807 3.3352311 10.34025
-127.71346 41.759117 3.3629172 10.09225
-127.74227 40.767971 3.7895033 10.09425
-127.86588 40.890301 3.8388901 10.687
-127.71005 41.34565 3.8310621 12.041
-127.85471 41.623093 3.8006616 11.082251
-127.80626 40.944717 4.088521 11.584
-127.94989 41.33493 4.0534434 12.078
-127.82688 31.469067 7.7583694 13.056499
-127.96049 31.776045 7.6414194 13.0315
-127.83669 31.15098 8.1390133 14.042
-127.8966 31.48786 8.1337872 13.317499
-127.86128 31.651022 8.2234974 13.02775
-127.81062 31.63134 8.5486927 13.5845
-127.41538 53.755814 -2.4584103 6
-127.23561 46.776085 -2.0007842 6
-127.41142 52.702 -2.3036005 6
-127.20675 53.277485 -2.112329 6
-127.30453 54.004574 -2.3157451 6
-127.5749 54.4072 -2.3301129 6
-127.26846 58.388218 -2.0466659 5
-127.2172 58.683556 -2.0157845 4
-127.42711 59.129856 -2.0216093 4
-127.31961 59.840965 -2.0026219 3
-127.35427 46.238625 -1.8228915 6
-127.21888 50.903004 -1.6240867 5
-127.40099 51.389175 -1.6844925 5
-127.20694 51.864983 -1.7387127 5
-127.37959 52.233963 -1.7739398 5
-127.4475 52.579559 -1.7120376 4.5
-127.39211 53.139851 -1.7127975 4.3333335
-127.45824 53.355381 -1.649291 4
-127.35186 53.933105 -1.6048121 4
-127.59644 54.181648 -1.8475193 5
-127.46652 54.69894 -1.6614348 3.2
-127.39837 54.980782 -1.6638854 3.5714285
-127.45734 55.424355 -1.6965309 3
-127.35232 55.766243 -1.7143643 3.8333333
-127.43924 56.24176 -1.7479801 2.8
-127.42377 56.594727 -1.7726738 3.2142856
-127.43061 56.927326 -1.7283844 3.8
-127.39214 57.389133 -1.8095291 2.0833333
-127.40475 57.731323 -1.8254093 2.375
-127.39224 58.190048 -1.8536102 2.3076923
-127.32472 58.529018 -1.8436466 4.5
-127.32831 58.87973 -1.883297 2.5
-127.40921 59.481056 -1.8806794 3.75
-127.33546 59.696877 -1.9220506 1
-127.46818 35.306622 -1.3074664 6
-127.22551 38.004951 -1.206611 6
-127.43231 39.493736 -1.2635366 7
-127.26215 40.418369 -1.3241614 6
-127.28139 41.672413 -1.3069011 6.5
-127.58002 43.20649 -1.4440831 6
-127.4977 45.30658 -1.3744413 6
-127.31973 46.616371 -1.3927147 6
-127.32227 47.099899 -1.3317389 6
-127.44087 47.414345 -1.4826484 5.5714288
-127.36105 47.818386 -1.4583031 5.5
-127.363 48.009033 -1.4239548 5
-127.5654 48.715736 -1.3981557 6
-127.38348 48.944031 -1.3688658 5.5
-127.36238 49.356781 -1.4131366 5
-127.43269 49.786041 -1.4193486 6
-127.47094 50.648369 -1.3676404 5.5
-127.38386 51.002815 -1.4157612 5.5
-127.51591 51.385109 -1.4817172 6
-127.41174 52.226349 -1.5538648 4.4285712
-127.26202 52.674946 -1.5508987 4.3333335
-127.47726 52.913826 -1.5829797 4
-127.38395 53.250053 -1.5785327 4
-127.51395 53.680771 -1.5469073 4
-127.35168 54.017242 -1.4743927 4
-127.36494 54.752777 -1.5759547 4
-127.3802 34.129944 -0.89566809 7
-127.57965 37.968357 -1.0183046 7
-127.409 38.108936 -1.0764714 6
-127.323 38.968636 -1.0728598 6
-127.32346 40.648632 -1.07937 6.3333335
-127.28532 41.389481 -1.1008732 6
-127.34508 42.08931 -1.1136627 7
-127.25806 42.656956 -1.1109593 6.6666665
-127.39766 42.816868 -1.0876508 6
-127.56277 43.584782 -1.1073802 6
-127.35098 44.095421 -1.1935334 6
-127.28829 50.794563 -0.40726656 7
-127.34513 50.639492 -0.39127833 7
-127.50156 54.241173 -0.038092885 8.0985003
-127.48005 54.749321 -0.006445949 8.0074997
-127.53876 54.958321 -0.11401656 8.0065002
-127.23574 50.721546 0.076792151 8.0493336
-127.32079 51.080139 0.1143996 8.0466251
-127.23373 51.842224 0.20311488 8.0249996
-127.49314 54.269196 0.1080565 8.1714382
-127.48667 54.512337 0.10129742 8.1430492
-127.5237 54.862843 0.33953071 9.1387501
-127.30591 36.741123 0.70777804 8.0820007
-127.31632 40.535385 0.62875152 8.0947495
-127.46049 42.121449 0.62813038 8.0955
-127.23493 45.432098 0.4727053 8.0949993
-127.53796 49.859421 0.70743591 9.04
-127.57227 50.775322 0.60758758 9.04175
-127.36723 50.864891 0.64760524 9.0380001
-127.45939 51.314617 0.59561104 9.0546246
-127.21631 51.754128 0.51734638 9.0206671
-127.48948 53.988388 0.77227598 10.036
-127.42341 54.040649 0.69349217 9.8201666
-127.51966 54.687149 0.42558354 9.0279999
-127.55827 54.880501 0.5076229 9.0904999
-127.50968 30.51058 0.99148214 8.0699997
-127.38821 31.405249 0.87862414 8.0500002
-127.38501 42.64011 0.91849965 8.5892506
-127.46463 50.294739 1.1216434 10.042
-127.4032 50.779053 1.0947837 10.04
-127.42059 51.09322 1.0522563 10.066667
-127.46692 51.422871 0.96650302 9.6653004
-127.49532 53.861115 1.0792587 10.939275
-127.41912 54.010643 1.0694915 10.026751
-127.5465 54.691284 1.1089911 9.0105
-127.57645 55.188206 1.0911088 10.0895
-127.53992 55.329803 1.1108069 10.575687
-127.50494 55.696167 1.0664256 10.696969
-127.32689 41.904892 1.4713324 9.0830002
-127.4587 51.189007 1.4089344 11.0515
-127.54443 51.278515 1.4552244 11.043375
-127.29818 51.769432 1.3647842 11.04672
-127.54952 53.776688 1.4997253 12.0385
-127.44995 54.111786 1.3675655 11.769249
-127.55135 54.662724 1.4035265 9.099
-127.35574 53.967705 1.8835104 12.04575
-127.43839 54.09153 1.8029326 12.198143
-127.57619 42.500069 2.3423443 9.0942497
-127.40069 50.746281 2.0095522 12.042
-127.4275 54.185593 2.0536058 13.065302
-127.58456 41.910011 2.6693828 9.0950003
-127.45733 42.113552 2.6501496 9.0955
-127.48714 42.613949 2.4442017 10.083
-127.54086 41.486229 3.0261016 10.089
-127.3158 41.807758 3.0405502 10.58725
-127.21146 42.141365 2.9623859 11.084
-127.46398 41.349358 3.3657887 10.404583
-127.33163 40.557213 3.8049839 9.7384996
-127.53607 40.948456 3.8553286 10.0955
-127.43841 41.403797 3.7476113 11.461901
-127.52491 41.644932 3.9084213 12.0755
-127.4724 39.835339 4.2512512 10.758334
-127.50232 40.302605 4.1669822 11.09
-127.3689 40.429554 4.1421671 10.0965
-127.36172 40.973488 4.1012726 12.080999
-127.37347 41.405327 4.0732923 11.0865
-127.21672 39.869942 4.4933872 11.09
-127.21724 31.208735 8.3620605 14.0805
-127.12513 58.721386 -2.8342373 6
-127.10825 53.207993 -2.440629 6
-127.03059 54.543877 -2.455611 6
-126.97609 55.206284 -2.4633152 6
-127.01305 55.628677 -2.4097874 6
-127.16527 58.401306 -2.6571603 6
-126.9417 52.266563 -2.2836502 6
-126.94197 52.790878 -2.0997777 6
-126.82197 53.05901 -2.3694634 6
-127.07829 53.915817 -2.1151149 6
-126.99107 54.078346 -2.2410624 6
-127.11157 55.050674 -2.1294065 6
-126.94563 55.268326 -2.2531726 6
-127.06742 55.628906 -2.1355376 6
-126.94011 58.141045 -2.0313954 5
-126.86288 46.101463 -1.6685531 6
-127.05438 47.053234 -1.9462107 6
-126.87225 50.919304 -1.66048 6
-127.0979 51.323742 -1.6804428 5
-126.99326 51.969685 -1.8110447 5
-126.84753 52.278568 -1.6014322 4
-126.98559 52.658981 -1.6122425 4
-127.03973 52.962498 -1.7177279 4.3333335
-127.01362 53.325882 -1.6058706 4
-126.94988 53.844139 -1.7175908 4
-127.03143 54.635113 -1.705294 3.3636363
-126.93383 54.982544 -1.6735805 3.375
-127.08388 55.416416 -1.7262173 3.5
-127.12592 55.894955 -1.7389809 3
-127.02589 56.255978 -1.7624202 2.7777777
-127.02023 56.618633 -1.744482 3.5714285
-127.01154 57.025204 -1.7771777 3.8888888
-126.98754 57.357346 -1.8150086 2.2307692
-126.94813 57.78194 -1.8463677 2.0833333
-126.97945 58.170368 -1.8839319 1.75
-126.95594 58.625984 -1.8684506 3.8571429
-127.05373 59.096317 -1.8843325 3
-127.00413 59.458378 -1.9385389 3.1428571
-127.1555 59.856647 -1.9445944 2.3333333
-126.86201 36.219215 -1.250684 6
-126.89571 38.603081 -1.2424508 6
-127.19221 41.583553 -1.2412663 7
-127.17825 42.878506 -1.4463055 6
-127.10068 44.145302 -1.2110592 6.6666665
-127.17715 45.73698 -1.3962884 6
-126.89054 46.209133 -1.408937 6.3333335
-126.82526 46.694862 -1.5812899 6
-127.07129 47.065174 -1.5110314 6
-126.98043 47.255394 -1.4551165 5
-126.94748 47.839363 -1.4395421 5.1666665
-126.97202 48.187366 -1.4539162 5.1666665
-126.83521 48.793518 -1.516299 5
-127.05355 48.994698 -1.4041575 5.25
-127.0472 49.238724 -1.4342583 6
-127.05486 49.743767 -1.426054 5.5
-126.93671 50.732967 -1.3564318 5.3076925
-127.05676 51.158829 -1.4463838 6
-126.95744 51.418247 -1.5008776 6
-126.93994 51.715343 -1.4698365 5
-127.01051 52.227005 -1.583351 4.4000001
-126.80917 52.496696 -1.5218632 5.5
-126.90936 52.993145 -1.5825338 4
-126.99776 53.893211 -1.5804693 4
-127.12106 35.079205 -1.0211766 7
-126.84774 36.466537 -1.0892655 6
-126.89317 40.231815 -1.011536 6.3333335
-126.91997 40.441006 -1.0904455 6
-126.98429 40.932053 -1.115602 6
-126.94637 41.435471 -1.1369786 6.5
-127.05557 43.002842 -1.109512 6
-127.01408 43.712482 -1.1480726 6
-126.90855 45.404053 -1.1555759 6
-126.95267 50.734451 -0.89406788 6.0999999
-126.9594 50.763744 -0.74412632 6.5
-126.8587 51.073277 -0.46037912 7
-126.96875 40.114609 -0.36106184 7
-127.06889 50.74094 -0.33273152 7
-127.05767 50.872398 -0.31018224 7
-127.1723 41.385426 0.38843498 8.0959997
-126.89141 45.102852 0.28155467 8.0890007
-126.99616 45.408375 0.34400484 8.0898752
-126.8492 45.62001 0.3441613 8.0699997
-126.80074 46.082676 0.27139476 8.0939999
-126.84646 50.070343 0.16236129 8.0415001
-126.93792 50.72913 0.16009167 8.0389996
-127.02612 51.07584 0.0947804 8.0450716
-126.80948 51.856003 0.12414897 8.0365
-127.07608 54.151085 0.12333903 8.0115004
-126.89706 35.963547 0.64235657 8.0819998
-127.06177 36.71294 0.59493583 8.0930004
-127.01865 39.501877 0.56860226 8.0930004
-126.98722 40.130474 0.52151471 8.0671663
-126.99165 41.035328 0.50638402 8.0943327
-127.07063 41.394524 0.5262593 8.0926247
-126.91527 41.789253 0.55271655 8.0923996
-126.84257 42.579826 0.7962482 8.0944996
-126.91958 45.729481 0.60763448 8.0944996
-127.08273 51.498466 0.53507739 9.0214996
-127.06211 51.787434 0.49724385 9.0303164
-127.17827 32.826439 1.0507798 7
-126.98078 42.670147 0.92749387 8.2950001
-127.19861 45.889027 0.99161166 9.0775003
-126.90788 50.29884 1.0399982 10.0485
-127.0295 50.446526 1.0695082 10.0615
-126.96069 50.990864 1.0284441 10.059667
-126.94928 51.274895 0.96467072 10.050249
