# .PCD v0.7 - Point Cloud Data file format
VERSION 0.7
FIELDS x y z intensity
SIZE 4 4 4 4
TYPE F F F F
COUNT 1 1 1 1
WIDTH 847
HEIGHT 1
VIEWPOINT 0 0 0 1 0 0 0
POINTS 847
DATA ascii
-179.88737 14.789613 7.1471839 9.1125002
-179.42885 12.70735 3.2405541 8.0699997
-179.36386 3.3415895 4.8825679 8.0959997
-172.42795 29.854246 2.2358792 8.0670004
-172.40152 29.902376 4.3219295 9.0670004
-172.49622 12.124352 10.312234 11.146
-171.50377 22.825825 4.6778479 9.0690002
-171.28421 3.1642072 7.9280086 10.1325
-171.54216 7.5800591 8.0013332 10.1305
-170.92741 24.216763 4.3535166 9.0690002
-169.15268 9.5830755 9.7194586 11.1415
-167.29129 26.352964 1.7363665 8.0705004
-167.40588 28.350458 1.8452899 8.0695
-167.36841 28.515585 1.6859499 8.0699997
-167.23271 27.569769 2.3689685 8.0705004
-167.31645 27.914396 2.2058163 8.0702496
-167.28955 29.257748 2.2943399 7.5349998
-167.41245 29.692171 2.1430283 8.0697498
-167.41489 27.72666 2.4303944 7
-166.80299 19.493341 1.4689689 7
-166.86449 16.344534 1.9712332 8.0725002
-167.18839 24.092932 1.7886919 8.0710001
-166.99995 28.477751 1.9475025 8.0605001
-166.85031 25.336901 2.0453458 8.0614996
-167.16351 27.932795 2.2992723 7
-167.14767 28.043291 2.1140783 8.0699997
-167.01527 28.769949 2.1419878 7
-166.82098 23.40135 2.7577949 8.0600004
-166.98634 26.662542 2.687557 8.059
-166.42723 14.093144 1.9435669 8.0734997
-166.44318 6.5647974 2.1714108 8.0742502
-166.57645 10.129586 2.0840452 8.0737495
-166.72043 13.365698 2.0416012 8.073
-166.55513 18.317381 2.3392155 8.0675001
-166.79755 19.162447 2.3550339 8.0710001
-166.62285 20.178696 2.2425556 8.0650005
-166.4677 11.02395 2.7266879 8.0740004
-166.50418 13.571092 2.6631882 8.0749998
-166.53888 13.667253 2.62955 8.0734997
-166.61507 14.591374 2.5124009 8.0719995
-166.65169 15.993704 2.5744801 8.0745001
-166.56169 16.117239 2.4772134 8.0704994
-166.71594 16.934778 2.4317214 8.0714998
-166.75473 18.379721 2.4592628 8.0725002
-166.7117 18.427237 2.4838715 8.0740004
-166.64214 19.815512 2.8364594 8.0609999
-166.71449 6.64817 9.6263628 11.1505
-166.31721 2.7613497 2.29807 8.0745001
-166.20369 6.8346376 2.0777278 8.0749998
-166.37195 15.967713 2.3422382 8.0640001
-166.29182 6.5296144 2.7928183 8.0734997
-166.05463 8.8633242 2.5728676 8.0655003
-166.21809 11.483212 2.5689609 8.0690002
-166.2722 13.754804 2.4137135 8.0644999
-166.00233 1.4575545 3.1158288 8.0769997
-166.27103 7.9672289 2.8717909 8.0760002
-166.34854 0.67505372 7.8261642 10.1535
-166.22404 0.40129942 8.0489721 10.157
-165.99763 1.5732294 5.8570228 9.1355
-165.19612 7.7044616 8.9766312 11.128
-164.40121 29.051458 4.132071 9.0719995
-164.40118 6.6301579 7.2242017 10.1365
-164.7211 7.0352983 8.8411732 11.1365
-164.42148 9.6153479 10.601048 12.131
-164.33392 5.7635312 8.7646809 11.13275
-164.03802 6.4363995 8.9836807 11.1455
-164.3878 9.5447464 10.629341 12.116
-163.61253 16.606777 5.9469709 9.1059999
-163.75827 9.5715084 7.2194262 10.12525
-163.71327 9.7829266 7.2602797 10.1305
-163.82437 10.302599 7.4478984 10.139
-163.74603 13.972046 7.3065052 10.114
-163.70953 9.5657101 8.1324883 10.1085
-163.73387 9.7172146 8.1234608 10.1085
-163.85593 8.6051407 8.8531332 11.127
-163.99048 15.66703 9.194149 11.1135
-163.55978 9.8622866 8.3285656 10.1055
-163.42755 13.540925 8.1631184 10.107
-163.49487 8.5649996 8.7951279 11.131
-163.2529 5.730073 8.8014059 11.141
-163.30579 11.814723 9.1842213 11.11
-162.87651 12.1238 7.2451444 10.125
-162.97368 6.9429231 9.1933603 11.109
-162.51469 29.088623 1.520656 8.0719995
-162.56339 28.943184 1.6816167 8.0714998
-162.59854 0.9805032 4.3311253 8.1105003
-162.74142 12.270061 7.2325506 10.129
-162.62541 16.744999 8.30797 10.106
-162.66833 7.2665176 8.5184669 11.123
-162.67285 6.2829151 8.8029671 11.145
-162.74063 4.7506394 10.533926 12.15
-162.73932 11.760883 12.983525 12.0615
-162.33105 29.096058 1.2079922 7
-162.39291 28.89817 2.4989119 8.059
-162.17033 5.6801143 8.3916473 11.1235
-162.1375 5.7761788 8.5151539 11.122
-162.02048 6.0752292 8.5028181 11.1315
-162.3161 6.9693103 8.7890882 11.1445
-162.04822 8.9527369 8.6546383 11.126
-162.2572 4.9995513 10.128666 12.141
-161.82394 1.1348487 5.49435 9.1297493
-161.62694 8.132844 7.1900959 10.1105
-161.71594 0.49423116 8.1371584 11.126
-161.93077 4.992589 8.4436626 11.132
-161.74309 6.0834532 8.6190691 11.1135
-161.69359 8.4475279 8.4586926 11.122
-161.79375 4.5120287 8.8267975 11.1105
-161.60793 5.4799013 11.353288 13.136
-161.99101 26.304922 12.492109 12.103
-161.41594 16.825308 1.7057186 8.0754995
-161.35249 16.821844 2.2734916 8.0699997
-161.27699 11.099421 2.6172783 8.0760002
-161.42455 16.934855 2.4000552 8.0749998
-161.45584 0.95982516 5.5084624 9.1240005
-161.21945 8.0475235 5.4018626 9.1149998
-161.21831 11.531408 7.1679196 10.111
-161.23793 7.1705785 7.3814797 10.108
-161.26184 4.9367738 8.3276663 11.136
-161.56784 4.7617693 8.5354795 11.114
-161.4133 5.102324 8.5412369 11.1405
-161.4043 5.5895162 8.6446953 11.1115
-161.58844 6.223238 8.4455452 11.12575
-161.38721 24.777586 8.4867191 10.104
-161.33623 8.8960114 9.0112476 11.1085
-161.45229 5.2640138 9.8773546 12.1275
-161.38147 6.1365409 9.869792 12.125
-161.26578 14.724205 14.064934 14.1235
-161.12712 10.915068 2.4772577 8.0710001
-161.01746 12.988056 5.3614173 9.1129999
-161.03772 0.48399928 5.8754845 9.1090002
-161.13733 8.2852306 6.6564274 9.0895004
-160.88242 7.5671005 6.9099174 10.115
-161.15045 11.54211 7.2359591 10.109
-161.18858 6.772171 8.3239136 11.1225
-160.87093 24.059454 8.3333721 10.104
-161.01321 5.70644 8.519124 11.14
-161.13104 11.595915 8.8346863 11.111
-161.16667 6.0984993 12.802102 14.123
-160.82961 6.3332291 13.332334 14.111
-160.81783 6.6128674 13.211434 14.113
-160.79507 4.9938941 2.8394918 8.0769997
-160.774 18.69309 4.0262728 9.0754995
-160.4328 7.7649698 5.4580936 9.1120005
-160.70064 5.8253694 7.0140119 10.112
-160.72975 7.7566161 6.9351249 10.13
-160.51613 3.0544369 8.0850506 11.124
-160.77235 23.927671 8.2612476 10.104
-160.55035 6.9492259 8.6147928 11.1105
-160.76068 5.5477729 9.7449646 12.1355
-160.52612 3.9486401 10.123339 12.1495
-160.58261 6.6053863 12.789619 14.135
-160.40619 7.0111647 13.345665 14.1105
-160.10628 17.114697 1.7274364 8.0752497
-160.29063 0.74060541 2.1541398 8.0790005
-160.0354 27.69923 2.2573221 8.0620003
-160.39761 13.293509 5.6714211 9.1064997
-160.16692 11.276898 6.5082378 9.0885
-160.28271 4.914176 8.8280926 11.108
-160.27403 5.1472979 9.8364201 12.14
-160.20164 5.2276354 9.8890104 12.1445
-160.1566 23.826942 10.388371 12.0735
-160.16765 25.969053 12.35312 12.102
-160.02232 6.478991 12.701975 14.1305
-160.31618 6.365634 12.883607 14.1155
-160.2693 7.0611644 13.13787 13.442833
-160.23895 7.298234 13.014116 14.139
-159.66248 28.136852 1.6194677 8.073
-159.68555 23.122013 2.0153084 8.0695
-159.72641 28.391403 2.3538051 8.0605001
-159.87769 0.66702986 5.4360919 9.1219997
-159.98868 8.2376146 6.3000855 9.0885
-159.8485 1.7798982 6.6950889 10.137
-159.65132 3.9127181 6.6472445 10
-159.65291 4.1240635 6.6512828 10
-159.65521 6.3873596 6.7693624 10.1345
-159.73409 24.141758 6.7716336 9.0885
-159.75124 2.2616713 7.1338067 10.15
-159.77466 8.29006 7.0256686 10.1095
-159.77159 23.988949 6.9868007 9.0885
-159.71458 4.2267952 8.1701918 11
-159.65398 4.5912929 8.17173 11.037
-159.97615 4.6437135 8.619626 11.1095
-159.60724 3.92577 9.4224348 12
-159.9754 11.825059 9.6275253 11.106
-159.71529 24.741844 10.11993 12.074
-159.61494 22.065639 10.651031 12.0755
-159.62674 23.727417 10.674399 12.0785
-159.76738 4.9317136 11.096945 13.1355
-159.98817 5.9673505 12.654816 13.108
-159.66559 6.3496399 12.528013 13.1075
-159.6669 6.6624298 12.636803 14.124001
-159.86635 6.3520856 12.803717 13.108
-159.64294 7.5448971 13.016995 13.609751
-159.73175 7.8077226 13.128803 13.1075
-159.90913 7.7960935 13.266156 13.1075
-159.82321 9.5076904 13.357952 13.107
-159.70491 8.5458012 13.70873 14.108
-159.52328 29.838753 0.62188059 7
-159.39409 16.819813 1.6930993 8.0769997
-159.56744 0.76004797 5.3428879 9.1175003
-159.34024 1.0328081 5.380713 9.1285
-159.26701 1.956722 6.6804876 10.128
-159.5004 2.3442535 6.7904968 10.114
-159.21599 4.971313 6.7382846 10
-159.51826 6.1767616 6.6421261 9.0880003
-159.56934 7.6654148 7.1681108 10.108
-159.59927 4.5335999 7.5510931 10.108
-159.40564 4.8046341 7.5739746 10.108
-159.37869 4.3998222 7.6277642 10.1075
-159.47908 4.7942772 7.8322368 10.1035
-159.46228 4.968956 7.8567209 10.1015
-159.24789 3.9689348 8.2346983 11
-159.31363 5.0444403 8.1878939 11.13725
-159.55893 6.5725899 8.0248871 10.0945
-159.29939 23.416693 8.1555462 10.1035
-159.51984 5.1088314 8.6910744 11.108
-159.48825 4.3373795 9.0521917 11.108
-159.25159 3.68206 9.4470644 12
-159.31883 4.169488 9.3983994 12
-159.28555 6.3054442 10.387819 12.107
-159.4649 6.4621334 10.337112 12.1075
-159.59966 24.818092 10.144543 12.0745
-159.20335 5.5001178 10.71277 12.1075
-159.40331 21.955673 10.586901 12.075
-159.21222 23.580204 10.570414 12.025
-159.45998 23.6572 10.516359 12.076
-159.48233 24.329311 10.54412 11.1035
-159.40544 24.411209 10.535963 11.1035
-159.3813 4.1067123 10.85415 13
-159.50389 24.521915 10.839529 11.103
-159.55795 4.3283157 12.299061 14
-159.38457 4.4562111 12.281412 14
-159.35861 5.1801167 12.344489 14.1225
-159.29018 13.879866 12.360434 13.1075
-159.47542 6.5369315 12.652284 13.785667
-159.37268 6.8150234 12.619721 14.13
-159.27371 7.305881 12.622802 14.134
-159.25137 9.9755516 13.015484 14.1285
-159.59486 8.475462 13.402726 14.1095
-159.53555 9.3635368 13.279604 13.107
-159.14273 23.647858 3.6854982 9.0749998
-158.87796 24.181309 3.8341401 9.0742502
-158.86964 24.461994 3.8025715 9.0740004
-158.82071 14.652026 4.1807084 9.0790005
-158.83267 25.100292 4.0045161 9.0740004
-159.08865 1.423717 5.2405038 9.1239996
-159.00836 1.6085542 5.3533826 9.1280003
-158.8257 6.497201 5.5487938 9.1079998
-158.81203 5.3363447 6.2966413 9.0895004
-159.03322 23.976368 6.3367209 9.0869999
-159.05765 1.5101236 6.5385265 10.124
-159.11255 2.1264491 6.7963519 10.141
-159.10402 3.2204089 6.6782427 9.0904999
-158.95859 3.7175124 6.6811414 10.129
-158.97887 5.097013 6.7055788 10
-159.01031 2.2370942 6.826612 10.1455
-159.11916 2.988975 6.8155847 10.1405
-158.83691 3.6260023 6.8022766 10.14
-158.86537 5.1431952 6.8024549 10
-159.09891 5.3519115 6.9256315 9.6968336
-159.14452 5.1712108 7.4950409 10.1075
-159.02673 5.2611613 7.5210977 10.1075
-158.90044 4.5456133 7.9726372 11
-158.80547 4.8504629 7.9756937 11
-158.87932 5.2176275 7.717968 10.099
-159.17215 7.5525699 7.6532531 10.107
-159.08043 4.0000949 8.2167521 11
-158.98737 4.2070804 8.2162905 11
-159.09894 4.6152983 8.1069326 11.028875
-158.8253 5.0231924 8.0458889 11
-159.01215 9.9466162 8.234664 11.12
-159.19325 23.508255 8.0878334 10.1035
-158.84068 4.2978296 8.5829649 11
-158.90071 4.4705935 8.4861097 11.109
-159.0578 4.4750724 9.1109047 11.108
-159.15109 15.199261 8.9269629 11.065
-158.95143 3.8179324 9.4131098 12
-158.84129 4.1476912 9.3727312 11.702667
-158.862 4.616519 9.2364092 11.108
-159.05835 3.6744304 9.6215515 12
-158.85892 4.5618982 9.9811468 12
-158.84209 8.6788435 9.6513329 12.1205
-158.85098 4.3710146 10.172946 12
-158.88628 4.4350443 10.087267 12.108
-159.19231 4.3117251 10.799605 13
-159.0526 4.4174075 10.690432 12.108
-158.81219 9.65693 10.532059 12.106
-159.07532 24.384319 10.490146 12.024
-158.92691 4.0766344 10.948516 13
-158.87238 4.5150652 10.925267 13.1155
-159.0537 5.042397 10.997263 13.13625
-159.01138 25.531132 10.838573 11.103
-158.94899 25.8311 10.926904 11.102
-159.01216 26.64629 10.956149 11.1025
-158.89111 4.6312838 11.496943 13
-158.9628 4.8534446 11.52001 13.109
-159.02313 4.893064 11.765531 13.036
-158.85031 6.8683748 12.67859 14.1145
-158.96364 13.300728 12.658846 13.105166
-158.83073 14.547627 12.652113 13.1055
-159.03401 8.070365 13.047112 13.441833
-159.05698 9.1663246 12.85762 13.61975
-158.87138 10.103911 13.116673 14.137
-158.9166 15.061994 12.943698 13.10425
-158.77686 24.713207 0.328118 7
-158.57277 14.465068 3.8005424 9
-158.59738 23.82144 3.6626966 9.0772495
-158.51492 14.647288 4.1719866 9.0545006
-158.72603 1.3727465 5.3624563 9.1140003
-158.67432 1.8248748 5.238553 9.1199999
-158.53085 2.2659032 5.3924279 9.1269999
-158.52771 2.743264 5.2506399 9.1160002
-158.79532 2.9696932 5.2082992 9.1230001
-158.60187 6.5611696 5.3827324 9.1094999
-158.55951 6.1938887 6.2146578 9.0882502
-158.55682 6.6425195 6.3540206 9.0882492
-158.44733 15.078715 6.0649142 9.0620003
-158.61119 20.957552 6.0962353 10.0755
-158.4254 23.743334 6.3719325 9.0854998
-158.74323 1.9310884 6.6034012 10.1165
-158.63058 2.1165874 6.5648608 10.1255
-158.61218 2.8921154 6.520299 10.123
-158.48793 3.7251346 6.5243983 10.1225
-158.64273 5.3462968 6.6384068 9.6356001
-158.41377 15.162967 6.5000834 10
-158.59546 5.2956071 6.8830171 9.3936663
-158.49648 6.1768765 7.1387196 10.1065
-158.5639 15.287356 6.8174396 10.0765
-158.57271 4.8532171 7.5195308 10
-158.64284 24.085711 7.229269 9.0874996
-158.54871 4.9232202 7.8689327 10.55225
-158.77032 7.9894209 7.9401941 10.1005
-158.5937 4.6012993 8.0754881 10.8183
-158.69293 5.0770597 8.11975 11
-158.41827 23.653429 8.2613497 10.103
-158.59569 4.3031168 8.4493942 11
-158.75626 4.0278425 9.1594 11.108
-158.66251 3.9635401 9.5885801 12
-158.61671 4.2704105 9.4564686 12.01925
-158.51266 4.4011636 9.3016768 12
-158.64876 4.1752377 9.7564688 12.054501
-158.62506 4.5332441 9.835618 12.05525
-158.74449 4.8384295 9.6409359 12.144
-158.7137 4.4375696 10.160174 12
-158.48555 4.1799846 10.711341 13
-158.59512 5.2247229 10.772385 13.122
-158.53104 4.1059933 10.960266 13
-158.52676 7.1449533 10.960946 12.107
-158.672 4.6891551 11.385515 13.036834
-158.60815 12.622355 11.967265 13.1095
-158.41039 4.6978841 12.126841 14
-158.44421 6.029448 12.379225 14
-158.63147 6.9634924 12.529668 13.61825
-158.55365 8.6740751 12.863887 14.1375
-158.75046 12.872527 13.191663 13.105
-158.50723 13.696086 13.341651 14.1185
-158.76918 14.088319 13.544487 14.1225
-158.33522 14.273737 3.8074152 9
-158.0354 23.448677 3.6666298 9.0752497
-158.12878 23.67803 3.7062383 9.0775003
-158.10451 14.239939 4.202548 9.0324001
-158.19144 14.510964 4.2113013 9.0254164
-158.0414 16.513987 4.0225554 9
-158.1291 23.520292 4.0835447 9.0745001
-158.34535 2.8786502 5.3510642 9.1119995
-158.3399 6.822083 5.2108626 9.1140003
-158.3166 7.3468246 5.2964664 9.0733337
-158.24318 8.628521 5.3562684 9.1084995
-158.36896 13.311453 5.3151011 9.1090002
-158.25726 1.9650501 6.6644111 10.1135
-158.2103 2.1751435 6.5579858 10.13375
-158.27353 5.5354066 6.4588618 9.0892506
-158.21577 5.9945817 6.6695123 10
-158.24237 6.2213092 6.6213284 10
-158.21062 7.307919 6.6699967 10
-158.11354 14.873674 6.661921 10
-158.01476 15.693811 6.7257328 10
-158.09727 23.859604 6.5262551 9.0861673
-158.26117 5.0549474 7.4968238 10
-158.18188 5.3820057 7.4597631 10.0535
-158.31352 4.989985 7.8789344 10.441166
-158.17801 6.1387119 7.9658399 11
-158.09334 17.278784 7.8627443 10
-158.03535 18.072056 7.8508701 10.052
-158.3656 4.7415586 8.0265503 11
-158.17802 5.0194058 8.0781918 11
-158.15756 5.2124805 8.2596045 11
-158.19867 5.8998437 8.2730656 10.54475
-158.08109 6.2273293 8.07341 11
-158.24452 23.628866 8.2632809 10.102
-158.34326 24.529451 8.2990398 10.1025
-158.00864 5.5303745 8.4256163 10.088
-158.06102 5.7693977 8.4651365 11.108
-158.06177 6.9223289 8.5402727 11
-158.21527 4.6049914 9.0818825 11.042999
-158.27768 5.255259 8.9685469 11
-158.20168 15.804336 9.1649837 11.0275
-158.22934 4.2759819 9.3778715 12.039214
-158.22107 4.6498466 9.3077068 12.024401
-158.11554 4.8639431 9.3345528 12.067249
-158.14462 5.2119408 9.57831 12.1435
-158.06235 7.1903229 9.5962677 12
-158.22569 15.793047 9.248394 11
-158.19133 4.6251335 9.7506247 12.036166
-158.19594 4.240067 10.669098 13
-158.13701 4.5585012 10.679194 12.85125
-158.35616 4.9569583 10.769511 13
-158.10553 5.9909 10.790557 13
-158.25551 4.3757749 11.003198 13
-158.15471 4.5898776 10.964338 12.6215
-158.24818 5.316998 10.980766 13.141251
-158.20375 5.8909602 11.019777 13
-158.09276 6.0668812 10.94832 12.5535
-158.1158 4.8649693 11.462301 13.108
-158.27847 5.0771451 11.701627 13.107
-158.26445 6.3167958 11.785526 13.10675
-158.34746 6.4853635 11.609303 13.108
-158.07364 13.771162 11.743455 12.105
-158.03409 4.8601627 12.10179 13
-158.03929 5.42523 12.170159 13
-158.13051 6.1730118 12.314202 14
-158.11504 6.4672337 12.299908 14
-158.2054 13.715775 12.187712 13.107
-158.00336 14.896208 12.121532 12.1045
-158.35138 7.3517575 12.453886 14.1335
-158.06879 15.046183 12.686668 13.1045
-157.70316 23.62784 3.5074167 9.0815001
-157.6436 22.767572 3.7361732 9.0769997
-157.81215 22.993862 3.6811366 9.026166
-157.95769 23.789211 3.8086731 9.0750008
-157.80035 13.351511 4.2326918 9.0795002
-157.78206 14.138689 4.2385535 9
-157.94231 14.447596 4.2779136 9
-157.83447 16.350061 4.0270209 9
-157.98595 16.428621 4.1367188 9.0775003
-157.99706 23.370108 5.8379841 10.075
-157.84146 6.8175526 6.1939468 9.0880003
-157.76851 7.6494765 6.2218361 9.0874996
-157.68767 24.393114 6.3652167 9.0865002
-157.83418 0.24616411 6.6297922 10.1415
-157.7372 0.41175047 6.6612992 10.146
-157.77582 6.1577735 6.6336236 10
-157.79359 7.6616912 6.4788871 9.0885
-157.71062 15.543497 6.6428752 10
-157.87178 15.761642 6.6348248 10.020375
-157.67122 23.940989 6.6585736 9.0880003
-157.69191 24.124037 6.5674644 9.0860004
-157.96201 25.134527 6.5691609 9.085
-157.73103 6.4127536 6.9705005 10
-157.84288 17.408831 6.990962 9.0885
-157.74727 23.917048 6.8507791 9.0874996
-157.75761 6.3366656 7.4090085 10.053249
-157.74649 5.156095 7.8688293 10.094
-157.82344 5.4530888 7.8769755 10.6405
-157.83553 6.1819739 7.8538723 10.738999
-157.70122 6.4157577 7.9265261 11
-157.68457 15.864931 7.6965661 10.1035
-157.94658 17.44599 7.856391 10
-157.82733 18.163568 7.8717828 10
-157.72893 24.437624 7.9700618 11.0745
-157.69276 24.95579 7.794507 11
-157.89658 5.2873154 8.1004715 10.5455
-157.81737 5.8184624 8.2466908 11.1095
-157.8401 6.208055 8.2006941 11
-157.71678 6.8101726 8.0621233 11
-157.62411 24.066683 8.2802706 11.0815
-157.85646 5.9886703 8.4627628 11
-157.77274 6.1994586 8.5138664 11
-157.67767 6.5343871 8.5712414 11
-157.80553 4.5665054 9.1284533 11.035832
-157.6479 4.933435 8.940896 11.107
-157.76834 5.8935485 8.8778715 10.54375
-157.8437 15.323015 9.1049585 11
-157.81516 4.2805862 9.3393936 12
-157.75725 4.6167488 9.3923302 11.892072
-157.72136 5.040309 9.3903408 12
-157.8078 5.8431363 9.393549 12
-157.83398 7.4973297 9.2455673 11.053249
-157.99971 11.589533 9.5779638 11.1055
-157.75668 15.404952 9.2481337 11
-157.93797 15.72397 9.2529202 11
-157.66032 4.5972018 9.6091108 12
-157.70625 5.942275 9.7626162 12
-157.62334 6.1827855 9.7901497 12
-157.9761 8.7329693 9.8704653 12.1105
-157.63867 13.509012 9.9962721 10.07
-157.70297 5.3515677 10.051842 12.10675
-157.79955 6.360435 10.114755 12
-157.67043 6.4389148 10.104845 12
-157.90001 4.6236277 10.629526 12.242999
-157.84062 5.0053506 10.639611 12.783625
-157.74457 5.2919097 10.590479 12.107
-157.80672 5.9960194 10.573541 12
-157.71669 6.2334542 10.6873 12.530251
-157.82494 4.6335902 10.880432 12.25
-157.60052 5.0139098 10.858802 12
-157.86014 6.27068 10.984417 12.602644
-157.71095 6.61974 11.00264 13.12825
-157.77155 6.1932521 11.500586 13
-157.84543 6.4405975 11.295864 13
-157.85202 13.183105 11.511591 12.105
-157.65962 13.239412 11.565479 12.105
-157.71442 16.470522 11.565317 12.1035
-157.76836 6.7497644 11.712239 13
-157.84575 7.0722733 11.601429 13.1075
-157.92567 13.106666 11.776584 12.775167
-157.74197 13.229113 11.640866 12.105
-157.93867 4.995657 12.103162 13
-157.86407 5.5624256 12.114461 14.1215
-157.97408 5.8862877 12.26475 14.1255
-157.82391 6.2077923 12.225996 13.333333
-157.71954 6.5916977 12.288707 13.373668
-157.713 8.3493958 12.004796 13.1055
-157.64191 14.173876 12.017319 13.1085
-157.83594 16.261131 12.068695 13.1105
-157.81676 6.6975327 12.470125 14.114
-157.85358 8.0249996 12.453093 13.106
-157.68985 16.073757 12.689768 13.1045
-157.82886 15.179832 12.873399 13.1035
-157.77531 15.513403 13.489551 14.1175
-157.55383 13.133172 4.3289313 9.0780001
-157.25648 14.680009 4.0694113 9.0412502
-157.31059 8.1094847 5.4954934 9
-157.27138 9.0091181 5.2940612 9
-157.27974 28.871115 5.3273125 10.082
-157.38123 11.199571 5.8816729 9.0644999
-157.45186 23.748892 5.7758055 10
-157.53288 24.880014 5.9375424 10.0745
-157.41177 25.433565 5.7453003 10.0745
-157.30713 7.3887568 6.3239942 9.0869999
-157.54346 7.8992629 6.5313168 10.12
-157.35713 15.107198 6.5730872 10.08125
-157.47243 15.448772 6.6919136 10.0324
-157.51729 15.617906 6.6426497 10
-157.52638 6.3966498 7.4384165 10
-157.36214 6.5373201 7.4161506 10
-157.37726 17.926401 7.3242826 9.0880003
-157.53717 5.8449893 7.9794102 10.603001
-157.52679 6.0194983 7.9837604 11.125
-157.35196 6.6843042 7.8033748 10.09575
-157.25993 6.8069544 7.7874331 10.102
-157.24336 17.889528 7.9714556 10.1025
-157.38431 24.767996 7.8304844 11.0755
-157.38138 24.900393 7.7822146 11
-157.58971 5.477632 8.1200628 10.09
-157.24826 6.535594 8.105567 10.54525
-157.22385 7.8216505 8.0497599 11.113
-157.21729 23.809742 8.185688 11.0795
-157.32716 24.115698 8.2055464 10.1025
-157.3988 6.3653898 8.4348202 11
-157.32063 6.6360807 8.606122 11
-157.2963 10.059787 8.6426744 11.106
-157.21487 11.451018 8.7224989 11.1055
-157.46295 23.674669 8.5857019 10.1005
-157.50954 4.7889647 9.1171999 11
-157.36104 5.0734358 9.0666695 11.08025
-157.34509 6.1367564 9.0920191 11.015214
-157.40002 6.6359453 8.9553728 11
-157.21402 6.9233027 8.9529905 11
-157.26988 8.1210947 9.1014328 11.10575
-157.4127 5.0811582 9.3361702 12.044666
-157.25281 5.2144995 9.5952816 12.1095
-157.30182 5.7192411 9.3671789 12.114
-157.59251 6.1129079 9.4493322 12
-157.30124 7.880826 9.3869085 12.12
-157.26266 9.9214087 9.3831091 11.1055
-157.34676 14.195774 9.4224205 11.055167
-157.41049 14.516885 9.3967552 11
-157.54254 15.14174 9.2676697 11
-157.53717 15.321305 9.3201895 11.040501
-157.33911 4.9519577 9.7179804 11.601999
-157.44067 6.2172942 9.8245726 12
-157.34937 6.9102435 9.8726978 12
-157.59042 8.4874487 9.6250486 12.113
-157.43706 13.500504 9.9463205 10.067
-157.45265 16.977821 9.8649502 11.069333
-157.39468 6.288516 10.055699 12
-157.32094 10.580943 10.068114 12.1075
-157.43301 5.1330361 10.629303 13.066999
-157.54944 5.4497275 10.703658 13
-157.5014 6.2951484 10.736496 13.1335
-157.36613 6.417882 10.600667 12
-157.25403 6.9317741 10.749339 13.12675
-157.48184 5.5104222 10.867735 13.14075
-157.29123 5.8624086 10.920285 13
-157.46655 6.3322387 10.901884 12.569
-157.48532 6.7181764 10.953259 12.247099
-157.29857 6.9171419 11.007893 12
-157.39523 6.7553358 11.509641 13
-157.39276 9.5430393 11.433301 12.60675
-157.58655 13.385274 11.331595 12.1045
-157.33084 13.984822 11.462704 12.1045
-157.40161 6.7353506 11.655435 13
-157.29117 8.964469 11.745494 13.1065
-157.32201 14.09785 11.74167 13.111
-157.28377 14.453043 11.686683 12.1045
-157.40482 16.725275 11.842511 12.104
-157.31874 16.844929 11.878745 12.052
-157.38785 6.8248425 12.246696 13.5645
-157.54768 7.3373008 12.291574 14.1205
-157.30557 9.2159986 12.052142 13.105
-157.49458 14.160075 12.14385 13.1065
-157.51276 16.136374 12.294782 12.605
-157.58888 7.5649753 12.417635 14.1245
-157.44193 8.355443 12.411105 14.12
-157.53413 9.0683718 12.535872 13.1055
-157.34322 9.4266596 12.542006 14.1195
-157.09912 23.113918 3.816982 9.0749998
-156.83018 10.311966 4.2789474 9.0830002
-157.08614 13.765529 4.2061911 9.0391254
-156.89238 14.274308 4.1735215 9.0819998
-156.96376 10.038896 4.505578 9.0784998
-157.0062 11.173013 5.4923997 9.052
-156.8195 11.597185 5.4740663 9
-156.86786 12.390006 5.4359136 9.1049995
-156.92314 28.990139 5.4819655 10.0805
-156.84686 23.19191 5.9514351 10.0805
-156.88478 23.737473 5.8816533 10.075
-156.95564 24.505686 5.7934284 10.052667
-156.90634 24.9496 5.752666 10.0795
-157.08429 8.3901949 6.1495085 9.0874996
-156.94394 8.642869 6.073524 9.0869999
-156.98344 7.0284519 6.662466 10
-157.12094 7.2749166 6.6187959 9.5987501
-157.16827 7.9893026 6.5941896 10
-157.06305 8.2005987 6.5902219 10
-156.93063 8.5193663 6.7878871 10
-156.99879 15.02794 6.6807804 10
-156.8851 7.1545854 6.9192309 10
-157.05679 7.2556334 7.0077133 10
-156.99785 8.8983107 6.8047991 10
-156.84106 11.340281 7.1234546 10
-156.91487 6.9199071 7.3954678 10.035333
-156.82182 6.7934594 7.9630671 11
-157.12885 6.8611574 7.7938337 10.1
-156.98241 17.945869 7.9481616 10.103
-157.01289 24.698395 7.7851348 11
-156.9848 8.7825193 8.333147 11
-156.80119 10.888489 8.0835829 10.0925
-156.90285 11.417878 8.2736416 10.0895
-157.16939 21.801643 8.195179 11.076
-156.8019 22.256741 8.3243971 11.079
-157.06978 22.62487 8.0500212 11.0755
-156.87642 23.465523 8.0152283 11.0765
-156.94606 23.786015 8.1655226 11.078
-157.12492 24.065983 8.2154055 10.1015
-157.07925 6.5220041 8.4745369 11
-156.84409 11.559797 8.795146 11
-157.10388 5.4220419 9.1685505 12.121
-156.90961 6.8619618 9.1658392 11
-156.9913 7.9643178 9.1301517 11
-156.95999 5.3834605 9.2393599 12.0625
-156.98288 5.9607415 9.2743034 12.129
-157.00035 7.0223927 9.3618793 12.1285
-157.00923 7.7620368 9.3481131 11.552999
-157.07349 8.1115923 9.2533178 11.106
-157.16989 9.5769205 9.2521067 11.1055
-157.01704 17.145981 9.4850264 10.0875
-156.81689 7.6240029 9.7548695 12
-156.85001 9.7468185 9.8163567 12.1095
-156.90521 10.095191 9.6709728 12.112
-157.12762 11.20543 9.8652592 11.0815
-157.18173 17.232681 9.6356068 11.103
-157.02411 6.381844 10.063584 12
-157.04585 6.5404878 10.127872 12
-156.82118 10.998922 10.282943 12.1055
-156.97015 17.467945 10.093549 11.1035
-157.12111 5.4775324 10.636559 13
-157.03073 5.9788079 10.798596 13
-156.88326 6.2142935 10.643522 12.070999
-156.98376 9.5574007 10.798268 12.105
-156.93097 9.9478598 10.419461 12.1045
-156.80717 11.061159 10.419959 12
-157.01697 11.910697 10.52561 12
-157.01289 13.465877 10.764815 12.1035
-157.19362 5.8528738 10.810342 13
-156.97383 6.3208184 10.918674 12.5
-156.80989 6.7362428 10.846626 13
-157.19164 6.9358969 10.820868 13.1245
-156.9929 9.7717218 11.05358 12.443334
-157.06787 10.135114 11.191728 12.1055
-157.04189 6.8311639 11.465837 13
-157.00137 7.49861 11.27634 13.1085
-156.89159 7.9000878 11.320302 13
-157.13412 9.8368177 11.25298 12.1055
-156.81766 10.132963 11.210655 13.112
-157.07422 14.404099 11.369754 12.104
-157.04567 6.7474236 11.684986 13
-156.91539 7.0960221 11.626291 13
-157.05141 8.5748129 11.81516 13.1055
-157.19275 14.390168 11.622777 12.1045
-157.07204 14.825284 12.01941 13.108
-156.70842 10.125237 4.3714819 9.0810003
-156.45441 8.6316433 5.4164982 9.1054993
-156.42924 11.72275 5.4571838 9.1037502
-156.63478 8.5559578 5.6508274 9.0950003
-156.65845 24.2477 5.723074 10.0765
-156.76065 24.46735 5.8372588 10.078
-156.61005 7.3125496 6.282999 9.0874996
-156.60031 11.480942 6.1978254 9.0865002
-156.42979 11.816963 6.3280144 9.0860004
-156.76764 17.147598 6.2223506 9.0869999
-156.78088 7.178679 6.6383853 10
-156.50552 7.3395939 6.7169085 10
-156.65407 9.0112066 6.7405915 10.05475
-156.44916 10.207875 6.7564874 10.108
-156.65714 15.034565 6.7254763 10.041
-156.65254 17.276814 6.4188542 9.0865002
-156.67503 7.3308334 6.9417028 10
-156.52377 7.6224689 6.9729848 10
-156.67245 9.1688366 6.961895 10.106
-156.67574 11.545755 7.116632 10
-156.68784 7.0703845 7.412746 10.042299
-156.53441 7.3508768 7.3981757 10.02625
-156.76878 9.3503647 7.598774 10.105
-156.48102 11.922134 7.5197597 10.1045
-156.42377 12.013592 7.5390282 10.1045
-156.61414 7.3190932 7.8707671 10.699166
-156.632 11.801991 7.6841602 10.104
-156.61511 6.6217537 8.16994 11.018417
-156.57481 7.0721745 8.2174339 11
-156.47372 7.7322407 8.2177496 11
-156.56903 8.4208851 8.2682276 11
-156.67004 6.6400204 8.4683542 11
-156.49231 7.0555706 8.4747744 11
-156.60036 10.593085 8.7300072 11.034667
-156.71158 6.875752 9.1512203 11
-156.60626 7.5191383 8.9876347 11
-156.49547 7.7796903 9.0867701 11
-156.43163 8.0678635 9.1922207 11.1055
-156.78181 9.8214569 9.1531172 11.105
-156.52509 10.206566 9.0904436 11.1045
-156.5278 6.3440323 9.4960089 12
-156.52451 6.4242992 9.3333015 12
-156.41394 7.7686234 9.5889931 12.11
-156.46211 10.20456 9.297657 11.105
-156.49083 11.791939 9.2666683 10.0875
-156.51202 6.3833714 9.6085501 12
-156.48093 6.5655155 9.7919436 12
-156.50957 6.9056492 9.6534166 12
-156.63541 8.2921772 9.7906399 12
-156.48331 10.698786 9.9766769 12.107
-156.56441 17.065191 9.7638988 11.1035
-156.55055 17.295963 9.6311302 11.103
-156.58583 6.3600521 10.053632 12
-156.78619 6.7268586 10.016684 12
-156.79153 9.4452076 10.133945 12.106
-156.55249 12.129374 10.358236 12.105
-156.61984 6.3161736 10.448337 12
-156.67264 6.5771904 10.567902 12.106
-156.48026 7.0385103 10.704451 12.615
-156.67719 11.136518 10.50174 12.104
-156.64355 12.248379 10.513351 12
-156.6185 6.2083569 10.861155 12
-156.61443 6.6610322 10.963321 12.702
-156.52808 7.0350299 10.881153 12.2765
-156.59283 7.4265947 10.943077 12.556499
-156.64664 8.3056335 10.968039 12
-156.63759 9.8126221 10.869737 12.105
-156.73291 8.3999405 11.200887 13.11
-156.30882 10.140312 4.0597839 9.0839996
-156.3671 10.192657 4.4074516 9.0825005
-156.32025 24.070038 5.802546 10.079
-156.09242 12.245753 6.1602073 9.0865002
-156.25909 12.821453 6.348196 9.0860004
-156.19441 8.9541035 6.5262895 10.112
-156.29327 11.995201 6.4086299 9.073
-156.15836 12.149162 6.419436 9.0764999
-156.24565 8.4516087 6.9738526 10.105
-156.38446 10.199533 7.0870061 10.104
-156.33916 7.4092317 7.3553519 10
-156.3253 7.9213963 7.4675655 10.10475
-156.38884 12.019875 7.5517721 10.1045
-156.2692 6.8699374 7.8731499 10.093
-156.08847 7.4429584 7.6770444 10.095
-156.06438 12.467196 7.6641674 10.104
-156.31238 7.4507217 8.0829201 11.11
-156.27383 8.5107632 8.2427483 11
-156.35214 7.2751923 8.5053024 11.0525
-156.37451 8.8093891 8.6362162 11.1045
-156.21547 6.6230712 9.0843477 11
-156.17413 6.8122058 9.0502033 11
-156.39116 7.865015 9.0631599 11
-156.24518 10.600971 9.1475592 11.1045
-156.36143 12.051447 8.8446541 11.1035
-156.34552 6.5651712 9.4063148 12
-156.07764 6.9115386 9.5993214 12
-156.39728 10.215763 9.289814 11.105
-156.30766 10.887878 9.5746574 11.1045
-156.2197 11.791498 9.3673105 10.959287
-156.01717 12.05329 9.2206059 11.104
-156.2493 6.6540256 9.9420395 12
-156.19809 6.8518806 9.8320808 12
-156.18695 10.112381 9.7675686 12.109
-156.23996 11.645145 9.9124556 12.1085
-156.00592 6.9106917 10.023471 12.105
-156.19249 11.724771 10.035906 12.1065
-156.0654 12.926217 10.378016 12.1045
-156.25333 6.2504516 10.571863 13.1285
-156.26202 6.6848989 10.497412 12.61275
-156.228 7.0320716 10.733068 12.31075
-156.14809 7.3894267 10.648695 12
-156.14995 7.8271232 10.756887 13.1235
-156.21535 9.8886795 10.735337 12.1045
-155.76245 8.8999014 4.0586758 9.0839996
-155.88222 9.9676886 4.3905187 9.0804996
-155.97685 10.016089 4.3706455 9.0819998
-155.67886 8.9593801 6.2231941 9.0699997
-155.96678 12.745559 6.0788765 9.0860004
-155.82185 8.6119633 7.3523736 10.105
-155.69154 9.0111637 7.4865808 10.104333
-155.64153 9.0362844 7.725924 10.0945
-155.78122 12.32426 7.6475677 10.1035
-155.87749 0.19629306 8.6734791 12.13375
-155.72473 12.303832 9.1495438 11.1035
-155.87904 12.861537 9.3365345 11.104
-155.94495 6.9379363 9.9297972 12
-155.73904 7.7174349 9.9689493 12.105
-155.87021 12.566487 9.6735754 11.10375
-155.65694 6.9858179 10.500182 13.1195
-155.89075 12.717782 10.463155 12.1035
-155.71138 12.827661 10.553533 12.103
-155.55286 9.2552938 8.0332994 10.0905
-155.43806 0.25897273 8.8190069 12.145
-155.15811 13.304037 7.9695368 10.098
-151.92604 26.779543 3.5813136 9.0845003
-151.79604 26.806108 3.6020572 9.0845003
-150.84311 8.260334 5.9176741 9.085
-150.90335 8.2997255 6.0603528 9.0854998
-150.914 6.1596913 8.3862715 11.103
-150.83185 5.9799924 8.5572147 11.103
-150.85536 6.6743474 8.5811357 10.086
-150.73024 6.4198995 8.3714228 10.0855
-150.79242 5.9868741 8.523819 11.103
-150.66759 6.1608768 8.4844742 10.848875
-150.6142 6.6800652 8.7989206 11.1025
-150.53143 6.1483116 8.8760681 11.1015
-150.69833 8.0102844 9.3551378 11.1
-150.35855 7.2648354 5.7217627 9.0865002
-150.07475 5.9968562 8.3752165 10.0845
-150.34441 6.2729568 8.328558 10.085
-150.2816 6.2616687 8.8027201 11.102
-150.1739 6.8515115 10.309405 12.094749
-150.21593 7.3673511 10.118375 12.1025
-150.17203 6.680902 10.645071 13.102
-150.25075 6.8556209 10.420848 11.0855
-150.36205 7.3923721 10.72476 11.0845
