# .PCD v0.7 - Point Cloud Data file format
VERSION 0.7
FIELDS x y z intensity
SIZE 4 4 4 4
TYPE F F F F
COUNT 1 1 1 1
WIDTH 1242
HEIGHT 1
VIEWPOINT 0 0 0 1 0 0 0
POINTS 1242
DATA ascii
-63.581963 -12.973388 -0.64180374 6
-63.436642 -5.9579177 -0.4017567 5
-63.282005 -4.9624701 -0.43112659 5.5
-63.345016 -4.650599 -0.43914643 5.3333335
-63.415886 -3.5051661 -0.53093588 5.3333335
-63.387398 -3.1155481 -0.47842476 5.3333335
-63.323704 -2.5927083 -0.51861638 5.25
-63.432789 -2.1955876 -0.42963299 5
-63.206291 -1.7679787 -0.52612782 6
-63.443859 -1.3404324 -0.5104605 5.5999999
-63.363544 -1.035826 -0.46295428 5.1666665
-63.307487 -0.65690994 -0.44836292 5.5
-63.416328 -0.067117177 -0.50448561 6
-63.447201 -21.236952 -0.014716942 4
-63.341999 -20.970884 -0.051821295 2.8
-63.370018 -20.553316 -0.08233051 3.8571429
-63.448929 -20.15033 -0.077735722 3.5999999
-63.438374 -19.83025 -0.081564717 2.8888888
-63.400974 -19.399801 -0.10277367 3.4285715
-63.403927 -18.998234 -0.089932226 4
-63.342911 -18.652897 -0.10516774 1.4
-63.425125 -18.298695 -0.1015664 2.75
-63.489849 -17.924114 -0.11090036 2.5
-63.457165 -17.463152 -0.21574754 4.5
-63.285015 -15.506277 -0.31662166 6
-63.365135 -15.0385 -0.16950822 4
-63.426636 -14.710845 -0.11977467 4
-63.347355 -14.218235 -0.13786015 3.6666667
-63.442455 -13.797554 -0.12380999 3.3333333
-63.328754 -13.457805 -0.13610741 5.8455415
-63.447411 -13.030745 -0.14210102 5.5963235
-63.396812 -12.65375 -0.075476371 4.5624447
-63.530067 -12.142406 -0.11283977 2
-63.38578 -11.743868 -0.12632981 2.4000001
-63.43198 -11.505672 -0.16883372 3.3333333
-63.355637 -11.014825 -0.17033242 4
-63.395061 -10.541154 -0.17960678 4
-63.216892 -10.157313 -0.19847527 3
-63.445778 -9.7830143 -0.21084349 3.75
-63.405716 -9.4611197 -0.22590183 3.6363637
-63.472935 -9.0785398 -0.23422895 3.75
-63.365856 -8.469408 -0.2131097 4
-63.454395 -8.2237711 -0.25975958 4.5999999
-63.237785 -7.9267263 -0.3211 4.5
-63.508465 -7.3911586 -0.26950952 4
-63.56641 -6.9910946 -0.32396513 4
-63.336468 -6.6076374 -0.31810457 4.6666665
-63.282997 -6.1238756 -0.35323632 4.75
-63.43359 -5.8844328 -0.32214317 4
-63.459084 -29.879515 0.29793206 6
-63.480141 -29.295732 0.32976329 6
-63.476978 -29.037552 0.35198462 4
-63.411488 -28.574276 0.36030871 4.6666665
-63.400608 -28.214043 0.29469559 4.5
-63.367455 -27.805042 0.36514378 4
-63.451473 -27.345882 0.37483901 3.4000001
-63.378113 -27.023453 0.36600891 2.8888888
-63.373295 -26.622736 0.33384356 2.8571429
-63.359554 -26.233013 0.305713 3.4000001
-63.349762 -25.818691 0.31681401 2.8333333
-63.470615 -25.365284 0.25196072 4.8333335
-63.417259 -24.981129 0.2623139 3.8
-63.396564 -24.578854 0.24667014 3.5
-63.440773 -24.195641 0.23405494 4.25
-63.401665 -23.806309 0.21025278 3.8
-63.451595 -23.372952 0.1898953 3.875
-63.468262 -22.991222 0.16727415 3.25
-63.347374 -22.614847 0.16163899 3
-63.439842 -22.135567 0.16976623 1.5
-63.59811 -21.945362 0.1608257 3
-63.375622 -21.266741 0.065857053 3
-63.394966 -13.735575 0.27525806 7.9579
-63.348114 -13.357547 0.31312224 8.0600004
-63.43951 -12.996506 0.22624925 7.2955265
-63.355499 -12.634186 0.25367254 8.0698891
-63.416344 -12.320945 0.31763577 8.1985712
-63.374153 -29.869814 0.46636415 4.8000002
-63.423256 -29.351158 0.44677952 4.5999999
-63.391537 -29.049892 0.41961712 3.4000001
-63.4193 -28.63261 0.42269468 4.5
-63.368809 -28.2868 0.42043439 3.5
-63.460258 -27.676907 0.41750172 3
-63.419647 -13.346557 0.60696828 8.1397371
-63.418018 -13.06803 0.61479336 8.1362486
-63.339596 -12.623835 0.66267097 8.5531244
-63.430687 -12.256002 0.55180484 8.0360003
-63.583858 -16.342609 1.1405733 8.0909996
-63.452522 -13.651419 0.89119238 9.0415001
-63.381577 -13.359482 0.9331131 8.5906391
-63.408085 -13.060134 1.0289148 8.6271
-63.424965 -12.64067 0.94620275 8.7281675
-63.318394 -12.339362 0.81836891 9.0535002
-63.524807 -5.361413 1.0780393 6
-63.432217 -3.0951388 0.91720599 6
-63.597206 -2.232214 0.87258947 6
-63.572044 -29.543787 1.2731171 6
-63.33474 -17.206772 1.4055772 6
-63.46196 -17.019833 1.4287375 5.8000002
-63.540527 -16.524124 1.4326439 6
-63.415058 -16.102787 1.4138936 6
-63.341957 -15.957867 1.3763285 6
-63.407478 -13.686863 1.5040468 7.3994999
-63.411747 -13.363239 1.3990846 8.4095583
-63.448097 -13.02981 1.3536505 8.6849604
-63.465595 -12.572586 1.422695 8.8827
-63.349709 -11.418919 1.2907283 6
-63.328793 -11.108157 1.2799836 6
-63.56353 -10.683277 1.2020656 6
-63.568386 -8.0832481 1.2428592 6
-63.270824 -25.843683 1.8873335 6
-63.279388 -25.576248 1.8246557 6
-63.422913 -13.715138 1.7991091 8.7096786
-63.416199 -13.345979 1.7855401 8.4341526
-63.371372 -13.081427 1.7725599 8.4033375
-63.441715 -12.578172 1.7424512 8.2122507
-63.44445 -12.255549 1.8580168 8.5875282
-63.428665 -26.933754 2.07026 6
-63.320862 -16.265272 2.3702714 7
-63.575115 -13.736117 2.2296414 9.1680002
-63.448635 -13.363595 2.2179449 9.9566336
-63.364292 -13.03779 2.1698859 9.6918344
-63.353966 -12.550522 2.2127597 9.7626104
-63.490803 -12.304892 2.1425097 9.1331253
-63.347549 -13.682819 2.6008005 7
-63.453079 -13.359968 2.5029228 10.654474
-63.39893 -13.029775 2.589488 11.422722
-63.442265 -12.658407 2.6145117 11.138568
-63.346928 -17.995995 3.0100534 8.1099997
-63.343979 -13.54737 2.8987412 8.1122503
-63.533703 -13.07387 2.8445807 12.54865
-63.467579 -12.62725 2.975471 9.8919992
-63.3689 -14.207518 3.4092774 8.1278744
-63.382935 -13.816592 3.3121169 8.1246243
-63.360863 -13.427955 3.4144375 8.1362495
-63.375336 -13.003876 3.4391408 8.1466665
-63.518661 -14.421394 3.6328068 8.1365004
-63.429436 -14.203124 3.6592524 8.1339998
-63.229031 -13.85611 4.2441144 9.1084995
-63.251339 -13.523399 4.3626661 9.1097507
-63.370358 -13.669202 4.4396191 9.1175003
-63.200523 -13.570675 4.4524393 9.1055002
-62.89325 -2.9096799 -2.0908751 6
-63.08963 -2.5961745 -2.0661359 5
-62.825451 -20.469254 -1.6292828 5
-62.884789 -20.063568 -1.6302531 5
-62.946129 -19.649647 -1.6319292 5
-63.099998 -18.831758 -1.639344 5
-63.101345 -17.864828 -1.8500818 6
-63.131088 -17.558184 -1.623194 5
-62.83865 -16.215389 -1.948981 5
-63.010094 -15.002495 -1.7302378 6
-63.148514 -12.042023 -1.6307696 5
-62.991196 -8.486784 -1.7553878 5
-62.92857 -7.8740048 -1.7196001 5
-62.991928 -6.5426188 -1.7378788 5.5
-63.091244 -6.1783009 -1.8604046 5
-63.017773 -5.5653286 -1.8513159 5
-63.056782 -5.1366177 -1.8756455 5
-62.820652 -3.5027165 -1.9062521 5
-63.033157 -2.1032951 -1.6508638 6
-63.07756 -1.3764983 -1.6039265 6
-63.172295 -0.90876585 -1.60255 6
-62.857121 -0.65402073 -1.6053145 6
-62.871296 -23.764023 -1.2218162 5
-62.975327 -23.490454 -1.228579 5
-62.999191 -23.047655 -1.2311987 4.6666665
-63.004238 -22.646902 -1.2278752 4.5
-62.867851 -22.27182 -1.2360204 4
-63.035057 -20.987053 -1.4743361 3.4000001
-63.06543 -20.675957 -1.4845278 3.4000001
-63.033638 -20.30155 -1.4968655 3.3333333
-62.986073 -19.888391 -1.5076346 3.4285715
-62.960007 -19.46368 -1.5197309 3.4000001
-62.966248 -19.048595 -1.5324742 3.8
-63.014004 -18.628286 -1.5352209 4.6666665
-63.155983 -18.223055 -1.5193309 5
-63.054195 -17.437305 -1.576952 4
-62.821629 -17.104233 -1.5955467 4
-63.193066 -15.048086 -1.5321937 4
-62.981083 -13.866487 -1.5583605 4
-63.026749 -13.453253 -1.5050292 4.4000001
-62.866928 -12.271152 -1.5121036 5
-63.133228 -11.613367 -1.4381919 5
-62.984978 -11.531057 -1.5929012 5
-63.133564 -9.7890415 -1.4969397 5
-62.916199 -2.2861121 -1.3905071 6
-63.087185 -29.753231 -0.97000855 4.6666665
-62.995323 -29.43051 -0.95838058 4
-62.906376 -29.011385 -1.0068014 4
-62.89859 -28.561562 -1.0420316 5
-63.109539 -28.18294 -1.0078439 4
-62.968796 -27.9025 -1.0513113 4.6666665
-62.951389 -27.463346 -1.1171166 5
-62.98362 -27.059929 -1.073585 4.375
-63.092571 -26.651209 -1.07033 4
-62.998211 -26.145849 -1.0831263 4
-62.895676 -25.939987 -1.0922447 4
-63.000778 -25.417133 -1.1316025 5
-63.092239 -25.084091 -1.1003116 4
-62.957367 -24.573912 -1.1445682 4
-62.994736 -24.245747 -1.1655114 4.5
-62.906357 -23.752901 -1.1622025 4
-63.095745 -23.41976 -1.1784683 4
-62.943829 -17.48465 -0.99496883 6
-62.911011 -17.764511 -0.67317033 6
-62.979328 -17.353991 -0.46906963 6
-62.840763 -16.883387 -0.40667957 6
-62.98204 -5.2894044 -0.4548485 6
-63.14106 -5.1204939 -0.41782385 5
-62.997608 -4.6178913 -0.42664894 5.5
-63.154797 -4.2143669 -0.50299561 5
-63.093842 -3.8387806 -0.53451729 5.5
-63.061863 -3.4353554 -0.49994946 5
-62.992496 -2.9002345 -0.49783143 5
-62.99332 -2.6117246 -0.53237385 5.25
-62.91172 -2.149569 -0.43756622 5
-63.024929 -1.8047688 -0.6473003 6.6666665
-63.005013 -1.4017673 -0.51142681 5.4000001
-62.937939 -1.0971893 -0.46301302 5
-63.016823 -0.65089059 -0.51217091 5.75
-62.857601 -21.220352 -0.10578366 5.6666665
-63.008125 -20.927286 -0.046752613 0.66666669
-63.047413 -20.593958 -0.050431598 1.75
-63.046368 -20.118139 -0.068480954 2
-62.963482 -19.783373 -0.10567775 3.5
-63.061047 -19.34964 -0.079974443 2.6666667
-63.05941 -18.943899 -0.091913283 1
-62.960651 -18.521694 -0.10184938 0
-62.990734 -18.147869 -0.12169391 1
-63.013409 -17.803192 -0.15341526 2.25
-62.964275 -17.504314 -0.11302036 3.3333333
-63.112717 -16.938187 -0.22695769 5
-63.139709 -16.625109 -0.28926536 5.6666665
-63.073105 -16.157797 -0.24469247 4.6666665
-62.863483 -15.60259 -0.27749783 6
-62.969624 -15.330199 -0.29784995 4.5
-63.002777 -14.987685 -0.15887034 3.625
-63.094872 -14.584435 -0.12369034 4
-62.988544 -14.213731 -0.19571152 5
-62.943962 -13.792316 -0.11545525 2.4444444
-63.033066 -13.40111 -0.11322132 2.8571429
-62.971077 -13.033333 -0.11563079 2.5
-63.013157 -12.577671 -0.11112337 1.6666666
-63.071503 -12.233974 -0.12180948 3.25
-63.047989 -11.874764 -0.1397312 3.1666667
-62.957714 -11.430448 -0.17254065 3.875
-63.015556 -11.008112 -0.17174311 3.5
-62.984688 -10.711267 -0.2030811 4.5
-63.029037 -10.227164 -0.22742805 4
-62.977757 -9.8471031 -0.22671464 3.2
-62.965607 -9.4201517 -0.23454721 3.1666667
-63.007793 -9.0530844 -0.27150741 4
-63.064224 -8.5952101 -0.29002038 4.6666665
-63.008636 -8.1195717 -0.30402851 4.6666665
-62.886204 -7.8158135 -0.28669205 4
-63.090797 -7.3543129 -0.31484142 4
-62.941711 -6.9233894 -0.30564317 4
-63.049179 -6.6318765 -0.32814163 4.1999998
-63.016899 -6.1935954 -0.33978397 5
-63.020908 -5.8720016 -0.31444502 4
-63.027321 -5.1281605 -0.37673715 6
-62.960682 -29.163883 0.39813176 3.5
-62.961479 -28.757736 0.38891342 4
-62.876938 -28.095461 0.37791067 3.6666667
-62.911293 -27.779461 0.32953751 4.1666665
-63.050064 -27.39879 0.32837668 3.2
-62.965298 -26.96925 0.27813485 4.1111112
-63.014183 -26.653589 0.31071529 3.8333333
-63.024109 -26.143759 0.2680608 3.1666667
-63.020218 -25.776232 0.29744649 3.25
-63.062634 -25.502213 0.29283538 3
-62.877686 -25.018051 0.28316414 2.5
-62.877369 -24.549267 0.1791371 3.3333333
-63.067764 -24.132925 0.21965726 3.75
-62.972252 -23.703077 0.23875432 4.5
-62.964176 -23.375605 0.21483929 3.1428571
-62.967052 -22.973299 0.16528434 2.7142856
-63.004433 -22.584982 0.14975539 4.1999998
-63.077091 -22.265898 0.16335307 4.4000001
-62.991051 -21.781124 0.14582948 2.8181818
-62.951908 -21.367262 0.11899043 2.4615386
-62.892544 -21.165035 0.0081466725 1.5
-63.072475 -13.41571 0.36805221 8.0579996
-63.074539 -13.060541 0.29925638 8.0575008
-62.934174 -29.879719 0.44269505 5
-63.033554 -29.397266 0.43031105 3.75
-63.044834 -28.931843 0.42782122 3.8333333
-63.022209 -28.479183 0.40847296 4.6666665
-63.148354 -28.179688 0.41438454 3
-62.908279 -17.446346 0.7223686 1.4166667
-63.158871 -13.683781 0.68257636 8.0132504
-63.006432 -13.336618 0.57056928 8.0191669
-62.94894 -13.04677 0.67213267 8.3939648
-63.103558 -12.690449 0.66558874 8.3431664
-63.07122 -12.310472 0.54035383 8.02075
-63.124229 -4.1842852 0.69072503 7
-63.069481 -17.400349 0.87772292 4.25
-62.917053 -16.9599 1.0666963 6
-62.866154 -16.161428 1.0314437 6.3333335
-63.186493 -13.935902 0.94400191 8.0784998
-63.08279 -13.287128 0.85798579 8.8600998
-63.09082 -12.996513 0.94321275 8.8208885
-63.130043 -12.601395 0.87513936 9.0394993
-62.847847 -5.1283994 1.0537063 6
-63.050674 -4.097784 0.97349185 6
-63.106674 -3.592433 0.93409848 6
-63.046322 -2.6029603 0.90732044 6
-63.010723 -17.126186 1.4559208 6
-62.960594 -13.752399 1.4029635 6
-63.170868 -13.213999 1.5882984 8.1105003
-63.16547 -13.038863 1.4425834 9.0547504
-63.138348 -11.714983 1.3120311 6
-62.87355 -9.2622681 1.533417 8.0849161
-62.952694 -8.9484978 1.3364758 8.1052494
-62.838848 -8.6048927 1.4064921 8.1148338
-63.010864 -8.384613 1.566981 8.1260004
-63.14999 -13.255286 1.8228151 8.6440001
-63.103802 -13.052281 1.8352017 8.810318
-63.185352 -12.497858 1.8706348 8.1545
-63.145702 -12.322829 1.8615907 9.1464996
-62.82365 -9.2816238 1.9302547 9.132
-62.86763 -9.0774355 1.9405359 9.1278334
-62.861195 -8.7355413 1.8699726 8.6778574
-62.918739 -8.2906742 1.9827261 9.1245003
-62.921497 -13.730622 2.29919 8.0459995
-63.073483 -13.300083 2.1792541 9.8929739
-63.06781 -12.99342 2.1755843 10.333938
-63.114838 -12.576934 2.2186246 10.15425
-62.815357 -9.2380056 2.2002487 10.1455
-62.82489 -8.3926926 2.1830671 9.1005001
-63.157207 -13.246457 2.4573851 11.649
-63.116447 -13.008947 2.5035801 11.669556
-63.108765 -12.49791 2.4182954 10.6565
-62.931976 -13.376049 3.104198 8.1221666
-63.020206 -12.946667 3.1298599 8.1389999
-62.999905 -13.786678 3.4340808 8.1355715
-62.980148 -13.505525 3.3392878 8.1431494
-62.959915 -13.01693 3.3725255 8.1350422
-63.010441 -12.72772 3.3973343 8.1359997
-62.946129 -13.995988 3.6268871 8.1330004
-63.075817 -13.706502 4.2041397 8.7699995
-63.020878 -13.391158 4.2805004 8.9689283
-62.901085 -13.152137 4.2376657 9.1110001
-63.10062 -13.439811 4.5235329 9.1055002
-62.537193 -16.314007 -2.033603 5
-62.652679 -2.5880332 -2.047576 5
-62.691746 -21.299847 -1.6283902 5
-62.758934 -20.886616 -1.6285566 5
-62.617809 -18.2103 -1.8483183 6
-62.716614 -17.130064 -1.6489964 5
-62.556927 -16.656597 -1.9289701 5
-62.66193 -12.674947 -1.6122172 4
-62.601147 -11.899651 -1.6209512 5
-62.620605 -11.1459 -1.6172347 5
-62.43679 -10.465564 -1.6808143 5
-62.724182 -8.2251844 -1.7721411 5
-62.681316 -6.91851 -1.7947646 5.5
-62.423004 -6.6052561 -1.8331676 5
-62.620747 -6.1291714 -1.6646633 5
-62.469898 -5.7337751 -1.884562 5
-62.684689 -5.3975396 -1.8554225 5
-62.599007 -5.0087137 -1.8808193 5
-62.520672 -4.6378565 -1.9036933 5
-62.467564 -4.0193701 -1.9650762 5
-62.789268 -2.4459205 -1.6354027 6
-62.657852 -1.7320626 -1.6556768 6
-62.777946 -1.0998902 -1.6074296 6
-62.407124 -0.26224428 -1.6117697 6
-62.524162 -24.543842 -1.2071437 4
-62.58506 -24.168242 -1.2142769 4
-62.44463 -23.796041 -1.2293208 3
-62.406834 -23.257702 -1.2468606 3
-62.411671 -22.977985 -1.2684511 3
-62.608292 -22.565548 -1.2512615 4
-62.454006 -22.206057 -1.2698551 4
-62.554001 -21.767332 -1.2810214 3.6666667
-62.527924 -21.281021 -1.3369793 4.25
-62.544506 -21.122026 -1.4463305 4.5
-62.63398 -20.586493 -1.4491619 3.25
-62.55764 -20.176662 -1.4774834 3.75
-62.55098 -19.831482 -1.4461421 3
-62.599358 -19.487999 -1.4952514 3.5
-62.631424 -19.008476 -1.5318894 3
-62.6483 -18.645336 -1.5384616 3
-62.586021 -18.238958 -1.5689373 3.4285715
-62.577171 -17.949448 -1.5706689 3.3333333
-62.624733 -17.500563 -1.5277125 3.6666667
-62.500404 -14.979682 -1.4404466 4.5
-62.443501 -14.671909 -1.4353263 5
-62.409378 -14.337101 -1.5143876 4.5
-62.587814 -13.707364 -1.5687168 4
-62.570518 -13.283755 -1.5180291 4.25
-62.718109 -13.045456 -1.529811 4.25
-62.614178 -12.665807 -1.4726921 4.6666665
-62.542042 -12.247842 -1.4428694 5
-62.733288 -11.481747 -1.4122572 5
-62.7798 -10.875957 -1.4542186 5
-62.74889 -10.44247 -1.4799966 5
-62.529903 -9.942441 -1.4959198 5
-62.709255 -9.5628977 -1.4794673 5
-62.410389 -9.1098423 -1.4900839 5
-62.411926 -2.0802336 -1.3811053 6
-62.708889 -29.845417 -0.95336741 4.3333335
-62.558388 -29.414047 -1.0015894 4
-62.454205 -29.16839 -1.0088764 5
-62.601009 -28.700796 -1.0302091 4.5
-62.54282 -28.257072 -1.0731958 4.8000002
-62.492794 -27.88229 -1.033421 4
-62.704613 -27.535851 -1.0693769 4.4000001
-62.535015 -27.017706 -1.0657037 4
-62.457451 -26.473431 -1.0747263 4.5
-62.64109 -26.213968 -1.0715282 4
-62.647053 -25.7274 -1.0901587 4
-62.544792 -25.34338 -1.1159787 4
-62.438519 -24.988337 -1.1689165 4
-62.536533 -24.531231 -1.1652235 3.5
-62.729614 -24.161526 -1.152863 4
-62.621712 -23.835876 -1.1805847 4.5
-62.508194 -17.470961 -1.0803857 5.5
-62.571659 -17.76796 -0.75037676 6
-62.441017 -17.401457 -0.55948758 6
-62.759621 -16.976704 -0.41647682 6
-62.613071 -16.065414 -0.43506449 6
-62.734257 -15.803456 -0.44646668 6
-62.506161 -7.0534797 -0.41149446 5
-62.535919 -5.9329796 -0.43981135 6
-62.706985 -5.5622625 -0.43354836 5.5
-62.573582 -4.6850681 -0.45538607 5
-62.62957 -3.2695034 -0.5315007 5
-62.510578 -2.9163828 -0.52488089 5.2222223
-62.640301 -2.6188762 -0.52548003 5
-62.542011 -2.235368 -0.44474697 5
-62.695301 -1.921505 -0.49077404 5.6666665
-62.545063 -1.3999528 -0.50185001 5
-62.602757 -0.97235787 -0.51659608 5.6666665
-62.526485 -0.25294247 -0.52670592 6
-62.618008 -21.230536 -0.038562935 3.75
-62.52924 -20.999666 -0.052909654 4.1428571
-62.575012 -20.583456 -0.084097102 3.75
-62.572067 -20.211927 -0.076908 3.2857144
-62.573124 -19.777805 -0.084758274 2.5454545
-62.559498 -19.362534 -0.099160098 2.4285715
-62.56065 -19.004412 -0.11415695 2.9000001
-62.524017 -18.546144 -0.13139629 3.1428571
-62.565742 -18.181686 -0.14315659 3.5
-62.585621 -17.791712 -0.15203166 3
-62.594482 -17.412149 -0.22712515 4.2857141
-62.679985 -16.985731 -0.21830498 3.8
-62.677021 -16.493027 -0.21657723 4
-62.613651 -16.230215 -0.21435763 2.6666667
-62.492741 -15.962638 -0.227359 2
-62.54657 -15.417526 -0.2778931 3.6666667
-62.576073 -14.980247 -0.16502731 3
-62.77589 -14.660755 -0.10494304 4
-62.584064 -14.226452 -0.11552212 3.7142856
-62.628147 -13.72562 -0.11060768 1.5
-62.516598 -13.403358 -0.11551105 2.5
-62.651691 -13.002687 -0.13273826 2.75
-62.556587 -12.591426 -0.13522844 3
-62.664333 -12.158025 -0.13794431 2.3333333
-62.591007 -11.795679 -0.14365627 3.75
-62.638176 -11.385077 -0.16165574 3.4000001
-62.581558 -10.981307 -0.19068608 3.75
-62.573174 -10.556148 -0.21616141 3.4000001
-62.555351 -10.159376 -0.21983923 3.3333333
-62.599594 -9.7690802 -0.24978352 4.1666665
-62.564892 -9.4282465 -0.24172845 4.5
-62.615292 -9.0085058 -0.21205638 4.7581248
-62.655979 -8.6884451 -0.29553637 4
-62.605854 -7.7816095 -0.31531423 4
-62.76807 -7.5196719 -0.29846793 4
-62.575985 -7.0144091 -0.31521767 4
-62.519119 -6.6417222 -0.30381748 4
-62.650234 -6.2481294 -0.34984317 4
-62.570148 -5.7861385 -0.33397201 4
-62.488594 -29.406939 0.32205763 5
-62.515186 -28.899256 0.35435045 4
-62.589684 -28.253162 0.34725842 3.75
-62.571442 -27.864321 0.32763723 4.25
-62.606743 -27.393179 0.34324318 3.8333333
-62.654148 -27.030109 0.28833488 3
-62.625473 -26.576212 0.29440448 3.875
-62.518982 -26.17551 0.28100809 3.5
-62.614204 -25.82147 0.29916799 2.1666667
-62.603634 -25.332304 0.29627579 2.25
-62.570465 -25.045696 0.26825097 3.4000001
-62.672062 -24.675398 0.24894927 4.75
-62.528481 -24.111954 0.23297031 3.25
-62.577148 -23.775455 0.20753498 3.5
-62.608807 -23.413246 0.19238272 3.2
-62.690933 -23.009832 0.1966316 2.8333333
-62.53199 -22.559166 0.17731935 2.5714285
-62.564007 -22.227886 0.15118901 2.625
-62.619095 -21.798105 0.12274001 4
-62.575554 -21.334883 0.074516699 3.5
-62.435154 -21.196039 0.083981767 1
-62.456108 -17.442366 0.20702532 1.3333334
-62.562626 -17.127285 0.0032751861 7
-62.450779 -9.9398355 0.22384843 8.0675001
-62.505596 -9.4129047 0.22997995 8.0453005
-62.41663 -9.1122513 0.16094549 8.0780001
-62.766354 -8.4132166 0.29085052 8.0544996
-62.658752 -29.81324 0.45968401 4.5999999
-62.605152 -29.354086 0.42177466 4.5
-62.624729 -28.99909 0.41259003 3
-62.700031 -28.67593 0.49119991 4
-62.774696 -28.104553 0.63025165 5
-62.437019 -17.445166 0.5807718 3
-62.747784 -12.954225 0.77745605 8.0094995
-62.595798 -9.6425333 0.6267702 8.0114002
-62.600044 -9.5086737 0.49352092 8.0166254
-62.621082 -9.1863909 0.76501191 8.0080004
-62.645195 -17.370192 0.89423519 3.3333333
-62.745483 -16.101168 1.0784917 5.5
-62.502354 -9.0084038 0.98935395 8.0295
-62.769154 -6.1023693 1.1262418 6
-62.63266 -2.2951376 0.87997234 6
-62.484428 -28.731974 1.3205584 7
-62.521008 -17.046774 1.4513499 6
-62.690159 -15.858338 1.4262863 6.6666665
-62.650455 -13.36447 1.3317835 6
-62.503956 -12.875245 1.3438028 6
-62.486649 -9.7326488 1.5423857 8.1209097
-62.555138 -9.3667345 1.4898609 8.1064034
-62.612194 -9.0995035 1.4653792 8.1851702
-62.626152 -8.6141033 1.3427894 8.1043329
-62.535378 -8.3291273 1.5707608 8.0889997
-62.52816 -27.434477 1.8921152 6
-62.474457 -27.117157 1.8205701 6
-62.55722 -9.661191 1.7594937 8.9016247
-62.615635 -9.3145037 1.895864 9.0564756
-62.603481 -8.9781857 1.8757128 8.8978806
-62.661274 -8.5119724 1.9080892 9.1247501
-62.607666 -8.1861649 1.8597134 8.6906424
-62.565918 -7.9140925 1.9671714 9.1156664
-62.461323 -17.87077 2.3383534 7
-62.6534 -13.687062 2.2419367 8.041667
-62.449265 -9.6708565 2.1288757 10.148
-62.625134 -9.3209248 2.2035639 10.122646
-62.603519 -9.1044521 2.2183528 9.916667
-62.630318 -8.7128019 2.1974213 10.1405
-62.681614 -8.2967119 2.3056524 9.8781252
-62.466751 -9.4128942 2.508779 11.071
-62.567791 -8.9803238 2.4990861 10.433667
-62.677097 -8.4381914 2.564738 10.627001
-62.492477 -8.3098621 2.4637885 10.117667
-62.578262 -17.658459 3.1504462 8.1145
-62.42094 -8.9136391 2.8917251 12.1415
-62.597363 -13.673308 3.4114544 8.1502504
-62.631248 -13.423925 3.4548833 8.1572495
-62.027561 -17.188171 -2.0002844 5
-62.267918 -16.755785 -2.0155742 5
-62.161503 -2.9374557 -2.075871 6
-62.229462 -2.5587094 -2.0463417 5
-62.089493 -1.8972449 -2.0552578 6
-62.136158 -1.439237 -2.0139349 6
-62.378201 -0.5737887 -2.0423961 6
-62.26778 -17.726873 -1.6041692 3
-62.228321 -17.331316 -1.6024852 3
-62.162731 -17.001204 -1.764907 4
-62.36644 -16.676762 -1.6380436 3
-62.222195 -16.332964 -1.6379085 3.4000001
-62.137089 -15.83673 -1.6857723 3
-62.399918 -12.413545 -1.6147188 4
-62.24086 -12.234801 -1.6189989 4
-62.033985 -11.92835 -1.6334566 4
-62.229771 -11.500121 -1.6466014 5
-62.144154 -11.063595 -1.6878668 5.5
-62.137119 -10.268706 -1.689895 5
-62.089943 -7.7286525 -1.7524196 6
-62.09153 -6.416389 -1.8422432 5
-62.145138 -5.5366549 -1.8944141 5
-62.136253 -4.8769965 -1.8887293 5
-62.060802 -4.2535567 -1.950987 5
-62.135654 -3.8646426 -1.9681872 5
-62.382095 -2.2283516 -1.6297585 6
-62.017483 -1.9865032 -1.6278845 6
-62.20475 -1.3139709 -1.6183909 6
-62.071602 -0.64694929 -1.6047548 6
-62.23019 -24.925322 -1.2056757 3
-62.31287 -24.608973 -1.220063 3
-62.32486 -24.318014 -1.2249616 3
-62.360962 -23.857695 -1.2186112 3
-62.350204 -23.39521 -1.2304559 3.6666667
-62.156502 -23.007956 -1.2241449 4.1666665
-62.217495 -22.59174 -1.2639393 3
-62.168251 -22.1952 -1.2664926 3.8571429
-62.122143 -21.751883 -1.2845272 3.6666667
-62.18021 -21.419891 -1.3118855 3.5
-62.112846 -20.97753 -1.426996 4.5
-62.115795 -20.605263 -1.4384383 3.6666667
-62.195824 -20.116535 -1.4517119 4
-62.193016 -19.802172 -1.4738411 3.8571429
-62.168983 -19.395548 -1.4756778 3.75
-62.227837 -19.019941 -1.4670697 4
-62.190559 -18.56156 -1.499375 3.75
-62.222336 -18.107477 -1.5096314 4
-62.237492 -17.757603 -1.4893347 3.8333333
-62.13155 -17.399107 -1.4321806 4.25
-62.228367 -16.888788 -1.5465319 4
-62.249912 -16.650246 -1.5402282 4
-62.299603 -16.325787 -1.5164628 4
-62.210564 -15.932741 -1.5380476 4.6666665
-62.326027 -15.330688 -1.5706766 4.5
-62.224472 -15.065663 -1.5658571 4.6666665
-62.200993 -14.613756 -1.4849913 4
-62.088047 -14.237597 -1.4513232 4
-62.206333 -13.621641 -1.5621365 4
-62.17635 -13.431076 -1.556388 4
-62.201916 -13.033706 -1.5317913 4.25
-62.06044 -12.681586 -1.5036244 4
-62.250786 -12.194831 -1.4956172 4.5
-62.163822 -11.071531 -1.4767179 5
-62.010517 -10.688322 -1.4869523 5
-62.020611 -9.7517262 -1.4681904 5
-62.007359 -9.488308 -1.374956 6
-62.002602 -9.0658817 -1.4619442 5
-62.025635 -7.695251 -1.5737581 5
-62.296669 -1.6187575 -1.3984872 6
-62.32616 -0.9568817 -1.5965255 6
-62.129509 -29.908049 -0.97580796 4.3333335
-62.212067 -28.933538 -1.0466269 4.6666665
-62.089035 -28.493395 -1.0250945 4.25
-62.334618 -28.116779 -1.0290657 4
-62.125523 -27.760485 -1.0635567 4
-62.080647 -27.288225 -1.0826421 3
-62.158543 -27.004713 -1.0738407 3.75
-62.196056 -26.643452 -1.0950986 3.3333333
-62.198353 -26.281588 -1.1137409 3.75
-62.214252 -25.800529 -1.1415607 3.5999999
-62.197025 -25.379656 -1.1523407 3.5
-62.215282 -24.980513 -1.1364086 3.6666667
-62.067566 -24.71476 -1.1625767 4
-62.21706 -24.266668 -1.186036 3
-62.259029 -23.48315 -1.1890552 4
-62.14027 -17.736986 -0.89442909 5.75
-62.282291 -17.427553 -1.0335281 5.5
-62.11599 -17.711653 -0.65304726 6
-62.197048 -17.377636 -0.55338377 6
-62.03933 -8.0705786 -0.50352937 7
-62.32872 -6.0066595 -0.40323445 5
-62.197697 -5.2014775 -0.43451348 5
-62.320644 -4.9777007 -0.43507922 5
-62.20612 -3.6566145 -0.52209401 5
-62.012295 -3.4018712 -0.55818886 5
-62.184048 -2.9715023 -0.52170587 5
-62.007313 -2.546701 -0.44789734 5
-62.192261 -2.1317177 -0.50099641 5.3333335
-62.262543 -1.7832062 -0.55200934 5.5
-62.099197 -1.2360911 -0.51567018 5
-62.229156 -0.97097903 -0.50068516 5.3333335
-62.257774 -0.030293703 -0.4775238 7
-62.045586 -21.2141 -0.0058623254 3
-62.233097 -20.979122 -0.065786332 2.3
-62.21352 -20.577406 -0.060677681 0.75
-62.165962 -20.196003 -0.071159758 0.33333334
-62.043037 -19.841208 -0.10223139 2.3333333
-62.123421 -19.331125 -0.12140531 3.75
-62.037285 -18.847795 -0.11346378 1.5
-62.070049 -18.485161 -0.12421143 0
-62.089455 -18.134722 -0.13153496 0.5
-62.034126 -17.902491 -0.14932497 2
-62.134777 -17.426996 -0.08857616 4.5999999
-62.153339 -16.70652 -0.2592665 5
-62.030964 -15.604452 -0.28713292 6
-62.386044 -15.287543 -0.26631883 2
-62.161221 -14.958457 -0.16813342 3.4000001
-62.308418 -14.507051 -0.14573807 4.3333335
-62.173706 -13.804459 -0.13513078 2.5999999
-62.134365 -13.387394 -0.16444729 3.3333333
-62.223812 -13.063234 -0.11112601 1.8571428
-62.197079 -12.609369 -0.13776022 2.7777777
-62.199951 -12.259135 -0.14743437 3.125
-62.178391 -11.807493 -0.15423001 3.1428571
-62.18866 -11.400764 -0.19306572 3.25
-62.163147 -10.999376 -0.18998878 3
-62.187958 -10.580871 -0.20265958 3.25
-62.227512 -10.29355 -0.22003548 3.2
-62.171131 -9.7197151 -0.16109656 4.5454545
-62.146152 -9.3062944 -0.21285076 4.1999998
-62.144867 -9.0080862 -0.21820574 6
-62.196724 -8.6969938 -0.25334838 3
-62.036606 -8.0554943 -0.34655258 4
-62.233379 -7.7812524 -0.32631153 4
-62.130947 -7.4446249 -0.32509211 4
-62.228931 -6.9290724 -0.32126889 4
-62.218094 -6.5736346 -0.33457246 4
-62.312321 -6.2523756 -0.3563984 4
-62.338879 -5.7813616 -0.33864412 4
-62.261765 -29.244112 0.39574337 3
-62.082108 -28.978857 0.32549909 4.25
-62.189903 -28.503241 0.31530169 3.8333333
-62.266869 -28.239506 0.32539448 4
-62.196812 -27.807859 0.28227335 4
-62.264351 -27.33765 0.2807653 3.7777777
-62.239021 -26.983995 0.3276667 3
-62.166039 -26.609606 0.31622997 2.7142856
-62.1478 -26.173214 0.31317562 2
-62.165886 -25.814121 0.29509389 2.125
-62.128407 -25.335356 0.23996799 3
-62.295601 -25.116968 0.2627877 3
-62.129017 -24.612295 0.22864228 3.5
-62.185852 -24.162512 0.209567 3.3333333
-62.22208 -23.843319 0.22875619 2
-62.158863 -23.484526 0.11437079 5
-62.170208 -23.004192 0.16083561 3
-62.247784 -22.607643 0.14879327 3.5999999
-62.225117 -22.203674 0.15484063 3.1428571
-62.125641 -21.780655 0.12665698 3
-62.209599 -21.325327 0.06843318 1
-62.18018 -17.412382 0.076699592 3.6666667
-62.2145 -17.115511 0.0059918705 7
-62.145874 -9.7554798 0.15678786 8.0721998
-62.154541 -9.4094887 0.21054281 6.4721498
-62.115582 -9.050477 0.14432836 8.0594997
-62.157009 -8.4735413 0.19225733 8.0810003
-62.284061 -8.3610964 0.21088408 8.0557499
-62.201031 -29.808235 0.42669693 4.3333335
-62.293716 -29.322765 0.4197329 4.5
-62.192554 -29.017391 0.40675852 3.3333333
-62.351376 -28.726183 0.40599477 4.5
-62.283039 -17.409313 0.67894506 2.375
-62.19949 -9.7755098 0.61270541 8.3737221
-62.226707 -9.3784742 0.53751707 7.7120504
-62.148174 -9.1130629 0.70390189 7.0037498
-62.281853 -8.5302267 0.62577975 8.5529995
-62.061382 -8.3686743 0.40978998 8.0530005
-62.170334 -2.9996316 0.64513445 7
-62.250607 -17.339071 0.93603104 2.75
-62.197002 -16.71666 0.98949498 2.9375
-62.205006 -9.7711172 0.8224889 9.0799999
-62.101368 -9.3709154 0.90845865 8.0072498
-62.228539 -8.9995499 1.0236409 8.0257006
-62.064739 -3.3613214 0.92997569 6
-62.331711 -1.6720477 0.86929703 6
-62.384258 -19.516396 1.5392938 6
-62.17194 -17.088627 1.3977373 6.125
-62.064255 -16.614523 1.4445642 6
-62.182579 -15.887008 1.4177181 6.75
-62.173946 -12.464769 1.2729775 6
-62.154434 -12.142019 1.3113633 6
-62.226822 -9.7644091 1.4549848 8.3545628
-62.277779 -9.4329786 1.4990388 8.129077
-62.156376 -9.0196257 1.4179707 8.4096785
-62.141773 -8.5625944 1.4100399 8.2441874
-62.267445 -8.2420845 1.4737452 7.8955002
-62.230644 -9.6798964 1.8930701 8.9637308
-62.172424 -9.4575768 1.7999713 8.9168339
-62.305004 -8.9820709 1.9632779 9.0783339
-62.17234 -8.5851278 1.8563604 8.911231
-62.288628 -8.279829 1.7304718 8.5321999
-62.332779 -7.9920349 1.6556184 8.1405001
-62.121258 -29.483141 2.3281906 6
-62.044304 -28.833113 2.2443428 6
-62.268585 -9.7621374 2.1563413 8.9123745
-62.173977 -9.4042711 2.3086309 10.000781
-62.224449 -9.0347996 2.1991854 10.13505
-62.216099 -8.7449627 2.2848866 10.130917
-62.283958 -8.3801441 2.3761559 9.0994997
-62.17009 -9.3760147 2.5083749 10.618299
-62.256607 -9.0800161 2.5676484 10.739896
-62.27906 -8.7039595 2.5510159 10.62475
-62.187241 -8.1677809 2.4833364 10.631001
-62.203083 -17.657589 3.1086404 8.1140003
-62.067356 -10.184719 3.0677683 8.1195002
-62.05394 -9.7973156 3.0260537 8.1145
-62.260571 -9.4593172 3.1008482 8.1420002
-62.211704 -8.9007502 2.903245 10.898777
-62.141617 -8.7140541 2.9433091 10.962874
-62.041626 -10.267478 3.2457128 8.1315002
-62.398949 -9.5443354 3.2187636 8.1335001
-62.207478 -9.7349138 3.83951 8.0714998
-61.987228 -2.7124877 -2.0084162 6
-61.652767 -17.550228 -1.6146662 5
-61.817329 -16.877068 -1.6352928 3
-61.773514 -16.481142 -1.6509115 3
-61.856239 -16.106583 -1.6552784 3.8
-61.774879 -15.761068 -1.6422933 3.4000001
-61.762886 -15.36837 -1.6563209 4.1999998
-61.796383 -15.089051 -1.7239 3.4000001
-61.743687 -11.704543 -1.6324462 4
-61.669205 -11.303729 -1.6548392 4
-61.750114 -10.920942 -1.688306 5
-61.862946 -10.063165 -1.7245337 5.3333335
-61.876183 -8.1657743 -1.7590828 6
-61.819225 -7.5571079 -1.8097266 5
-61.968868 -5.6370025 -1.8769875 6
-61.796627 -5.381628 -1.8996512 5
-61.734917 -4.0692978 -1.9593326 5
-61.831722 -3.6462171 -1.9795409 5
-61.687595 -1.7230711 -1.629259 6
-61.826084 -1.0806397 -1.7682993 6
-61.785015 -0.050504569 -1.6000899 6
-61.83868 -24.000683 -1.2011869 3
-61.789639 -23.718109 -1.2274704 4
-61.861351 -23.493895 -1.2304969 4
-61.85247 -23.01104 -1.2318715 3.625
-61.8116 -22.59444 -1.2372537 3.5
-61.814514 -22.199921 -1.2613738 3
-61.841629 -21.414198 -1.2835834 3.3333333
-61.849621 -21.118631 -1.4208554 4
-61.959827 -20.333578 -1.4880699 3
-61.689442 -19.877459 -1.5021811 3
-61.666435 -19.338045 -1.5289011 5
-61.732109 -18.889868 -1.502699 4
-61.632515 -18.48477 -1.4849194 4.5
-61.776718 -18.155481 -1.5329885 4
-61.850727 -17.773834 -1.4576157 4.5999999
-61.748508 -17.398684 -1.4787401 3.909091
-61.792458 -16.989414 -1.5278146 4
-61.747852 -16.631189 -1.5460318 4.25
-61.726856 -16.153124 -1.5523304 4.6666665
-61.726124 -15.921156 -1.5313419 4.6666665
-61.66518 -15.446612 -1.5721357 4.5
-61.689175 -15.123632 -1.5503609 4.5
-61.714348 -14.517485 -1.5308933 4.4000001
-61.771328 -13.732194 -1.4767817 4.25
-61.747433 -13.364976 -1.5181496 4.6666665
-61.889099 -12.952 -1.5646133 4.5
-61.924255 -12.507357 -1.5056682 4
-61.886013 -12.261992 -1.5250592 4
-61.727386 -11.810602 -1.5653764 4
-61.910755 -10.278676 -1.5044011 5
-61.898769 -9.8151197 -1.4395357 5.5
-61.814445 -9.454833 -1.4128214 5
-61.969154 -1.299379 -1.4017664 6
-61.758598 -29.707575 -0.95791042 3.375
-61.776863 -29.309963 -0.9973619 3.4545455
-61.78463 -28.974709 -1.0142983 3.5
-61.854965 -28.625954 -1.0056289 3.2857144
-61.865372 -28.248819 -1.0256668 3.3333333
-61.857025 -27.775307 -1.0503435 3.3333333
-61.872158 -27.380136 -1.0482107 3.2857144
-61.856064 -27.001152 -1.0639955 3.5714285
-61.784389 -26.533112 -1.1172189 3.5714285
-61.873051 -26.145918 -1.1232923 3.8333333
-61.852955 -25.80728 -1.1252221 3.6666667
-61.717003 -25.402185 -1.1114182 3
-61.720901 -25.004698 -1.1349142 3.3333333
-61.776787 -24.55488 -1.1733299 3.5
-61.761772 -24.219835 -1.1793522 4.5
-61.97324 -23.847635 -1.193688 3
-61.761509 -23.120819 -1.1918864 4
-61.751377 -17.416609 -1.0995376 5.1666665
-61.638969 -14.250866 -0.91171086 6
-61.748882 -9.3893166 -1.1076863 6
-61.796478 -9.0672474 -0.80341643 6
-61.828835 -17.720428 -0.64991683 6
-61.895477 -17.458286 -0.5553351 6
-61.816967 -15.778353 -0.4121618 6
-61.64436 -9.0428514 -0.52037048 7
-61.876549 -7.673419 -0.4169184 5
-61.761841 -6.6098776 -0.45138094 6
-61.748684 -5.6032467 -0.43384248 5
-61.915535 -5.3322053 -0.44633058 5
-61.629406 -3.7013369 -0.55856246 5
-61.722862 -3.3391721 -0.58263195 5.3333335
-61.770107 -2.9511838 -0.53636092 5.1999998
-61.801109 -2.4614105 -0.52550948 5.3333335
-61.813911 -2.21766 -0.49732888 5.3333335
-61.762798 -1.8016478 -0.50611073 5.25
-61.783627 -1.3288831 -0.5236842 5
-61.82159 -1.0096205 -0.52705067 5.25
-61.675842 -0.40654185 -0.48151013 7
-61.942471 -21.20915 -0.022210915 2.5
-61.774315 -20.971836 -0.065299101 3
-61.808044 -20.526558 -0.097186156 4
-61.761616 -20.164053 -0.098496526 4
-61.75388 -19.753178 -0.10844184 3.25
-61.779507 -19.420282 -0.1077847 2.1666667
-61.769836 -18.99687 -0.12103722 2
-61.810867 -18.668802 -0.12776251 2.2
-61.669098 -18.14994 -0.16428182 3.5999999
-61.750614 -17.773094 -0.17203891 3.4000001
-61.756187 -17.417549 -0.094225667 4.7777777
-61.833042 -16.91185 -0.12597881 3
-61.805622 -16.564796 -0.14226289 3
-61.811855 -16.158237 -0.23978823 4.875
-61.802094 -15.8509 -0.14822695 3.3333333
-61.753635 -15.527324 -0.26401803 2.5
-61.826553 -15.031113 -0.1984624 2.7142856
-61.793148 -14.550858 -0.1446674 3
-61.795021 -14.206292 -0.084419645 5.5
-61.772682 -13.86491 -0.153584 4.1999998
-61.792717 -13.422266 -0.14255646 2
-61.734615 -13.005143 -0.13022172 1.8888888
-61.742325 -12.587521 -0.14166532 2.5714285
-61.810074 -12.226787 -0.16098958 3.3
-61.853279 -11.906349 -0.17186841 3.25
-61.784573 -11.41111 -0.19095266 3.2
-61.849842 -10.986547 -0.19988674 3.2857144
-61.719326 -10.562751 -0.231667 3.125
-61.769035 -10.13446 -0.25160089 3.5999999
-61.618141 -9.8507652 -0.26071849 3
-61.823959 -9.3010998 -0.23902313 3.6666667
-61.745544 -9.020915 -0.22460164 5.0391884
-61.714493 -8.7025805 -0.21672313 6.1994548
-61.931416 -8.008707 -0.3335939 4
-61.713554 -7.8991351 -0.34109807 4
-61.795284 -7.3232512 -0.33515242 4
-61.75489 -6.9908156 -0.35769281 4.5
-61.864391 -6.5771918 -0.34863424 4.1666665
-61.969044 -6.3141561 -0.36702931 4
-61.77483 -5.7044907 -0.36236069 4
-61.870895 -29.626339 0.38853168 5
-61.871498 -29.283941 0.38363656 3
-61.789852 -28.956421 0.33858082 3.7142856
-61.811859 -28.597363 0.33674872 3.4285715
-61.819519 -28.208931 0.35970095 4
-61.718273 -27.808626 0.34866574 3.5999999
-61.826305 -27.385822 0.32384533 2.5999999
-61.74622 -27.042677 0.32786483 2
-61.763161 -26.58411 0.31769413 3
-61.87693 -26.199986 0.28768218 3
-61.790634 -25.80464 0.27864283 1.875
-61.832867 -25.358454 0.26435888 2.8571429
-61.780228 -24.98103 0.23999277 3
-61.801765 -24.41712 0.24405538 3
-61.695435 -24.24869 0.19772691 3.5
-61.732635 -23.789614 0.16995977 3.5
-61.801689 -23.405222 0.17916471 3
-61.953732 -23.057289 0.15828107 2
-61.714252 -22.607124 0.14230523 2.3333333
-61.745152 -22.146074 0.079911821 3
-61.824459 -21.726112 0.075452164 3.6666667
-61.883781 -21.359081 0.089915842 3
-61.825657 -21.175962 0.0281762 3
-61.922668 -17.418325 0.11614186 1.5
-61.808327 -17.070993 0.0071185855 7
-61.738697 -14.268214 0.22149162 4.3333335
-61.887024 -13.978308 0.19420289 7
-61.847759 -9.4643736 0.20175958 6.3476663
-61.735405 -8.9781828 0.18579784 5.4339752
-61.709293 -8.5693398 0.20668188 8.0562
-61.734234 -29.851202 0.41764495 5
-61.88184 -29.538061 0.44811988 4
-61.791996 -17.381498 0.69256735 4.3333335
-61.718079 -14.300162 0.56775594 3.875
-61.796875 -9.7670317 0.65185535 8.2729044
-61.757328 -9.3471603 0.57478845 7.4657145
-61.801262 -9.0014906 0.62955266 6.5313802
-61.73391 -8.6117363 0.56988221 8.1850004
-61.78764 -8.1804476 0.5146358 8.0489998
-61.659023 -7.8062387 0.76227558 8.052
-61.765331 -3.2504494 0.61871397 7
-61.839046 -2.8289399 0.60322505 7
-61.866028 -1.8992798 0.57416916 6
-61.848984 -17.292274 0.98806435 6
-61.605339 -17.179338 1.1714247 5
-61.91317 -16.75363 1.0568134 7
-61.730366 -14.255104 0.96588856 5.4117646
-61.952068 -11.506802 1.1844074 6
-61.846371 -10.986898 1.1512376 6
-61.772293 -9.7105398 0.88693196 8.5321255
-61.741539 -9.2800007 1.0647964 8.0061674
-61.785866 -8.8800974 1.0512506 7.2080007
-61.773216 -8.5286989 1.01326 8.2869997
-61.715237 -6.8164225 1.1163474 6
-61.660622 -6.3451171 1.0768466 6
-61.683956 -2.0028224 0.86903679 6
-61.731327 -1.4230733 0.83573908 6
-61.952782 -18.610035 1.4799368 6
-61.8102 -18.14839 1.447358 6
-61.732998 -17.024462 1.3668419 6.2257853
-61.780075 -16.601007 1.4378554 6.25
-61.814335 -16.358994 1.409699 6
-61.820225 -15.882895 1.3914592 6
-61.719788 -14.249613 1.4212686 7.3571959
-61.999241 -11.9862 1.258736 6
-61.694237 -9.6319084 1.3488355 9.5664997
-61.807625 -9.3417673 1.4304709 8.5192146
-61.822617 -8.994194 1.4138002 8.1333847
-61.791241 -8.6959496 1.4488088 8.1301546
-61.755375 -8.2791529 1.4128569 8.826375
-61.68195 -14.218627 1.7305633 8.5477495
-61.867378 -9.7620325 1.88539 8.8279285
-61.752148 -9.4603653 1.8623929 8.9786415
-61.790894 -8.958396 1.8414927 9.0898628
-61.779091 -8.6670723 1.8092396 8.732317
-61.801018 -8.2357874 1.813902 8.7313995
-61.77116 -7.8189554 1.9455309 8.6485004
-61.802937 -29.349669 2.2611721 6
-61.60799 -14.475206 2.0339236 10.0155
-61.688541 -14.195333 2.1620193 9.9753408
-61.771873 -9.7155447 2.2141685 9.8206577
-61.793835 -9.4452581 2.225554 9.3729162
-61.766384 -8.9593344 2.1967587 10.069
-61.829472 -8.6871443 2.2399828 9.4368992
-61.666 -8.1154947 2.2701652 9.1452503
-61.72699 -7.773241 2.2949102 8.9760828
-61.677612 -14.15731 2.5615804 11.224
-61.831387 -9.6674385 2.5083258 10.708
-61.774231 -9.4024601 2.5582027 10.207121
-61.811256 -9.0683155 2.6151545 10.776276
-61.819111 -8.5072908 2.5674658 9.6289997
-61.708996 -8.0228148 2.4544363 10.1185
-61.848568 -7.7761364 2.498575 9.1498337
-61.692482 -17.579088 3.1092398 8.1140003
-61.664589 -14.134203 2.9407151 11.644
-61.848751 -10.071009 2.9990745 8.1195002
-61.833157 -9.8587875 2.9851441 8.1271248
-61.679039 -9.2899714 3.0035367 9.9270992
-61.809669 -8.9997854 2.9484158 10.722056
-61.765499 -8.7438641 3.0420787 9.5792856
-61.658936 -8.2787857 2.9058623 11.63625
-61.681698 -14.163441 3.4044676 11.812349
-61.725513 -13.894026 3.5211232 11.611876
-61.986469 -10.25684 3.2740161 8.132
-61.680069 -9.8494072 3.2056551 8.1380005
-61.673843 -9.5203142 3.2334518 8.1300001
-61.615147 -14.120893 3.6122196 12.17075
-61.624561 -9.9767704 3.9285114 9.1219997
-61.89101 -9.2377758 4.6480832 9.1025
-61.245811 -19.281355 -1.847239 5
-61.282494 -18.901495 -1.9613593 5
-61.515869 -18.440809 -1.8586404 5
-61.399189 -17.317553 -1.6258637 3.6666667
-61.253422 -16.876554 -1.6185769 5
-61.358936 -16.577541 -1.6401664 4.3333335
-61.339172 -16.216831 -1.6559311 5.3333335
-61.407314 -15.811913 -1.7486109 4.7142859
-61.419376 -15.383041 -1.6802541 4.3333335
-61.396084 -14.992315 -1.6623827 3.5999999
-61.425724 -10.952403 -1.6548185 4
-61.398586 -10.695026 -1.680124 4.5
-61.286953 -10.20674 -1.7343702 5.5
-61.568729 -9.8181477 -1.7169214 5
-61.343864 -9.5458727 -1.7605313 5.3333335
-61.210022 -8.8430948 -1.7251056 6
-61.21682 -8.7066145 -1.7507173 6
-61.527092 -7.3220482 -1.8250403 5
-61.599899 -6.1264095 -1.8579055 5
-61.471645 -5.1767812 -1.9114747 5
-61.366661 -1.4723285 -1.6306148 6
-61.400597 -1.0041298 -1.6439576 6
-61.544849 -0.22118397 -1.9506468 6
-61.234432 -24.967276 -1.2192509 5
-61.36533 -24.698355 -1.2260412 5
-61.507484 -24.239073 -1.2320331 5
-61.479958 -23.322142 -1.2107983 3.3333333
-61.549397 -22.53599 -1.2490838 4.5
-61.314697 -22.171598 -1.2812742 4.75
-61.455135 -21.864449 -1.2754385 3.6666667
-61.434696 -21.393061 -1.2990941 3.5999999
-61.422142 -21.058739 -1.4639465 4.5
-61.493416 -20.575163 -1.4757048 4.5
-61.500137 -20.175455 -1.496829 4.8000002
-61.416893 -19.821665 -1.5085094 4.75
-61.48093 -19.462795 -1.5041064 4.1999998
-61.335007 -19.118954 -1.5353644 4.5
-61.556801 -18.62529 -1.5190367 5
-61.497116 -18.162106 -1.5310843 4
-61.480659 -17.759268 -1.4306402 4.625
-61.424366 -17.371124 -1.4025288 4.4736843
-61.565868 -16.989044 -1.4634918 5
-61.425156 -16.122595 -1.2918763 5
-61.445396 -15.673319 -1.4373996 5.25
-61.368797 -15.270031 -1.5637031 5
-61.308823 -15.027254 -1.5085186 4
-61.481789 -14.591278 -1.502193 5
-61.39024 -14.204122 -1.4392263 4.6666665
-61.20636 -13.948844 -1.4626504 5
-61.423508 -13.382101 -1.5369135 4.3333335
-61.434071 -12.951025 -1.4826224 4.5
-61.456509 -12.613841 -1.5294997 4.6666665
-61.255112 -12.37694 -1.5066813 4.5
-61.21698 -11.818769 -1.4567933 5
-61.353741 -11.484758 -1.519998 4.5
-61.453259 -11.179834 -1.5906235 4
-61.492176 -9.2670784 -1.3868753 6
-61.459 -8.9249563 -1.3649231 5.3636365
-61.371254 -8.709425 -1.4158128 5.5
-61.569 -0.56960601 -1.588351 6
-61.210003 -0.36390176 -1.5863882 6
-61.360466 -29.799187 -1.0119792 4.25
-61.393845 -29.381866 -1.0085394 3.8571429
-61.475601 -29.030577 -1.0052544 3.3333333
-61.4258 -28.564762 -1.0426133 3
-61.501598 -28.042877 -1.0186398 4
-61.429161 -27.829365 -1.0094781 3.4000001
-61.388962 -27.431213 -1.0641725 3.8333333
-61.398354 -27.017658 -1.0801139 3.3333333
-61.397572 -26.631559 -1.0936098 4
-61.483124 -26.314356 -1.1086485 4
-61.392281 -25.73452 -1.1181983 3.5999999
-61.380199 -25.300205 -1.1386292 3.3333333
-61.414886 -24.90151 -1.1552082 3
-61.398956 -24.217648 -1.1709229 3.7272727
-61.388901 -23.756889 -1.1881313 3.5714285
-61.343796 -23.430016 -1.1917516 3.3333333
-61.289558 -22.400478 -1.1985815 3
-61.35239 -17.388916 -1.0622972 4.8888888
-61.486713 -16.557501 -0.94362527 7
-61.489391 -14.422375 -1.0153754 5
-61.47963 -14.309639 -0.99877346 5.8210998
-61.442028 -8.886343 -0.82945812 6.1111112
-61.446156 -17.689093 -0.72597259 6
-61.429527 -17.360294 -0.59688133 5.8000002
-61.433197 -15.776663 -0.45837384 6.5
-61.474396 -14.312284 -0.60270965 6
-61.463676 -8.9191933 -0.61424005 7
-61.529358 -8.1497021 -0.40930644 5
-61.314297 -7.0547233 -0.42855853 5.5
-61.508858 -5.7871141 -0.43732309 5
-61.254993 -4.0037827 -0.558891 5
-61.437447 -3.6564391 -0.59034729 5.5
-61.3535 -2.9709823 -0.50249159 5
-61.382183 -2.5571995 -0.53685838 5.5
-61.417267 -2.277091 -0.51155263 5.1666665
-61.355324 -1.7392821 -0.57865006 6
-61.325619 -1.3983585 -0.50342989 5
-61.474083 -1.0419543 -0.49413481 5
-61.500248 -0.49043298 -0.57780743 6
-61.469162 -0.37902242 -0.49345398 6
-61.337349 -21.234915 -0.046016958 3.3333333
-61.387085 -20.983143 -0.083608322 2.6666667
-61.410126 -20.579826 -0.086942129 2.5714285
-61.412163 -20.189999 -0.10305681 2
-61.422401 -19.837864 -0.12125966 3.5999999
-61.449112 -19.38785 -0.13976096 4
-61.427315 -18.962727 -0.14450993 2.5
-61.477917 -18.57375 -0.15686001 3.3333333
-61.242142 -18.175776 -0.13464424 0.5
-61.352604 -17.782286 -0.18920135 3.2
-61.389862 -17.370169 -0.13793591 5
-61.336876 -17.077675 -0.27567896 4
-61.325539 -16.65373 -0.10335312 5
-61.311981 -16.198477 -0.11275682 5
-61.369831 -15.721155 -0.22875449 3.75
-61.374874 -15.429665 -0.16238828 3.25
-61.407734 -14.985161 -0.20250896 2.5999999
-61.261871 -14.615729 -0.17985868 4.6666665
-61.471409 -14.2646 -0.1347609 6.375
-61.368046 -13.739815 -0.17855078 3.5
-61.4296 -13.391458 -0.16155539 2.6666667
-61.375298 -12.971695 -0.15299383 2.2
-61.42194 -12.675187 -0.15199138 2.75
-61.405937 -12.148991 -0.16979013 2.4285715
-61.395367 -11.817213 -0.17445628 2.1111112
-61.332623 -11.362151 -0.22606856 3.6666667
-61.430252 -11.049116 -0.20772323 2
-61.384499 -10.687615 -0.23546447 2.8571429
-61.408749 -10.200168 -0.25206324 3.6666667
-61.350021 -9.7998762 -0.26716566 3.3333333
-61.468155 -8.9255695 -0.27451912 5.5482502
-61.443901 -8.6887932 -0.27409577 5.3333335
-61.513084 -8.2020798 -0.27504784 7
-61.344215 -7.7978516 -0.33441225 5.1999998
-61.410294 -7.3157611 -0.34717405 4
-61.319962 -7.1433101 -0.35252213 4
-61.40176 -6.556572 -0.3525075 4
-61.542648 -6.3194485 -0.36826551 4
-61.430069 -5.7204766 -0.36839727 4
-61.225201 -3.273391 -0.22113127 6
-61.333542 -29.363049 0.38111511 4.25
-61.439663 -29.041597 0.34972277 3.5999999
-61.415272 -28.695627 0.30485192 3.5999999
-61.312523 -28.255228 0.34578934 4
-61.445374 -27.797939 0.32792941 4
-61.412216 -27.364305 0.33720845 4.1999998
-61.384335 -26.937544 0.3091996 2.25
-61.325294 -26.577368 0.30074868 3
-61.414406 -26.216169 0.2829127 2.5714285
-61.411266 -25.785606 0.2595363 2.4000001
-61.423832 -25.351227 0.22389655 3.5
-61.400558 -25.004824 0.21811585 2.7777777
-61.397728 -24.546923 0.19549237 4
-61.382721 -24.130537 0.18891117 4
-61.339905 -23.818823 0.17961177 3.5
-61.326229 -23.354277 0.10726379 5.5
-61.465702 -22.946434 0.14099169 3.6666667
-61.381355 -22.630999 0.13363273 2.75
-61.393814 -22.272743 0.11460149 3.1666667
-61.421963 -21.874784 0.10793689 2.8
-61.398899 -21.305536 0.064824887 2
-61.459484 -17.26701 0.043845829 4
-61.244835 -17.030704 0.18305938 4.3333335
-61.523369 -16.763281 0.031828322 5
-61.324287 -15.605822 0.04369377 6
-61.481144 -14.256764 0.22996673 7.2537189
-61.364685 -9.4680128 0.29238674 8.3948336
-61.436104 -8.9463911 0.23143305 7.1382084
-61.424652 -8.6552172 0.27343586 8.1205502
-61.544018 -8.2998657 0.39167437 8.0135002
-61.321144 -29.850668 0.42995358 5
-61.544376 -29.317625 0.43245953 4
-61.29023 -29.155954 0.41924897 4
-61.361233 -17.34317 0.65859532 2.5
-61.209251 -17.194199 0.71052337 5
-61.219269 -16.306929 0.74871284 6
-61.224606 -15.779914 0.63361204 3
-61.495705 -14.468983 0.56786299 8.0165005
-61.500706 -14.246254 0.59948188 7.3941984
-61.454971 -9.7080307 0.70082313 8.3795424
-61.46064 -9.3271618 0.6413101 8.1742153
-61.454964 -8.9185877 0.62065607 7.8642607
-61.43811 -8.5746813 0.62353849 8.4591255
-61.372196 -8.1921606 0.65663457 8.3039999
-61.464935 -7.7865133 0.68431884 8.5661659
-61.258816 -26.953594 1.1488801 7
-61.381935 -17.25156 0.91558474 3.814815
-61.327503 -17.146978 1.0655023 5.1428571
-61.369427 -15.841263 1.1242416 5.2777777
-61.513309 -14.227564 1.0110912 8.2025557
-61.282127 -9.717782 1.0405707 9.0348129
-61.386383 -9.4040899 1.1038345 8.6919441
-61.334679 -8.8945856 1.1507499 8.3513336
-61.26379 -8.5348444 1.0805587 9.5587502
-61.312534 -8.1618357 0.86400402 9.0796251
-61.220615 -7.7818093 0.8182807 9.0784998
-61.203274 -1.4387389 0.87084901 6
-61.397202 -0.93608081 0.83249348 6
-61.387344 -0.020048529 0.85854101 7
-61.356888 -17.932835 1.5307777 6
-61.497162 -17.22583 1.381526 6
-61.449265 -17.000322 1.321216 5.8571429
-61.348274 -16.631977 1.3377048 5.8333335
-61.338768 -16.2467 1.3224013 5.8888888
-61.379292 -15.93975 1.2506585 5.5
-61.497063 -14.211336 1.4151156 9.2090616
-61.516052 -9.7636127 1.2377985 9.5769997
-61.347206 -9.3958349 1.393159 9.4175911
-61.406986 -8.9296789 1.4322356 8.8370094
-61.3661 -8.5669756 1.4355845 8.8884544
-61.368782 -8.2590685 1.4196492 9.2171526
-61.203831 -7.8958154 1.2019763 9.0804996
-61.503605 -29.301558 1.9457682 6
-61.517567 -14.491064 1.8848186 9.5130005
-61.477123 -14.208031 1.8100004 10.075109
-61.397831 -9.7282991 1.8665478 8.0769997
-61.367783 -9.3938618 1.8509638 9.1145124
-61.43079 -8.9615488 1.8238714 8.8655891
-61.496201 -8.5801268 1.8066406 8.9491148
-61.374107 -8.2945967 1.8491256 8.7512999
-61.418941 -7.8560572 1.8212751 8.487834
-61.552479 -17.805525 2.3188109 7
-61.453156 -14.207771 2.1331899 11.344549
-61.549381 -13.98182 2.2197623 10.088
-61.453857 -9.696352 2.294075 9.3237734
-61.362007 -9.425128 2.2344422 9.3037748
-61.367603 -8.9722748 2.2456391 9.4260502
-61.371838 -8.6506739 2.2123888 9.1493444
