# .PCD v0.7 - Point Cloud Data file format
VERSION 0.7
FIELDS x y z intensity
SIZE 4 4 4 4
TYPE F F F F
COUNT 1 1 1 1
WIDTH 1273
HEIGHT 1
VIEWPOINT 0 0 0 1 0 0 0
POINTS 1273
DATA ascii
-24.543047 194.17094 -4.1406851 8.0873327
-24.420162 185.46199 -3.8865833 7
-24.604301 181.84509 -3.2540281 8.5410004
-24.761404 183.63702 -3.256156 9.0539999
-24.569471 185.35307 -3.461272 8.0299997
-24.667166 191.21103 -3.5462596 8.1269999
-24.770956 180.36194 -2.8449683 9.0585003
-24.403347 187.35864 -2.7944226 9.0874996
-24.555603 180.58124 -2.2370892 9.5384998
-24.627085 206.96484 0.38733295 9.0094995
-24.422447 207.76987 0.31853941 10.015
-24.697432 207.26825 1.4728497 10.136
-24.501505 208.67908 2.1796458 10.518
-24.618559 208.97287 2.1435716 11.0345
-24.715332 209.39844 2.2080772 10.004
-24.574287 209.69832 2.0743845 11.034845
-24.110544 181.01799 -5.3161221 6
-24.128868 181.74821 -5.3228645 6.5
-24.058638 182.24728 -5.204987 6
-24.17643 184.53621 -5.3015394 6
-24.264526 189.09369 -5.2973375 7
-24.012625 190.59401 -5.26262 7
-24.297062 193.96445 -5.2559099 7
-24.176134 194.06326 -5.3206425 7
-24.098558 194.76022 -5.4134455 7
-24.012318 180.95087 -5.1458864 6
-24.037584 182.55107 -5.1830769 6
-24.206596 189.04257 -4.8898211 7
-24.039034 194.41933 -5.0177803 7
-24.246447 195.37225 -4.9605336 7
-24.166389 188.99181 -4.5375323 7.0908751
-24.313984 194.31265 -4.4520721 8.0714998
-24.099325 194.468 -4.67239 7
-24.32618 195.18832 -4.6790986 7
-24.396822 195.21854 -4.7329125 7
-24.308685 185.41339 -4.2271628 8.0424995
-24.336842 188.78816 -4.0239325 8.0609999
-24.371494 188.9968 -4.2160072 8.092
-24.338049 194.20953 -4.0966582 8.0882502
-24.232367 195.13942 -4.3642998 8.0625
-24.291479 195.66151 -4.3702412 7
-24.15555 183.96147 -3.6292129 8.0474997
-24.097342 185.42664 -3.8742061 7.8095002
-24.209286 188.84889 -3.9179606 8.0893993
-24.38509 182.31883 -3.2589097 9.0544996
-24.252762 182.42029 -3.3443968 8.0264997
-24.384335 181.90628 -3.0456948 9.0675001
-24.392187 182.08025 -3.1932182 9.0640001
-24.091787 184.72305 -3.080276 9.0810003
-24.325457 180.31903 -2.5097914 9.0349998
-24.059114 188.93002 -2.4444413 9.0930004
-24.263809 180.09476 -2.1471212 10.055
-24.343544 180.59935 -2.1062505 10.054
-24.154734 191.89597 -0.75983667 9.1789999
-24.128418 192.09613 -0.6845172 9.1789999
-24.049015 206.21027 -0.12981805 9.5192499
-24.312397 207.57452 -0.0229798 9.0059996
-24.214737 207.7756 -0.20227069 9.0035
-24.247692 198.76505 0.12282278 9.0074997
-24.380594 207.67004 0.25622591 10.024
-24.318285 209.52094 1.0228394 10.13
-24.086636 206.63998 1.7171454 11.035
-24.252174 207.991 1.9352223 11.0345
-24.303701 208.76047 1.89447 11.0355
-24.255255 207.98485 2.0513067 10.0035
-24.220989 208.55182 2.1797562 10.142
-24.336117 209.27362 2.1126547 11.0335
-23.720137 180.2567 -5.3686843 6
-23.820999 180.79846 -5.3770151 6
-23.770725 181.44292 -5.2417617 6
-23.846327 181.92812 -5.287807 6
-23.939451 182.1432 -5.2038937 6
-23.794418 182.4366 -5.2618484 6
-23.65303 183.67709 -5.4142861 6
-23.955484 185.75389 -5.5756817 6
-23.818966 188.46301 -5.220665 7
-23.928205 188.94142 -5.2450552 7
-23.946114 189.31514 -5.2006946 7
-23.636988 182.19847 -5.1931558 6
-23.714298 182.64389 -5.179821 6.5
-23.946461 184.92783 -5.1123285 7
-23.877808 188.92363 -5.1655326 7
-23.798254 194.01038 -4.9746432 7
-23.703926 189.12657 -4.7210193 7
-23.752937 192.66264 -4.5793777 7
-23.635468 193.75842 -4.4344535 7
-23.887447 194.30975 -4.6724219 7
-23.998924 194.40375 -4.7079878 7
-23.706589 188.61069 -4.31109 7
-23.953968 189.0732 -4.158618 7.6556001
-23.963247 189.29037 -4.3062425 8.0629997
-23.638704 194.44127 -4.0296683 8.0860004
-23.916132 195.39917 -4.328712 8.0795002
-23.717535 183.8101 -3.6393461 8.0485001
-23.891958 185.38934 -3.9078772 8.0895004
-23.645998 185.63071 -3.8610082 8.0874996
-23.883417 189.08575 -3.9516294 8.0935001
-23.633314 193.19131 -3.7399287 8.0459995
-23.643351 183.94208 -3.5855145 8.1014996
-23.818979 184.57567 -3.1687596 9.0629997
-23.726242 180.31706 -2.672235 9.0915003
-23.733311 191.66058 -0.87640983 9.1719999
-23.643526 191.04581 -0.48905081 9.0015001
-23.853752 206.61533 -0.358201 9.1719999
-23.789749 206.99008 -0.12689483 9.0795002
-23.963341 208.06097 -0.25065216 9.1684999
-23.6019 205.92296 0.084481835 9.0065002
-23.71187 206.84293 0.24668907 10.0235
-23.933819 207.44667 0.28937858 10.018
-23.656948 198.75223 0.42471439 9.0120001
-23.832655 206.60623 1.8428994 11.033843
-23.964151 208.32034 1.9060279 11.035
-23.611269 207.57971 2.116432 11.034
-23.850861 208.04823 2.0578384 11.033
-23.966005 208.60144 2.0216868 11.034
-23.444128 180.72606 -5.3632884 6
-23.48012 181.10243 -5.4093065 6
-23.385181 181.27194 -5.2967825 6
-23.377207 181.87244 -5.3673744 6
-23.300985 182.59999 -5.2096891 6
-23.287476 183.1207 -5.214644 6
-23.336914 188.98236 -5.2445984 7
-23.326849 189.52309 -5.3039532 7
-23.399296 190.74521 -5.2537642 7
-23.482063 194.86606 -5.4092817 7
-23.532837 195.50926 -5.4623475 7
-23.266987 182.37209 -5.1987405 6
-23.530283 185.35223 -5.1324048 7
-23.572514 189.55884 -5.1881413 7
-23.402264 193.44128 -4.9682221 7
-23.37084 193.89012 -5.0301747 7
-23.338034 194.25623 -4.9579005 7
-23.31628 194.53004 -4.8983693 7
-23.356993 184.6591 -4.5771618 7
-23.562365 192.54526 -4.7342572 7
-23.326096 193.34024 -4.6598611 7
-23.339054 194.21008 -4.6184258 7
-23.515438 194.52232 -4.4234681 7
-23.226892 193.16428 -4.2915092 7
-23.493673 193.55525 -4.130331 7.5444999
-23.290014 193.73619 -4.300447 8.0625
-23.251001 183.44994 -3.641813 8.0480003
-23.29524 184.19693 -3.8657811 8.0907497
-23.298487 184.94443 -3.8782649 8.0757504
-23.524744 185.58571 -3.8193071 8.0854998
-23.390253 185.81604 -3.8701358 8.0777502
-23.238369 183.66206 -3.5073733 8.0579996
-23.214161 184.35941 -3.4928963 8.0690002
-23.558708 185.06642 -3.3436918 9.0559998
-23.202793 183.89923 -2.8714566 8.0045004
-23.364763 180.24509 -2.4395976 9.5745001
-23.207203 180.4425 -2.581085 9.0915003
-23.402992 184.06332 -2.7294543 8.0024996
-23.51333 180.19443 -2.3000977 10.08125
-23.289881 187.8549 -2.1620679 9.0909996
-23.553997 188.27899 -2.2482173 8.0024996
-23.42371 190.20753 -0.77579176 9.1344995
-23.586288 190.8784 -0.58167994 9.1444998
-23.251646 206.44244 -0.18645659 9.1660004
-23.564398 198.4696 0.63114184 9.0235004
-23.273039 207.43301 1.024381 10.011
-23.442356 206.57077 1.2179593 9.0244999
-23.598524 207.08984 1.853141 10.006
-23.351482 207.38507 1.8554754 11.0345
-23.439426 208.12033 1.718105 10.005
-23.37278 207.17471 2.2333567 10.5905
-23.541452 207.22478 2.1218934 10.1415
-23.038897 180.32065 -5.3740597 6
-23.180538 180.49808 -5.3751488 6
-23.070871 180.93201 -5.3755231 6
-22.92131 181.25945 -5.4097586 6
-22.998665 181.76785 -5.3783345 6
-23.099405 182.16354 -5.2104673 6
-22.878998 182.66319 -5.2152405 6
-23.088589 182.97151 -5.2480764 6
-23.069342 188.14174 -5.3129306 7
-23.031446 191.51572 -5.2501807 7
-23.042969 194.12631 -5.2972198 7
-22.851902 181.16962 -5.1993937 7
-22.832685 183.60027 -5.1754885 7
-22.844381 184.53873 -4.9568052 7
-22.91947 191.51511 -4.9366946 7
-22.937319 192.36195 -4.8624015 7
-22.858877 193.13791 -4.9159865 7
-23.055433 193.51849 -4.8936505 7
-23.154762 194.20956 -5.1284933 7
-22.884371 194.90269 -5.1663923 7
-22.994473 184.54698 -4.6482224 7
-22.983503 184.8405 -4.4113111 7.3635001
-23.11359 191.1028 -4.5357933 7
-23.094835 192.43878 -4.4187145 7
-23.075449 193.30975 -4.6544929 7
-23.029724 194.1134 -4.5220189 7
-22.952013 184.51941 -4.158957 7.4320002
-23.028923 184.9893 -4.2159095 8.0760002
-22.94157 185.80025 -4.0656128 7
-22.892168 192.30243 -4.3729663 8.0705004
-22.944334 192.44623 -4.2401962 8.0790005
-23.050035 193.07961 -4.3456073 7
-23.041452 193.36635 -4.3103242 7.2653751
-22.941103 183.50706 -3.9215982 8.0801001
-22.889864 184.507 -3.8235712 8.0812502
-22.878771 184.95326 -3.9541106 8.0742493
-22.959465 185.79483 -3.8411403 8.085
-23.072727 193.48421 -3.7348616 8.0454998
-23.03742 183.77625 -3.4489202 7.5472498
-22.802103 184.05641 -3.5975459 8.0445004
-22.856928 185.15961 -3.3973136 8.0965004
-23.073502 180.2337 -2.8208699 8.0085001
-22.92614 183.83261 -3.0530176 8.0109997
-22.934454 184.17986 -2.8773527 8.2705002
-22.917488 180.23874 -2.6724186 9.0909996
-23.085154 184.17308 -2.6157 9.0764999
-22.892054 184.86833 -2.4979358 8.0019999
-22.912039 181.19904 -2.1265612 10.048
-23.132099 187.95143 -2.2826555 8.0024996
-23.106546 189.61577 -1.5775737 10.0445
-23.14348 190.1517 -0.7157495 9.1575003
-23.103296 190.79514 -0.48583934 9.1479998
-22.906111 190.87491 -0.5465824 9.1514997
-23.00728 191.33609 -0.068714216 9.0050001
-23.197706 194.17413 -0.26270422 9.0035
-22.869314 193.60565 0.041848041 10.0095
-23.023195 205.95853 0.27468494 10.018499
-23.092876 199.50645 0.77552158 9.0229998
-22.99835 207.66568 0.7514562 10.011
-22.984137 208.15784 0.71476525 10.014
-23.182003 208.43385 0.49602956 9.1450005
-22.838287 206.25014 0.99492562 9.0255003
-22.891752 207.01755 0.94576389 9.0200005
-23.081755 209.5723 0.83595687 10.0115
-23.175577 209.73178 1.0065875 9.0264997
-23.030924 206.99815 2.115746 11.032499
-23.105169 207.42044 2.0235577 11.0325
-23.116035 207.8956 2.2286274 10.1385
-23.051474 209.6748 3.0019071 11.0115
-22.521132 180.30009 -5.4476924 6
-22.548101 180.55281 -5.3615398 6
-22.695763 180.90631 -5.3667984 6
-22.529438 181.41824 -5.3779125 6
-22.406132 181.91939 -5.4692078 6
-22.437857 182.35013 -5.416563 7
-22.490431 182.77339 -5.2154942 6
-22.696871 183.01157 -5.2442617 6
-22.606066 183.93195 -5.3651724 7
-22.594379 184.53651 -5.3226743 7
-22.690212 186.98845 -5.3314204 7
-22.4835 188.43677 -5.2415266 7
-22.529264 183.17505 -5.1984429 6
-22.592697 184.58636 -4.9590969 7
-22.567495 187.17825 -5.1603417 7
-22.734591 191.35416 -5.0046349 7
-22.4963 192.03941 -5.085928 7
-22.719973 193.10855 -5.0312386 7
-22.663351 194.43896 -5.1712174 7
-22.403458 184.57816 -4.6923547 7
-22.641445 191.51691 -4.6242714 7
-22.408932 191.67032 -4.5305266 8.0594997
-22.605789 193.23592 -4.621778 7
-22.700661 184.49121 -4.1085958 8.0812502
-22.793049 185.84018 -4.0877185 7
-22.618273 192.64716 -4.2921481 7
-22.455357 193.14133 -4.2306452 7
-22.668905 193.51013 -4.2455711 7.5267501
-22.735886 183.49483 -3.7833445 7.7265
-22.600853 184.32381 -3.8639202 8.0856991
-22.664419 184.59056 -3.8446989 8.0887146
-22.406275 185.42497 -3.6031542 8.0439997
-22.583567 193.03651 -3.9458747 7
-22.524336 181.55946 -3.5584662 8.0939999
-22.624586 184.3096 -3.3425055 8.7428331
-22.556356 184.77339 -3.5971754 8.1009998
-22.65753 185.08685 -3.3679061 8.1020002
-22.739313 185.42476 -3.5180469 8.1005001
-22.597834 183.82607 -2.8620462 9.0885
-22.685898 184.08696 -2.8359368 9.0909996
-22.452559 181.02904 -2.5740066 9.0900002
-22.568501 181.28368 -2.6483984 8.5459995
-22.555824 184.23196 -2.7234621 8.7216673
-22.477465 184.45949 -2.7444773 9.0439997
-22.540092 180.61342 -2.2558949 9.092
-22.537354 181.36496 -2.2475333 9.5692501
-22.731047 180.33359 -1.8534062 9.3765001
-22.795935 181.92003 -1.9537941 10.089
-22.570723 180.54057 -1.445245 11.0485
-22.696198 181.03946 -1.4197561 11.046
-22.516466 190.15862 -0.72263831 9.1630001
-22.435526 193.71765 -0.19145758 10.013
-22.703169 206.65076 -0.19166271 9.0024996
-22.724096 191.83794 0.094256684 9.0065002
-22.562214 208.19307 0.62565351 9.0105
-22.573345 207.03001 1.04919 9.0194998
-22.734596 206.82796 1.937364 11.033
-22.676682 206.45551 2.39011 11.014
-22.646185 207.06419 2.063036 10.002833
-22.623634 208.79538 2.8856914 11.014
-22.293087 180.29802 -5.4003539 6
-22.056908 180.67024 -5.3610764 6
-22.316982 181.03745 -5.3727603 6
-22.008259 181.81367 -5.3941813 6
-22.032873 182.17499 -5.4116154 7
-22.140289 183.00481 -5.2182765 6
-22.178091 183.33476 -5.2612686 6
-22.11817 184.92628 -5.2246633 7
-22.074791 187.3515 -5.3274417 7
-22.219604 187.85089 -5.3069263 7
-22.287075 190.25104 -5.299665 7
-22.234282 191.72221 -5.2879553 7
-22.248035 193.25571 -5.3135495 7
-22.050255 184.7222 -5.1892295 7
-22.208946 187.07666 -5.1396723 7
-22.083815 190.66418 -5.1906967 7
-22.254414 191.26746 -4.961328 7
-22.214415 191.50139 -4.6316571 7
-22.156427 191.67142 -4.6759958 7
-22.300476 192.62164 -4.5590982 7
-22.134195 192.9537 -4.7611184 7
-22.023533 193.69508 -4.6078691 7
-22.140081 191.48294 -4.3403964 7.5349998
-22.117636 191.80992 -4.1925392 7.7046666
-22.323061 193.08495 -4.2354674 7
-22.045959 193.4689 -4.1767678 8.0592499
-22.00769 194.0368 -4.3397369 8.0904999
-22.076063 184.86011 -3.6473317 8.0450001
-22.17544 191.78055 -3.8969297 7.5335002
-22.343952 193.23537 -3.9499216 7
-22.095856 181.49466 -3.2871797 8.1274996
-22.176636 184.23058 -3.3672478 8.3858337
-22.228796 180.28201 -2.8550048 8.0092993
-22.36471 180.41769 -2.9918382 8.1634998
-22.265629 181.2915 -2.8792553 9.0454998
-22.139877 184.17868 -3.0967791 8.5410004
-22.247559 185.46609 -2.8767161 9.0620003
-22.262833 180.98773 -2.4799025 9.0887499
-22.075371 190.32617 -2.5803165 9.0434999
-22.095304 180.33179 -2.0302663 10.0885
-22.286444 180.53389 -2.0279899 10.0865
-22.164349 180.84073 -2.2704146 10.0795
-22.110455 181.49561 -2.2827291 10.05475
-22.228491 180.03072 -1.8322117 10.580999
-22.34462 181.24249 -1.771024 9.0185003
-22.144163 180.67845 -1.4504601 11.0795
-22.218096 190.38116 -0.67544657 9.1780005
-22.051119 190.55472 -0.2579332 10.0165
-22.371199 206.48523 -0.1215546 9.0030003
-22.192415 207.01279 0.76532888 10.0105
-22.366999 206.93369 1.0405903 10.0105
-22.052099 207.2778 1.5177598 10.135
-22.226971 207.36079 1.9559509 10.403666
-22.24736 206.4165 2.2785826 10.50975
-22.172243 207.38638 2.1976025 11.032
-22.122206 209.39743 3.3720005 11.011
-21.717348 180.35513 -5.395813 6
-21.827034 180.63728 -5.4024253 6
-21.933071 181.18982 -5.3809414 6
-21.853382 181.79073 -5.4702702 6
-21.813219 182.70175 -5.4363871 7
-21.791771 183.18582 -5.3193808 6
-21.765984 183.31812 -5.2841282 6.25
-21.798771 183.69983 -5.3577633 6.5
-21.85471 184.06198 -5.3618984 7
-21.989481 185.0838 -5.3814874 6
-21.902033 185.3213 -5.3828545 7
-21.916012 185.65323 -5.3236351 7
-21.803947 186.87234 -5.4785094 7
-21.782581 188.22148 -5.2022486 7
-21.797737 190.14355 -5.2912011 7
-21.661039 191.66119 -5.2133932 7
-21.727562 198.9962 -5.2682648 7
-21.994713 187.57397 -5.1734657 7
-21.701109 191.38791 -5.1836181 7
-21.966761 192.62244 -4.8731089 7
-21.830034 193.08975 -4.8838868 7
-21.814775 193.44016 -4.8524909 7.3630004
-21.67391 193.78386 -4.8339763 7
-21.681303 194.12932 -4.8959665 7
-21.731041 192.76854 -4.6094661 7
-21.805241 192.89261 -4.5697565 7
-21.758921 193.44797 -4.5656004 7.5237498
-21.82865 191.78227 -4.1791711 7.705667
-21.739132 193.41983 -4.3898582 8.0695
-21.701118 193.65572 -4.392972 8.0375004
-21.91629 184.18463 -3.7499881 7
-21.839384 184.70746 -3.2805192 9.0625
-21.968252 184.92467 -3.5935028 8.0434999
-21.812237 180.24776 -2.8750684 9.0582504
-21.834316 180.44028 -2.8888817 9.0860004
-21.804705 181.34143 -3.0217156 9.073
-21.727501 180.20175 -2.7739756 9.0924997
-21.803936 181.35869 -2.4801247 9.4163332
-21.859749 181.07625 -2.2221808 9.0235004
-21.971622 181.05971 -1.8808008 10.0915
-21.990532 188.07916 -1.6846553 9.1260004
-21.901403 190.37064 -0.57862961 9.1785002
-21.930187 190.53458 -0.6226331 10.0265
-21.902931 191.54945 -0.50338447 9.1440001
-21.987555 193.3891 -0.10890029 10.0095
-21.843241 206.23241 0.067546576 9.1514997
-21.93786 207.24727 1.5286111 10.1325
-21.682175 206.66434 2.0304422 10.0025
-21.858524 207.13719 2.1140862 10.1675
-21.920536 207.41458 2.1775081 10.5175
-21.892038 207.65584 2.2605581 10.138
-21.868731 208.68727 2.6107495 10.152
-21.904659 207.97179 2.8652899 11.0135
-21.754698 208.50157 3.011173 10.1445
-21.685101 208.07956 3.2902207 11.0105
-21.341984 192.3036 -5.640646 7
-21.460339 180.18114 -5.4393888 6.1111112
-21.363861 180.92221 -5.3529744 6
-21.488016 181.20912 -5.337729 7
-21.295879 182.06125 -5.3696361 6
-21.238455 182.67824 -5.3188787 6
-21.464027 183.04205 -5.2815747 7
-21.421019 183.40393 -5.2273717 6
-21.553036 183.88403 -5.2423882 6
-21.236446 187.43277 -5.2286811 7
-21.531385 180.91739 -5.1243215 6
-21.237995 187.88506 -5.1577454 7
-21.278683 192.23721 -4.9943304 7
-21.478848 193.73384 -4.828402 7
-21.503767 193.09097 -4.4032435 7
-21.499596 193.39442 -4.5803714 7
-21.420471 193.83302 -4.6224184 7.2601252
-21.336 193.55045 -4.0990891 8.0542498
-21.477814 193.79454 -4.3608398 8.0594997
-21.357019 194.00615 -4.0169358 8.0854998
-21.478895 188.04019 -3.6112366 8.0430002
-21.58824 193.50723 -3.6950448 8.0474997
-21.428576 193.82114 -3.8246949 8.0550003
-21.341106 180.74323 -3.2348971 8.1564999
-21.572342 180.3046 -2.8476207 9.0609999
-21.452665 181.02533 -3.0617845 9.052
-21.3873 181.35666 -3.1082282 9.0580006
-21.519634 190.19604 -2.9440696 9.0559998
-21.552914 181.9012 -2.3542938 10.0605
-21.311426 187.45476 -1.6932503 9.1254997
-21.420357 181.02419 -1.3985095 11.046
-21.211374 205.54509 -0.23826855 9.1669998
-21.338774 206.42183 0.78621113 10.01
-21.262274 204.8558 0.98603058 10.0095
-21.269812 207.54126 1.821054 10.004
-21.453108 206.62259 2.1732526 10.002
-21.47613 207.3941 2.0412025 11.032845
-21.451471 207.91226 2.2882416 10.596251
-21.491013 207.97842 2.5783539 10.682334
-21.359556 208.63893 2.535578 10.148
-21.336702 206.65961 3.1962452 11.01
-21.214428 207.05547 2.8695378 10.723332
-21.502888 209.96875 4.2131476 12.034
-21.016031 180.21747 -5.2805414 6
-21.011736 180.54344 -5.3131051 6
-21.083651 182.52193 -5.4631529 6
-20.907173 183.67844 -5.2159815 6
-21.150232 184.01227 -5.2405062 6
-20.856039 186.76118 -5.3081832 7
-20.873121 189.14301 -5.2095122 7
-21.11705 192.25102 -5.2236543 7
-21.060875 193.12329 -5.2887001 7
-20.865335 190.96481 -5.1998258 7
-20.975109 193.12794 -5.0286222 7
-21.191307 193.2896 -5.1554546 7
-21.018551 195.29147 -4.9205403 7
-20.880159 180.49884 -4.7034712 7
-20.943306 195.10562 -4.604496 7
-21.011959 180.52199 -4.3036327 7
-20.994556 193.64153 -4.3835478 8.0369997
-21.065102 180.56831 -3.7856226 8.0657501
-20.903837 180.84277 -3.6112347 8.052
-20.81669 193.60858 -3.9909108 8.085
-20.894329 194.18181 -3.8259192 8.0544996
-20.890469 180.42221 -3.5304835 8.0504999
-20.869907 180.76375 -3.0523043 9.0550003
-20.921154 207.55582 0.77974552 10.013
-21.072161 206.45026 2.1960015 10.139
-21.070152 206.85641 2.0406196 10.171
-21.088446 207.2845 2.1325171 11.0315
-20.823042 208.24161 2.3465326 10.1655
-20.826035 207.09143 2.4610071 10.1475
-20.945473 207.46036 2.5271981 10.15325
-20.933466 207.87796 2.5797133 10.680333
-20.950836 207.7139 2.8210204 10.006
-21.030359 208.91411 3.0893626 11.0105
-20.866085 207.98712 3.2110207 10.0085
-20.499725 207.62534 -5.7823 7
-20.466965 180.22072 -5.3471885 6
-20.700464 180.61528 -5.3238292 6
-20.605225 181.58081 -5.3848462 6
-20.64819 181.82326 -5.4121194 6
-20.56138 182.3114 -5.3399634 7
-20.710651 182.51828 -5.3979659 6
-20.604723 186.18736 -5.3938498 7
-20.507252 186.58582 -5.3559728 7
-20.631863 187.26312 -5.3004594 7
-20.402937 187.64233 -5.2426586 7
-20.568007 189.38179 -5.2498059 7
-20.484941 192.83641 -5.2641249 7
-20.786295 180.37424 -5.017777 6
-20.453789 182.58505 -5.1608553 6
-20.524471 183.12468 -5.1689191 6
-20.771093 187.88162 -5.1722045 7
-20.743078 188.30627 -5.1607141 7
-20.567957 193.93275 -4.8189812 7
-20.55044 194.06483 -4.8952723 7
-20.585352 180.50407 -4.7707667 7
-20.401314 194.49777 -4.5341911 7
-20.42148 187.99316 -4.1740541 8.0635004
-20.724689 193.51131 -4.0826335 8.052
-20.710125 195.06738 -4.1290874 8.0555
-20.60895 180.55701 -3.6900682 8.09725
-20.724194 187.77437 -3.6501536 8.0459995
-20.630947 180.32376 -3.3218341 8.1269999
-20.623032 180.65613 -3.553241 8.0475006
-20.541985 184.28497 -3.1356375 8.0232506
-20.653723 187.40533 -2.962538 9.0515003
-20.745087 181.3289 -2.7026577 9.0565004
-20.494921 204.62675 1.0496733 9.0244999
-20.505091 207.40613 1.5626385 10.132
-20.52693 207.64903 1.5695519 10.1345
-20.422258 204.4953 1.9646746 10.0015
-20.451324 206.04852 1.9609326 10.0045
-20.495708 206.78593 1.8290377 10.0035
-20.456202 205.08612 2.1372426 10.1385
-20.566607 205.46056 2.371021 10.1545
-20.578051 205.64148 2.1859083 10.0015
-20.708054 206.05466 2.042856 10.002
-20.680996 206.69753 2.1140773 10.761
-20.663666 206.85849 2.1596866 10.167
-20.684473 207.66891 2.0466471 10.005
-20.683638 205.52534 2.490299 11.021
-20.686884 205.94308 2.4884231 10.151
-20.519653 207.71074 2.6789379 11.0215
-20.598669 206.16499 2.809931 11.0125
-20.545696 207.68736 3.0340168 11.01
-20.501451 209.88672 4.3287807 10.0255
-20.065468 207.49237 -5.7882533 7
-20.227301 180.39691 -5.299686 6
-20.338951 180.41982 -5.5531483 6
-20.28751 181.13095 -5.5407457 6
-20.357561 182.3111 -5.4050903 6
-20.124397 182.57536 -5.2751722 7
-20.348541 182.88583 -5.3790627 6
-20.212614 183.47336 -5.3085079 6
-20.008755 184.60861 -5.4559789 6
-20.130669 187.18588 -5.3215103 7
-20.047197 190.02812 -5.2409511 7
-20.147062 190.90596 -5.5316629 7
-20.09362 193.14575 -5.3549733 7
-20.35817 195.52122 -5.3977656 7
-20.214287 182.62955 -5.141542 6
-20.157284 187.71248 -5.1359668 7
-20.390154 189.69693 -5.154623 7
-20.084782 190.71086 -5.1209884 7
-20.01874 192.24254 -4.9722357 7
-20.222939 193.0824 -5.1609216 7
-20.365782 194.59183 -4.8817263 7
-20.356636 180.30807 -4.5302572 7
-20.148289 187.48825 -4.5454245 7.54425
-20.302122 187.75905 -4.5360503 7
-20.111876 193.06529 -4.6081209 8.0500002
-20.141651 194.177 -4.6260147 7
-20.319466 194.55154 -4.7374868 7
-20.107254 185.10425 -4.3025517 8.0495005
-20.212011 187.4126 -4.2816296 8.0515003
-20.124359 194.2406 -4.050282 8.0710001
-20.04701 185.0564 -3.6127722 8.0447502
-20.244776 187.46684 -3.76231 8.0735006
-20.302248 187.69797 -3.9450634 8.0838327
-20.134768 184.26093 -3.4791796 8.0295
-20.106039 180.2438 -2.7562475 8.0010004
-20.34305 181.41066 -2.7462597 9.0909996
-20.17696 184.18591 -2.7035944 9.0748997
-20.298223 197.90776 0.69322085 10.007
-20.137714 204.64786 0.68097973 9.5089998
-20.202768 206.60066 0.50262177 9.0080004
-20.096441 207.10121 0.66523701 9.0094995
-20.119249 204.4818 0.90486407 9.0240002
-20.003092 204.72466 1.3466345 9.0209999
-20.150969 206.8535 1.4162593 9.0214996
-20.161983 208.49043 1.2305508 10.01
-20.164312 204.47374 2.0453527 10.516251
-20.339838 205.14246 2.3373389 10.002
-20.08317 205.40704 2.3359885 11.0215
-20.299776 205.65759 2.0948021 10.0015
-20.264526 206.74635 2.1514597 10.859417
-20.277035 206.89087 2.2627749 10.161
-20.27166 206.61545 2.6999683 10.005
-20.202066 206.96236 2.5248961 11.0175
-20.268005 207.4398 2.4778171 10.0025
-20.23801 207.71121 2.5810897 11.0165
-20.253916 206.24164 2.9501219 11.0095
-20.261942 206.40141 3.2496202 11.0095
-20.145733 208.40642 3.7557855 10.0115
-20.177204 209.61403 4.4760852 12.03175
-20.039341 209.79851 5.0815053 11.0025
-19.96619 180.63586 -5.6126113 7
-19.899439 181.74193 -5.4059858 6
-19.779015 183.8546 -5.2415485 6
-19.866756 184.32483 -5.3628335 6
-19.931606 187.448 -5.3003278 7
-19.894949 187.61951 -5.2825303 7
-19.800846 188.62367 -5.289887 7
-19.941975 189.79135 -5.2691307 7
-19.695333 190.02696 -5.2428045 7
-19.645088 187.55336 -4.9798412 7
-19.833923 187.65506 -4.8833933 7
-19.709341 190.40009 -5.1838937 7
-19.764404 191.28673 -5.0950961 7
-19.685295 192.94635 -4.9367332 7.5440001
-19.804733 193.97191 -4.8902478 7
-19.938503 184.5291 -4.6735668 7
-19.834223 192.99561 -4.6202898 7
-19.864527 193.67386 -4.6719851 7
-19.614754 184.72655 -4.1625214 8.0625
-19.782619 184.97873 -4.1130099 7.5444999
-19.675875 185.24704 -4.2412443 7.5244999
-19.901611 187.76404 -4.0172977 7
-19.885113 192.99823 -4.1993737 8.0597496
-19.654205 184.70442 -3.9005585 8.0830002
-19.976564 187.41243 -3.8606884 8.086833
-19.83559 188.14049 -3.8767135 8.0869999
-19.910387 188.31599 -3.5108771 8.0649996
-19.963497 189.42395 -3.5447464 8.1254997
-19.908871 184.1828 -3.1461911 8.0225
-19.843885 186.239 -2.5621178 9.0535002
-19.634109 187.93398 -2.6703925 9.0500002
-19.601736 182.44551 -2.0245585 10.0435
-19.809055 197.73465 0.75337929 9.0146666
-19.823027 198.11174 0.6154815 9.0089998
-19.787848 197.71602 0.89485306 9.0220003
-19.692661 206.15527 1.0875415 9.0165005
-19.633263 206.19617 1.2486962 9.0244999
-19.710199 206.81036 1.3664722 9.0235004
-19.909334 204.73795 1.8130827 10.1745
-19.912567 206.69345 1.9205537 10.175
-19.7598 206.62599 2.0982165 10.888
-19.732937 205.40781 2.5464661 10.764376
-19.686161 206.66838 2.5464101 11.016
-19.911921 206.79706 2.9737017 10.1435
-19.835041 207.13216 3.2087147 10.008
-19.943254 209.57402 4.4285111 12.031334
-19.222849 180.70187 -5.4182081 6
-19.480625 181.36844 -5.4353428 6
-19.362642 181.89761 -5.4151115 6
-19.32305 183.90952 -5.2582731 6
-19.441732 184.23209 -5.3499479 6.1428571
-19.461111 184.54572 -5.2936649 6
-19.26828 189.18282 -5.5407195 7
-19.369652 193.09944 -5.4073987 7
-19.20705 184.37497 -4.8790774 7
-19.405415 184.58846 -4.8414578 7
-19.20817 187.33911 -5.19171 7
-19.451309 190.73465 -5.1223421 7
-19.514559 191.49139 -5.1085835 7
-19.531656 192.90396 -4.8431568 7
-19.589771 184.34155 -4.5829315 7
-19.580788 187.67337 -4.7590914 7
-19.308464 192.74043 -4.5275655 7
-19.557028 193.17384 -4.752202 7
-19.577803 193.31737 -4.5783086 7.349833
-19.447233 184.70636 -4.2747564 7.462429
-19.404541 185.33093 -4.1717749 8.0620003
-19.301168 192.90315 -4.3377934 8.0675001
-19.448769 184.6627 -3.8346043 8.0797501
-19.369545 191.44632 -3.7851725 8.0539999
-19.570999 184.5874 -3.4472942 8.0620003
-19.34129 188.2709 -3.2488453 9.0404997
-19.214544 182.60835 -2.9757166 9.0325003
-19.345097 184.45831 -3.0896146 8.5489998
-19.267538 184.82014 -3.0579619 8.0240002
-19.338558 184.39932 -2.7657945 9.0504999
-19.487644 180.81708 -0.3572692 10.0055
-19.266047 197.95728 0.21807374 10.01
-19.565254 181.76854 0.5341115 9.0165005
-19.289635 182.00327 0.73301637 9.0155001
-19.564817 197.97653 0.53260779 9.0105
-19.59697 205.51648 0.4794876 10.0125
-19.238287 204.76297 0.98676556 9.0139999
-19.344015 204.98988 1.016216 9.0214996
-19.435072 206.78302 1.051277 9.0144997
-19.518267 206.86415 1.0482385 9.0190001
-19.311842 207.5833 0.95295507 10.0095
-19.519804 204.7659 1.3068554 9.0229998
-19.42234 203.96992 1.9869074 10.001
-19.499489 204.51717 2.1615524 10.1365
-19.587591 204.99667 2.1963456 10.001
-19.591108 205.81519 2.8522575 11.012
-19.381428 209.61845 4.3467064 12.032383
-19.216833 209.37672 4.5118546 12.031
-19.232372 209.9295 4.5991096 11.005
-19.510015 209.81107 5.0195217 11.681666
-18.918793 184.02844 -5.601099 6
-18.983198 180.62634 -5.4821439 7
-18.904478 181.46188 -5.4612813 6
-19.015133 182.39885 -5.3870201 7
-18.900763 183.54695 -5.4358883 7
-18.906691 183.87054 -5.3257875 6.4000001
-18.997562 184.3476 -5.2655797 6
-18.801144 184.41782 -5.3412466 7
-18.977697 184.81895 -5.2960935 7
-18.802462 185.8288 -5.3906155 7
-18.845634 184.49261 -5.0025487 7
-19.000454 190.17543 -5.0570121 7
-18.851324 191.53029 -5.1572065 7
-18.87908 191.88315 -5.1037521 7
-19.174267 192.06158 -5.0448585 7
-19.18718 192.8325 -5.0991764 7
-18.988762 193.39911 -4.8277426 7
-18.820654 193.63571 -5.0449381 7
-19.064255 194.6548 -4.8741164 7
-19.101723 184.72108 -4.6743555 7
-18.869343 192.03697 -4.5684347 7
-18.913408 192.99445 -4.5496244 7
-19.127171 193.24394 -4.6648765 8.0880003
-19.031317 185.07751 -4.1011019 8.0670004
-19.138084 184.42168 -3.8319817 8.085
-19.000174 184.84299 -3.7787383 7.5412502
-19.147511 184.80937 -3.5904768 8.0430002
-19.139637 185.46503 -3.2837934 9.0600004
-18.951048 190.64661 -3.2437758 9.0574999
-18.803864 191.082 -3.5182381 8.0629997
-18.946945 181.41505 -2.8246684 9.0410004
-19.181721 185.05333 -3.0926721 9.0620003
-19.044996 182.06198 0.64493078 9.0170002
-19.049452 197.67839 0.56136149 10.0065
-18.96299 204.08972 1.8320382 11.0315
-19.152981 206.78307 1.9171999 10.003
-19.155462 205.67596 2.0815718 10.17
-19.053091 205.81339 2.5331068 11.0155
-19.053749 206.02701 2.9934671 10.576
-19.083158 209.71667 4.5691943 12.0315
-18.690023 180.22324 -5.4816413 7
-18.621532 180.99942 -5.4681435 6
-18.668015 181.87503 -5.5190058 7
-18.655354 183.5737 -5.4391046 7
-18.67329 184.1256 -5.2687068 6
-18.631424 185.73019 -5.4557853 6
-18.622177 186.87915 -5.2836967 7
-18.640829 190.22108 -5.4551477 7
-18.7258 193.13943 -5.3943739 7
-18.594133 192.39391 -5.0396333 7
-18.70689 193.57837 -5.1353083 7
-18.733021 194.62946 -4.8489199 7
-18.587831 192.26414 -4.5088 7
-18.590757 192.65283 -4.4567084 7
-18.645845 191.34952 -4.224781 7.51475
-18.72714 192.12337 -4.1971402 8.0605001
-18.649538 192.74963 -4.1891136 8.0754995
-18.595556 191.33421 -3.6500051 8.0415001
-18.406929 192.60704 -3.6398518 8.0424995
-18.594831 181.47778 -2.9686239 8.5297499
-18.519764 186.95863 -3.1395366 9.0369997
-18.419918 181.53789 -2.766921 9.052
-18.745613 186.52296 -2.761723 9.0550003
-18.646816 186.85852 -2.6679389 9.0424995
-18.486788 180.4662 -2.2475705 10.048
-18.453484 181.18698 -2.2153282 10.052
-18.471569 188.37775 -0.57812744 9.1549997
-18.676086 192.48395 -0.48396426 9.1564999
-18.747019 187.98595 -0.27692524 9
-18.677382 181.54701 0.99857455 11.5285
-18.507608 204.79742 1.9015034 10.174
-18.491867 205.84711 1.9111496 10.0025
-18.524597 205.11989 2.0238802 11.030999
-18.572371 205.56686 2.2801354 10.07025
-18.650961 205.9646 2.1964812 10.001
-18.57276 205.53349 2.4455268 10.0015
-18.654528 205.75867 2.4646845 11.021
-18.611376 209.23802 3.5767303 10.0095
-18.597925 209.72536 4.6416655 12.03
-18.68697 209.91451 4.9260941 12.022
-18.15464 181.05367 -5.3863239 6
-18.079824 181.3149 -5.348146 6.3333335
-18.373365 181.64612 -5.3851237 6
-18.304733 184.15466 -5.2579222 6.5
-18.261652 185.67732 -5.2927623 6
-18.160023 187.96027 -5.2168093 7
-18.178841 181.42827 -5.0554028 6.5
-18.128603 188.75632 -5.1502361 7
-18.193905 193.50677 -4.8190002 7
-18.134712 194.16548 -5.1838756 7
-18.048582 180.85045 -4.4017401 7
-18.118279 181.42273 -4.6618695 7
-18.088108 190.76607 -4.4269729 7
-18.062347 190.83336 -4.5106535 7
-18.117197 191.43617 -4.5882812 7
-18.112392 191.64635 -4.6849475 7
-18.071262 192.31696 -4.4951158 7
-18.384357 192.42514 -4.6652317 7
-18.15309 192.97626 -4.6000481 7.5225
-18.084414 180.99205 -4.2389765 7
-18.208994 181.39359 -4.2810974 7.1999998
-18.091602 181.81113 -4.1175222 8.0402498
-18.137705 192.14017 -4.2965436 8.0664997
-18.240313 181.35622 -3.8463783 8.0594997
-18.115679 181.79483 -3.8063357 8.0542507
-18.094519 190.81398 -3.637403 8.0410004
-18.257484 181.44095 -3.557894 8.0328331
-18.012369 181.90796 -3.5888071 8.0495005
-18.309582 180.54008 -2.8344731 9.04
-18.010651 181.43036 -2.986038 9.0515003
-18.063875 182.16615 -2.8222947 9.0495005
-18.31896 187.49623 -3.0735276 8.0214996
-18.254766 190.42949 -3.1187952 9.0664997
-18.192709 181.5137 -2.7470734 9
-18.164591 187.39125 -2.5726044 9.0459995
-18.173933 187.16026 -1.4778759 9.1260004
-18.274223 190.8853 -1.5305642 8.0170002
-18.195387 187.0493 -0.5337736 9.1759996
-18.295784 192.30769 -0.6176663 9.1700001
-18.268135 192.86868 -0.46197227 9.177
-18.11957 187.92361 0.11580721 10.005
-18.05987 188.64845 0.033413883 9.0024996
-18.130676 189.01936 0.15183464 10.0055
-18.081144 188.35486 0.42150614 10.0025
-18.235231 204.66586 2.2305415 10.5145
-18.314459 205.01987 2.2045262 10.514999
-18.203096 205.45103 2.055342 10.0035
-18.208302 205.75021 2.3187482 10.162
-18.254299 207.32184 2.1631658 10.004
-18.270775 205.67239 2.6631112 11.02
-18.188988 209.78629 4.4636698 12.031841
-17.892776 180.61559 -5.6160684 6
-17.814222 180.20134 -5.4701538 7
-17.634441 180.74054 -5.5620322 6
-17.684288 181.34962 -5.4362698 6.1428571
-17.768103 181.6871 -5.3189588 7
-17.820782 184.18309 -5.2777362 6
-17.767429 184.79861 -5.2019053 7
-17.882607 184.98021 -5.2766838 6.5
-17.715422 186.70569 -5.3320794 7
-17.86894 191.92699 -5.2061281 7
-17.770607 192.01527 -5.3158841 7
-17.998787 181.36197 -5.0143642 6
-17.850798 181.69926 -5.0626502 7
-17.703209 187.19806 -5.1612458 7
-17.807688 188.7117 -5.1582541 7
-17.797909 191.03503 -4.8749337 7
-17.877701 191.44885 -4.9477539 7
-17.81151 191.86874 -5.0676937 7.1552854
-17.763643 192.10767 -4.9069314 7
-17.832747 181.34167 -4.6707873 7
-17.75304 191.07393 -4.7119265 7
-17.729595 191.45253 -4.6790671 7
-17.791874 191.81906 -4.5719748 7
-17.744999 192.10828 -4.5775542 7
-17.660273 193.15459 -4.6893024 7
-17.904524 194.35252 -4.5175757 8.0445004
-17.622696 194.45386 -4.6449056 7
-17.848524 181.07961 -4.3009295 7
-17.853407 181.37831 -4.2497478 8
-17.873573 182.58623 -4.0879393 8.0380001
-17.700922 190.88708 -4.234901 7.7186666
-17.740185 191.8414 -4.2094483 8.0742502
-17.762182 181.05785 -3.867651 8.06775
-17.935022 181.39047 -3.6602314 8.1207504
-17.873247 181.81404 -3.7865217 8.0625
-17.602196 182.50127 -3.6755426 8.0885
-17.677324 186.97906 -3.6078076 8.0524998
-17.662403 187.86711 -3.6249235 8.0480003
-17.659609 190.75499 -3.9094665 8.0834999
-17.691883 181.12099 -3.3870249 9
-17.829664 181.52179 -3.4079697 8.5244999
-17.666067 181.71468 -3.4282894 8.5445004
-17.665323 190.86461 -3.5775034 8.0395002
-17.76717 180.56917 -2.9903305 9.0509996
-17.728855 181.39403 -3.0897582 8.4595003
-17.751547 181.82414 -3.0972838 8.5392494
-17.724495 186.46288 -2.7688293 9.0539999
-17.965076 187.70035 -1.3838953 8.0155001
-17.787479 187.22295 -0.56387246 10.0235
-17.838737 188.7906 -0.48000643 9.1765003
-17.940878 192.92287 -0.52857769 9.177
-17.782869 187.3903 -0.12047661 10.013
-17.733479 188.05768 -0.19626236 9.7336664
-17.710548 187.45728 0.28375384 9.007
-17.766581 188.19406 0.35928905 9.0054998
-17.630943 189.11035 0.20918328 9.0039997
-17.621101 187.81792 0.50243288 9.0089998
-17.756384 197.89757 0.87258875 9.0139999
-17.892225 198.36653 1.8990791 10.158
-17.833181 204.92931 1.9075327 10.002
-17.834745 205.57701 2.1536489 10.1695
-17.635523 205.49207 2.5203054 11.0205
-17.867638 209.94084 4.6783462 12.0305
-17.586914 180.99431 -5.6195989 7
-17.292746 180.73839 -5.504612 7
-17.373041 181.01141 -5.4702916 6.1666665
-17.556974 181.23747 -5.455792 7
-17.497599 182.42924 -5.3711915 7
-17.292408 184.72014 -5.3217325 6
-17.445688 185.09189 -5.3933768 6.3333335
-17.308111 185.86549 -5.3551116 6.6666665
-17.395401 186.19066 -5.3580923 6.5
-17.386806 186.9832 -5.3978434 7
-17.269081 190.95059 -4.8892598 7
-17.412025 191.3965 -4.9824166 7
-17.508768 191.92509 -4.9285159 7
-17.598665 192.14742 -5.0025115 7
-17.596373 192.61658 -4.8892164 7
-17.524445 190.75674 -4.6724772 7
-17.355696 191.08145 -4.4971533 7.271625
-17.450802 191.56203 -4.7535558 7
-17.23064 191.69946 -4.7285657 7
-17.237583 192.19545 -4.7063589 7
-17.583094 192.66167 -4.4795299 7
-17.278793 192.84232 -4.773654 7
-17.436241 193.80437 -4.7269106 7
-17.228676 187.99606 -4.1934528 8.059
-17.398954 190.94179 -4.093276 8.0900002
-17.408342 191.74792 -4.3180699 7.7150002
-17.598854 181.0742 -3.9583256 8.0649996
-17.362061 188.17012 -3.8020315 8.0405006
-17.547987 190.89034 -3.6404746 8.0507498
-17.262218 193.692 -3.6586864 8.0469999
-17.384809 187.82622 -3.4711947 8.026
-17.213938 188.36278 -3.5569384 8.0734997
-17.517405 181.51666 -3.1007564 8.0225
-17.327925 186.66769 -0.64560896 9.1745005
-17.446484 193.03575 -0.4788726 9.1700001
-17.37373 187.18536 -0.058096021 10.008
-17.439493 187.21243 -0.17863435 10.0135
-17.464987 187.44144 0.10422973 10.004666
-17.48213 188.5757 0.052947056 10.0055
-17.523703 180.0518 0.75185174 14.058
-17.563257 187.70956 0.46493664 9.6724997
-17.326391 180.5119 0.81566429 14.0575
-17.261395 197.90572 1.8453436 10.1635
-17.317921 208.50018 3.1626389 11.021
-17.093472 180.92348 -5.6119547 6
-16.963882 180.67769 -5.5564542 6
-16.917072 181.07501 -5.4913864 6
-17.053453 181.38486 -5.4702649 6
-17.19767 181.6265 -5.2365875 6
-16.97312 183.72186 -5.3181715 6.5
-17.064476 184.20505 -5.228632 6
-17.048462 186.4062 -5.5291567 6
-17.146481 186.97124 -5.2694321 7
-16.936895 187.62123 -5.2528791 7
-17.173775 191.80374 -5.2960687 7
-16.864017 183.70111 -5.1923814 6
-17.056526 187.31064 -5.1423497 7
-16.934841 187.86478 -5.0864253 7
-17.113535 191.62376 -5.1506557 7
-16.881321 192.28993 -5.1873116 7
-17.006035 192.40396 -4.9963937 7
-17.014502 193.8322 -4.8297496 7
-16.998814 187.93571 -4.5593672 7
-17.01355 188.22438 -4.5548301 7
-16.837006 193.97179 -4.4572406 7
-17.048571 194.05113 -4.5554957 7
-16.84347 187.80453 -4.3379607 8.0570002
-16.915142 188.32719 -4.1161313 8.0609999
-17.057877 190.99272 -4.1908298 8.0610008
-16.918488 191.52965 -4.3985953 7
-17.102016 191.74783 -4.2869682 8.0345001
-17.010532 188.18156 -3.8040538 8.0664997
-16.827255 191.55013 -3.9874408 8.052
-16.997555 180.99971 -3.4778392 8.0450001
-16.932447 187.59517 -3.5900297 8.0395002
-17.082363 180.89719 -3.0365264 9.0585003
-17.198011 181.44656 -2.9660108 9.0504999
-17.135887 181.86188 -3.1074731 8.3608332
-16.817406 182.4599 -2.8595536 9.0544996
-16.988598 186.56401 -0.58511931 9.1630001
-17.063297 187.0202 -0.08622878 10.0125
-17.039549 181.73523 0.31386694 13.0375
-16.825878 186.95836 0.061704051 10.0045
-16.800453 187.4408 0.38082305 10.0015
-17.178101 187.5623 0.57676381 9.0109997
-17.055536 198.04817 1.6475567 10.1715
-17.191175 205.39384 2.7300429 11.0115
-16.983566 207.4599 2.8833973 11.012
-17.029671 208.39661 3.2041104 11.021
-16.669422 181.01297 -5.6042595 6
-16.52696 192.45813 -5.6473007 7
-16.698271 181.00577 -5.4932804 6
-16.689951 181.97009 -5.248024 6
-16.415333 183.98152 -5.2107096 6
-16.517279 184.67818 -5.3396573 6
-16.60244 184.88185 -5.3115239 6
-16.643744 186.62741 -5.3509669 6.6666665
-16.559486 187.31432 -5.4404292 6.5
-16.771717 187.76689 -5.3056674 7
-16.506905 188.15623 -5.2170887 7
-16.7076 191.52438 -5.3021293 7
-16.611944 192.47003 -5.3125782 7
-16.440172 183.84932 -4.882627 7
-16.608963 184.0309 -4.8901939 7
-16.721762 186.72545 -5.0159454 7
-16.703741 187.27284 -5.1180258 7
-16.781811 188.408 -4.9863935 7
-16.638428 191.95616 -5.0892892 7
-16.480104 192.17665 -5.1548443 7
-16.737288 187.8026 -4.4818001 7
-16.535954 188.28398 -4.5897474 7
-16.583519 191.87546 -4.6510048 7
-16.617199 187.96938 -4.0838652 8.0900002
-16.769339 188.35378 -4.269166 7
-16.531771 189.82558 -3.6055079 8.0442505
-16.425838 191.85449 -3.971014 8.0695
-16.527464 181.09851 -3.4849195 8.0985003
-16.623205 181.37621 -3.2351532 8.1379995
-16.603909 187.50406 -3.3444088 8.1113758
-16.613956 180.77081 -3.0825193 8.0174999
-16.603733 183.52023 -3.044857 8.0200005
-16.492449 184.1088 -3.1124609 8.1794996
-16.696709 184.15257 -2.6538377 9.0445004
-16.679377 189.11914 -2.598367 9.0509996
-16.458321 180.23573 -0.75333607 12.0375
-16.736607 186.22215 -0.65727091 9.1669998
-16.777891 180.18935 -0.054322291 13.057
-16.695465 180.45204 -0.003717605 13.041
-16.718954 186.75056 -0.081240743 10.01025
-16.401962 181.32805 0.20128174 13.0545
-16.591833 181.77959 0.29811996 13.037
-16.267599 181.16695 -5.6031079 6
-16.061401 192.06798 -5.6253667 7
-16.27998 180.37151 -5.535574 6
-16.181025 182.26602 -5.2564268 6
-16.044394 183.40958 -5.3671365 6
-16.150902 183.8734 -5.2127652 6
-16.030495 184.22195 -5.4341273 6
-16.320316 186.90683 -5.4523711 6.5
-16.384148 187.90251 -5.3116264 7
-16.187902 188.64871 -5.2999287 7
-16.313898 189.18121 -5.4604659 7
-16.353306 191.38737 -5.292695 7
-16.150045 183.80864 -5.0700912 6.7142859
-16.197557 184.11464 -4.9979744 7
-16.342915 187.68744 -5.0921474 7
-16.071743 190.89478 -4.8296928 7
-16.231424 191.63947 -5.0116658 7
-16.270784 192.14131 -5.143877 7
-16.013987 183.90627 -4.7747941 7
-16.044523 189.88522 -4.4974999 7
-16.03821 190.9884 -4.661912 7
-16.037573 191.80879 -4.6961079 7
-16.138807 189.7357 -4.1030383 8.0887508
-16.145233 189.51711 -3.8548348 8.0845003
-16.082678 189.73676 -3.7436082 8.0515003
-16.094831 183.7478 -3.4938283 8.0365
-16.055983 184.28401 -3.3613122 8.0935001
-16.134727 187.56981 -3.2608545 9.0565004
-16.352758 187.7016 -3.3574302 8.1280003
-16.239597 189.72328 -3.5453262 8.0380001
-16.381798 185.00134 -3.0487187 8.0209999
-16.331867 186.11243 -2.8778279 9.0469999
-16.310656 183.75822 -2.7467453 9.0487499
-16.336981 184.17311 -2.7546089 9.0469999
-16.183073 182.0322 0.31548515 11.693166
-16.231504 181.9127 0.57313246 13.0615
-16.301592 208.74245 3.3041611 11.0115
-15.672379 180.03799 -5.296792 6
-15.855561 181.27461 -5.5981274 6
-15.733355 182.17404 -5.2368507 6
-15.645356 183.33305 -5.3942118 6
-15.755288 187.67439 -5.242219 7
-15.734236 190.80101 -5.2252884 7
-15.961136 191.8076 -5.2124443 7
-15.670624 183.54425 -5.1209512 6.3333335
-15.879964 183.69003 -5.0410452 6.5
-15.73182 188.34645 -5.1243796 7
-15.864223 189.93971 -4.8479204 7
-15.944427 191.84126 -5.1392436 7
-15.697659 183.54973 -4.7439499 7
-15.797967 189.85284 -4.5864549 7
-15.799052 190.19023 -4.5643196 7
-15.671624 190.70888 -4.6080179 7
-15.863659 191.11061 -4.682158 7
-15.646738 183.59323 -4.2495718 7
-15.769732 183.65346 -4.2252884 8.0579996
-15.707865 189.52512 -4.3068552 7.5219998
-15.638134 189.7104 -4.3697219 7
-15.904981 191.93794 -4.3781853 7
-15.632403 182.87488 -3.9044313 8.0740004
-15.728309 189.84006 -3.879328 8.0863571
-15.641106 190.47778 -3.9007416 8.0869999
-15.771646 183.66444 -3.2946064 9.0579996
-15.727165 184.28606 -3.4516187 8.0655003
-15.908564 184.83517 -3.4167669 8.0249996
-15.935903 185.7491 -3.4322853 8.0255003
-15.769716 186.62741 -3.2898765 8.1415005
-15.671939 189.76213 -3.567239 8.0392504
-15.767177 190.0368 -3.3250256 8.0752497
-15.665956 184.52315 -3.0533211 8.0209999
-15.866914 185.98903 -2.8662713 9.0465002
-15.886103 183.74959 -2.6980629 9.0442505
-15.822884 194.18983 -1.0885918 9.0039997
-15.806555 180.09181 -0.073415287 13.045
-15.90333 181.41687 0.18133055 11.0215
-15.77982 208.06813 2.4416754 11.030501
-15.324864 183.77168 -5.239161 6
-15.57272 187.41046 -5.4760499 6
-15.541641 189.15602 -5.3347602 7
-15.554146 189.93677 -5.3008027 7
-15.236462 190.62215 -5.2502856 7
-15.339588 191.42015 -5.2945814 7
-15.381072 183.47098 -5.0002379 6.5
-15.414827 183.64273 -4.9937553 6.6666665
-15.298986 190.55608 -5.1192827 7
-15.317725 183.4727 -4.685535 7
-15.489607 183.62593 -4.558435 7
-15.319093 189.93523 -4.6091375 7
-15.431417 183.13858 -4.0777202 8.0600004
-15.273352 183.64569 -4.3863888 7
-15.534249 189.58116 -4.1760201 8.0640001
-15.580012 189.65517 -4.0734186 8.0550003
-15.435015 190.23952 -4.2402439 7.7146668
-15.484453 183.51505 -3.7740364 8.0472498
-15.560252 183.73512 -3.8273375 8.0885
-15.400071 189.6776 -3.8473275 8.0839996
-15.30225 182.79536 -3.56669 8.0509996
-15.4709 184.2438 -3.4974782 8.059
-15.433276 189.64194 -3.5716243 8.0395002
-15.344085 193.16982 -0.27972546 9.1595001
-15.210261 207.82555 2.6223104 10.0005
-15.11063 180.17085 -5.4809198 6
-14.830977 180.71455 -5.5176482 6
-14.974851 182.34984 -5.2307181 6
-15.048272 183.7597 -5.4055939 6
-14.983329 187.38676 -5.3005943 6.5
-14.957068 188.87752 -5.5528316 6
-14.900157 190.77122 -5.5068169 7
-15.191048 191.31433 -5.221137 7
-14.888678 180.0528 -4.950624 6
-15.092512 183.40236 -4.8547521 7
-15.082604 191.08871 -5.0876908 7
-15.061881 191.54262 -5.1351504 7
-15.003095 191.68213 -5.0919819 7
-14.993504 183.28606 -4.637126 7
-14.980712 190.32295 -4.6277013 7
-14.837411 190.43825 -4.4780273 7
-14.850637 180.20081 -4.180419 7
-15.023416 190.41443 -4.3571339 8.0544996
-14.868899 193.21678 -4.1353383 8.0574999
-15.034712 180.18489 -3.8754425 8.0754995
-15.02459 182.78027 -3.6597269 8.0795002
-15.03921 182.99452 -3.7702534 8.0853338
-15.007193 183.91049 -3.7207832 8.0784998
-14.975645 184.16451 -3.748971 8.06425
-15.066926 189.54448 -3.8727636 8.06425
-15.014194 189.68835 -3.8650241 8.0761251
-14.973016 192.0612 -3.96612 8.0504999
-14.973292 180.2641 -3.5253441 8.0434999
-15.041839 180.49567 -3.3162644 8.0683336
-15.107394 182.96916 -3.4534085 8.0424995
-15.039198 190.25859 -3.4322298 8.0939999
-15.172638 180.53497 -2.8355329 9.0515003
-14.822689 180.82454 -3.1003993 8.0200005
-15.082709 184.74434 0.64039427 11.02025
-14.988897 207.35402 1.5323015 9.0229998
-14.965901 197.448 2.2689457 10.7275
-14.800406 208.65291 2.5869229 10.1655
-15.060704 209.03116 2.5972102 10.881499
-15.198477 209.43961 3.074451 11.015
-14.503647 180.10725 -5.2574701 6
-14.671473 182.60457 -5.3268628 6
-14.456052 183.18842 -5.4172945 6
-14.642498 184.66345 -5.2547908 6
-14.782598 185.40016 -5.3514013 6
-14.692686 185.69978 -5.4436264 6
-14.571492 187.65735 -5.4756303 6
-14.511136 188.99968 -5.2933078 7
-14.704133 190.36971 -5.3162308 7
-14.59732 191.76393 -5.4433241 7
-14.656448 193.12379 -5.3744931 7
-14.584278 195.39067 -5.2676663 7
-14.667072 180.19626 -5.0940471 6
-14.4879 190.36638 -5.0394864 7
-14.675135 190.59395 -5.0159183 7
-14.727923 191.40111 -5.1750693 7
-14.487973 193.25447 -4.9577184 7
-14.605586 194.06674 -5.1535993 7
-14.529295 180.17104 -4.7026153 7
-14.440161 192.38541 -4.7223902 7
-14.629594 193.02806 -4.5872359 7
-14.721879 180.17229 -4.1658831 7.5295
-14.701647 190.03288 -4.3336477 8.0360003
-14.503098 192.94431 -4.2408586 8.0550003
-14.614945 180.23093 -3.7481847 8.0785627
-14.795192 182.98294 -3.6866446 8.0795002
-14.687377 189.79468 -3.9562132 8.0845003
-14.720231 180.34731 -3.5681679 8.0860004
-14.571665 188.15071 -3.5607588 8.0434999
-14.729548 190.35005 -3.3371844 8.1265001
-14.57245 180.1107 -2.850632 9.0450001
-14.667884 186.33958 -1.1584514 8.0120001
-14.767577 184.3954 0.71681798 11.0185
-14.440337 184.5248 0.42017466 10.089
-14.601907 196.61952 1.9743929 10.177
-14.667946 208.70782 2.6717999 11.029
-14.077515 180.13841 -5.2544489 6
-14.344901 181.35553 -5.5566816 6
-14.079844 182.15404 -5.4537988 6
-14.26367 182.72023 -5.2425737 6
-14.178862 184.39742 -5.2642102 6
-14.135571 185.17804 -5.4594402 6
-14.164022 185.23935 -5.2972407 6
-14.168104 187.46519 -5.3647723 6
-14.313465 187.79427 -5.5313129 6
-14.255432 188.01859 -5.4898634 6
-14.101204 190.60963 -5.2417865 7
-14.102864 190.81825 -5.2418132 7
-14.309665 192.79749 -5.476213 7
-14.203883 192.92442 -5.3230896 7
-14.231429 188.23671 -4.8999119 7
-14.076975 190.70602 -5.0170102 7
-14.157506 193.10733 -5.1335526 7
-14.095787 190.8546 -4.6508651 7
-14.147741 192.35315 -4.5906487 8.0854998
-14.07093 188.22662 -4.3792357 8.0465002
-14.339609 189.98203 -4.16641 8.0629997
-14.18186 190.69417 -4.1962676 8.0555
-14.16899 180.31108 -3.8901885 7
-14.036527 188.31297 -3.7806499 8.1215
-14.346632 189.89078 -3.8824399 8.0846663
-14.015348 191.0269 -3.847028 8.0629997
-14.292626 192.92958 -3.9763377 8.0515003
-14.320232 180.02843 -3.4471977 8.0974998
-14.066387 187.9359 -3.37293 8.5579996
-14.046582 185.14702 -2.7085264 9.0489998
-14.216435 184.50301 -1.4614697 9.1260004
-14.140563 180.93486 -0.61069858 9.0942497
-14.105871 181.58813 -0.047800541 10.0885
-14.371434 181.81528 -0.087617733 10.0885
-14.19755 197.05931 0.031478766 9.1464996
-14.009406 180.53748 0.40540612 11.016
-14.287195 184.59947 0.79233551 11.0855
-14.104145 184.758 0.88429546 10.089
-14.109194 196.64746 1.8295254 10.883834
-14.21507 196.68269 2.1958289 10.15
-13.967864 180.74188 -5.2894912 6
-13.779032 181.76494 -5.5744715 6
-13.866987 182.98761 -5.4024997 6
-13.91446 183.6584 -5.4079509 6
-13.770642 184.02156 -5.394865 6
-13.939569 185.71138 -5.3597703 6
-13.623944 186.50632 -5.2880149 6
-13.779234 187.82343 -5.5314045 6
-13.680618 188.14326 -5.4916592 6
-13.982328 190.63124 -5.2049117 7
-13.870145 191.03709 -5.4096351 7
-13.803631 192.66788 -5.2439528 7
-13.9118 209.58601 -5.4053736 7
-13.982447 191.0542 -4.8701534 7
-13.816479 192.56088 -5.1486425 7
-13.746203 188.17493 -4.5267057 7
-13.857126 190.78415 -4.7441783 8.085
-13.803263 191.24823 -4.4571986 8.0454998
-13.706182 195.75429 -4.4407115 8.052
-13.646093 190.53711 -4.1702113 8.0625
-13.642895 192.74825 -4.2562451 8.0314999
-13.874964 188.14186 -3.834873 8.0718336
-13.798193 190.96652 -3.8151295 8.0845003
-13.659597 192.65637 -3.9613788 8.0510006
-13.673225 185.3004 -3.4881504 8.0454998
-13.862763 188.40312 -3.560914 8.0719995
-13.629643 188.01193 -2.5795424 9.0424995
-13.611381 192.38675 -1.3209518 8.0159998
-13.714499 180.5845 -0.49457929 9.480834
-13.721985 180.93333 -0.10763716 10.572001
-13.844056 180.71291 0.18702397 13.0405
-13.706748 187.30035 0.30227521 10.0035
-13.624636 188.34642 0.12444748 10.0125
-13.91632 184.70724 0.72519898 11.0845
-13.650054 182.86534 1.0391752 9.1485004
-13.743423 184.76152 0.87638712 12.085
-13.969632 185.71672 1.1056119 11.084
-13.759548 196.31993 0.87234992 10.004
-13.780785 196.58926 0.92680186 9.0150003
-13.969947 197.66577 2.4838712 11.087
-13.554797 208.87863 -5.8802981 7
