# .PCD v0.7 - Point Cloud Data file format
VERSION 0.7
FIELDS x y z intensity
SIZE 4 4 4 4
TYPE F F F F
COUNT 1 1 1 1
WIDTH 1248
HEIGHT 1
VIEWPOINT 0 0 0 1 0 0 0
POINTS 1248
DATA ascii
-63.021191 -51.567169 5.3892326 12.57725
-62.889725 -49.610401 5.550539 8.1550007
-62.982956 -48.993317 5.3800101 9.3484764
-62.983891 -46.1008 5.3763638 13.198667
-62.973637 -45.817986 5.3705029 11.951334
-63.069801 -45.43058 5.3689365 10.971833
-63.106033 -59.64996 5.7319608 12.885813
-63.029339 -59.446301 5.7740297 13.572301
-62.830883 -57.326019 5.700501 12
-62.966179 -57.122509 5.7860093 11.836333
-63.097584 -51.64373 5.8313727 13.537374
-62.94207 -51.569817 5.9588666 13.384
-62.86916 -49.565414 5.6849446 8.1514997
-63.102295 -48.933849 5.6386461 10
-63.036339 -46.016075 5.9665322 11.358001
-63.026123 -45.764446 5.8318734 11.749592
-63.070007 -45.434788 5.7942719 11.339622
-62.973511 -45.027771 5.9353437 11
-62.92289 -44.54501 5.8057733 11
-63.144199 -59.618786 6.1315722 14.176084
-63.058434 -59.432396 6.1816163 13.315686
-62.927513 -57.231098 6.1664176 13
-63.012459 -57.083843 6.1842051 13.773376
-62.861263 -51.644375 6.0687175 14.035
-62.998627 -51.563992 6.1973424 12.846583
-62.962341 -49.427017 6.1581154 8.1619997
-63.148224 -49.137318 6.2443342 11.073
-63.103222 -48.625141 6.2540727 11.075
-62.975822 -47.767857 6.1681323 11.081
-62.988258 -46.061378 6.1703053 13.531917
-62.995365 -45.781593 6.2167406 12.086792
-63.056068 -45.409306 6.2236547 11.934783
-63.007908 -44.568192 6.0790844 11
-63.110962 -59.690533 6.6899266 10
-63.026863 -59.410591 6.5694747 12.722222
-62.842911 -57.241146 6.5507932 13
-63.049824 -57.061626 6.5938749 13.620801
-62.820332 -54.296467 6.5865035 14.033
-62.992523 -53.722191 6.651825 14.024333
-62.974667 -53.543518 6.7468176 13
-62.947678 -52.459698 6.7120643 14.0365
-62.830154 -52.077763 6.7853756 15.0745
-63.017254 -51.62756 6.6663942 14.5385
-63.047199 -51.567196 6.6477985 14.537001
-62.841282 -49.084019 6.7402 12.119
-62.978931 -46.074448 6.6365542 11.056399
-63.029358 -45.760494 6.5810294 12.579
-63.071156 -45.415344 6.5814028 11.291461
-63.167416 -45.065205 6.7796607 10
-63.091095 -59.754971 6.8890972 10
-63.030552 -59.405437 7.005651 12.0062
-63.182545 -59.035721 7.0471725 10.833333
-63.130203 -57.271793 7.0196562 14
-63.012398 -57.126461 6.8394508 13.666667
-63.080772 -53.747044 7.0321617 14.566751
-63.024399 -51.664806 6.9614868 12.704666
-62.978016 -51.580311 6.9823523 14.6306
-63.169907 -50.657593 6.968461 15.075
-62.856697 -50.056896 7.036705 15.076
-62.967701 -49.519516 6.9388366 9.1592503
-63.04961 -49.042664 6.9340897 12.12075
-63.133766 -48.565716 7.0218291 12.1205
-63.011387 -46.059998 6.9988999 13.666667
-63.044407 -45.79668 7.0068445 13.548273
-63.060387 -45.371502 6.9981251 12.153846
-62.916134 -44.857773 7.1821179 15
-62.943779 -44.769894 7.0401649 13
-63.034538 -59.767624 7.4455166 9.086833
-63.005032 -59.384613 7.4097857 13.133333
-63.160809 -59.042534 7.5006127 11.166667
-63.183777 -58.659214 7.4490352 11
-63.000175 -57.23679 7.4404402 13.508687
-63.075611 -57.134609 7.4277992 13.019
-63.006332 -53.781536 7.3471479 14.4447
-63.005798 -51.635609 7.3209014 11.0595
-63.100212 -51.597103 7.2710791 11.0595
-63.050209 -48.95647 7.3627272 13.750214
-63.147621 -48.063343 7.593349 14.0735
-63.110973 -47.82476 7.5196037 14.421833
-63.076515 -47.166317 7.4729586 14.0745
-62.92347 -45.786053 7.3415451 12.088786
-63.06176 -45.366146 7.4118414 11.605263
-63.035477 -44.818951 7.3812547 12.582143
-62.964111 -44.76553 7.3571029 13.643091
-63.066822 -59.691158 7.8276591 11.056749
-62.940186 -59.371094 7.8332253 13.861072
-63.174507 -58.945591 7.6573648 11.5
-62.990948 -57.218761 7.7934933 14.5
-63.000866 -57.150013 7.6505466 13.009251
-63.144913 -53.640442 7.748579 15.077
-62.90522 -51.435619 7.9170833 15
-62.855076 -49.311916 7.7569051 9.1615
-62.908035 -49.010696 7.8268213 14.236251
-63.165184 -48.652081 7.7793527 15.0785
-63.027321 -48.246861 7.8515835 14.0815
-63.039021 -47.760578 7.7362924 14.0815
-63.051182 -47.007458 7.6803155 14.0875
-63.013283 -46.055382 7.8804278 12.074
-63.017578 -45.776752 7.8433743 11.082308
-63.061314 -45.368591 7.8297243 11.805555
-63.150589 -45.055134 7.8505926 12.2
-62.979809 -44.698048 7.8279777 14.777778
-63.041367 -59.787998 8.172575 12.136778
-63.035942 -59.391518 8.204463 12.583959
-63.151424 -59.059597 8.2403803 12.5
-63.089241 -57.830311 8.1418266 15
-63.022633 -57.20747 8.050005 15
-62.832855 -57.199329 8.0660906 15.0235
-62.856907 -49.372143 8.0637245 10.1545
-62.931164 -48.938961 8.0507441 14
-63.048473 -48.04327 8.0492401 15.077
-62.864582 -46.109303 8.0925369 11.790625
-62.990433 -45.719719 8.119648 10.986131
-63.037758 -45.350842 8.1995068 11.852942
-63.060566 -44.924133 8.3302755 12
-62.983883 -44.730377 8.1669197 14.152929
-63.145485 -44.258011 8.3134718 10
-63.031734 -59.704868 8.587183 11.002501
-62.979256 -59.390572 8.4975109 12
-63.180382 -59.057472 8.4608927 12.666667
-63.083809 -50.834728 8.6213026 12.0755
-63.10923 -50.660721 8.6943636 12.087
-63.126099 -50.200283 8.4110861 12.075
-63.016827 -48.916534 8.5885448 11.94115
-63.056461 -47.952564 8.5610027 11.163
-62.928261 -45.793812 8.5541487 13.0525
-63.047714 -45.294209 8.4978218 12.874499
-63.120003 -44.999504 8.6330166 13.159858
-62.973377 -44.666454 8.573904 12.151044
-63.057957 -59.689091 9.1099701 10.341999
-62.977112 -51.307858 8.9757795 12.095249
-62.869652 -50.500267 9.0282841 12.0955
-63.003159 -48.862259 9.0032082 12.127889
-63.068035 -48.611504 8.9949131 12.53125
-63.049423 -48.18623 9.0185032 12.53075
-63.109253 -47.708752 8.9242058 12.2795
-63.14077 -46.849094 8.8001461 12.0275
-62.881535 -45.827835 8.9660006 12.7065
-62.970577 -45.379143 9.0252819 13.121863
-63.097012 -45.02763 8.9935713 13.571428
-62.997375 -44.668125 9.0138016 12.788222
-63.068192 -59.904446 9.3479338 10.367833
-62.829632 -49.275684 9.3181705 11.1545
-62.869926 -48.856396 9.320158 13.666667
-63.03244 -48.658978 9.3009272 13.033
-62.897766 -46.05164 9.360404 13
-62.898209 -45.942238 9.3398504 13.2239
-62.978096 -45.39978 9.4752741 13.301786
-63.012905 -45.018555 9.4978724 13.333333
-63.011818 -44.659554 9.3502684 13.240935
-63.02356 -59.957912 9.6727638 10
-62.827511 -59.376709 9.8665466 11.093
-62.933914 -57.820343 9.9314289 10.0785
-63.078545 -49.899685 9.71103 14.1205
-62.921753 -45.84309 9.6611223 13.528875
-62.958576 -45.36713 9.8875904 12.6235
-63.068428 -44.971218 9.824441 12.545455
-63.049175 -44.643242 9.7179403 13.730477
-62.921383 -59.451622 10.123021 11.030167
-63.019749 -57.492382 10.163093 10.414001
-62.885822 -45.675495 10.176136 13.43
-62.884933 -45.394405 10.179076 13.641251
-63.056232 -44.969231 10.193654 13.58858
-63.074924 -44.669151 10.170267 14.228179
-63.032158 -45.672646 10.552161 13.004143
-62.989487 -45.350388 10.6457 12.750046
-63.072952 -45.030403 10.595197 13.23523
-63.085308 -44.691521 10.573962 14
-62.880497 -57.562309 10.936299 11.083
-62.866764 -45.78949 11.027197 13.51375
-62.973305 -45.330883 11.003521 13.435707
-63.069023 -45.035511 10.974143 13.282374
-63.166328 -44.698181 11.043624 13.333333
-63.049995 -59.814159 11.531817 12.601749
-63.073708 -49.616611 11.371799 13.03
-62.923744 -45.72113 11.421926 12.947639
-62.986961 -45.337635 11.405742 13.105546
-63.062534 -45.016819 11.38905 12.97571
-63.10284 -44.680771 11.404323 12.5
-63.023468 -59.908691 11.879265 14.1335
-62.901348 -57.737988 11.987525 14.1225
-62.853474 -57.567673 11.676422 13.1045
-63.187206 -51.068878 11.614756 13.0955
-63.132057 -49.431572 11.711266 13.6125
-63.030758 -46.256081 11.956693 11
-62.97728 -45.696793 11.719202 11.153429
-62.948853 -45.377144 11.82313 14.304214
-63.020306 -45.015785 11.783519 13.717941
-63.026226 -44.616924 11.850691 13.443107
-63.048054 -50.055527 12.062293 12.1665
-62.840183 -45.973217 12.142673 14.076
-62.938202 -45.592323 12.218307 14.342667
-63.042542 -44.933247 12.212764 13.8312
-62.990608 -44.610287 12.225092 13.776616
-63.198166 -48.64666 12.453103 14.075
-62.998589 -45.060966 12.757514 14.003928
-63.040932 -44.653408 12.558177 14.103818
-63.124508 -48.993401 12.844127 14.078
-62.891037 -45.752193 13.033629 14
-62.953476 -45.352879 13.131764 13.609214
-62.999893 -44.983128 13.045581 14.181818
-63.106979 -44.677559 12.970321 14.142858
-62.897625 -46.268127 13.527514 14.59
-63.026787 -45.854893 13.446232 15
-62.971798 -45.409145 13.451348 14.003625
-63.002197 -44.978294 13.406357 13.277567
-63.044426 -44.688587 13.387432 13.142858
-63.15448 -44.327751 13.397725 14
-63.03624 -46.093765 13.818179 13.691334
-62.878563 -45.667351 13.62559 13
-63.034489 -45.402813 13.748159 13.75
-62.926613 -44.975636 13.754853 13.23
-63.078655 -44.664238 13.851524 13.333333
-63.146 -44.240826 13.63128 14
-62.96954 -46.172234 14.05584 13.716334
-62.925182 -45.841225 14.15312 15
-62.964188 -45.280067 14.137066 14.25
-63.052273 -44.976414 14.143267 13.08275
-63.049953 -44.607506 14.249231 14.4462
-62.976849 -48.987396 14.51018 14.164
-63.00145 -46.078606 14.529321 15.03875
-62.860542 -45.639202 14.62219 15.12175
-62.850143 -45.325481 14.739631 14.773833
-62.831165 -44.844841 14.726728 15
-63.056976 -44.581593 14.632941 14.666667
-63.01284 -44.377106 14.731739 12
-62.834858 -46.041451 14.968177 15.0845
-62.801262 -45.568108 14.801322 14
-63.062729 -44.80114 15.133321 13
-62.98605 -44.61153 15.041875 14.714286
-63.035461 -44.328064 15.016065 15
-62.819149 -45.313614 15.481439 14
-62.976643 -44.972828 15.417959 14.125
-63.125893 -44.602207 15.317936 14.5
-63.065811 -44.238781 15.308262 15
-62.923717 -46.106304 15.975913 15.1065
-62.868206 -45.601223 15.655849 14
-62.870422 -45.328457 15.692509 13.5
-62.949516 -44.983353 15.74894 13.6
-62.984318 -44.697578 15.74908 14.333333
-62.838997 -45.070713 16.152515 14.331125
-63.065281 -44.625305 16.210693 14
-63.138073 -45.898876 16.409496 15
-63.042984 -45.505085 16.478176 12
-62.882637 -45.046425 16.55382 14.632901
-63.045231 -44.624809 16.466997 14.342
-62.929008 -46.527615 17.150785 12
-63.033047 -45.720562 17.17067 14
-62.817757 -45.406536 17.040016 15.1655
-62.98547 -44.954369 16.970837 14
-63.124397 -44.665489 17.058123 14.112834
-63.179688 -44.25687 17.126516 13
-63.159351 -46.481064 17.49338 12
-62.819233 -45.580078 17.371161 15.166
-62.944008 -44.940632 17.463165 15
-63.066864 -44.621811 17.318258 14.737071
-62.914196 -46.429405 17.692583 12
-63.003319 -45.810863 17.972267 14.166
-63.065964 -44.517365 17.712364 15
-62.96896 -45.928165 18.208897 14
-62.922852 -44.883335 18.272152 14
-62.868099 -44.784573 18.234745 15
-63.18338 -45.805653 18.772377 13
-62.845734 -45.10088 18.515606 14
-62.986805 -44.624363 18.728106 14
-62.983624 -45.124657 19.179983 14
-62.994854 -44.550076 18.820366 14.0265
-63.02739 -45.535706 19.922173 12
-63.152676 -46.533886 20.075405 12.033666
-62.965988 -45.659763 20.099224 15.166
-63.097202 -46.344036 20.726627 13
-62.929638 -44.948353 20.754162 15
-62.915211 -45.320889 20.876707 13
-63.035072 -45.046299 21.144787 15
-62.835938 -44.704346 20.844707 15
-62.972252 -44.614429 21.481077 15
-62.978714 -46.424522 23.061516 14.0815
-63.147121 -46.500725 23.368769 14
-63.050583 -46.306225 23.555927 14
-62.873669 -45.341892 23.591185 13.0535
-62.969364 -45.322277 23.784451 13
-63.028496 -45.254833 24.111231 14
-63.009274 -46.309639 26.534885 15.0815
-63.01342 -46.432476 26.827353 15
-63.031052 -45.310257 26.996899 14.25
-63.10537 -46.344604 28.312704 14.015332
-63.089642 -46.324184 28.469803 14.011389
-63.082005 -45.013439 29.24338 14
-63.04747 -45.156086 29.826628 15.083
-63.062828 -46.209972 32.283806 15.029667
-62.855537 -45.226852 32.311436 15
-62.900757 -45.157818 32.345333 15
-62.829102 -46.172153 32.467232 15
-62.936428 -45.201405 32.409031 15
-62.998672 -45.15202 32.479557 15
-62.522339 -30.359453 -1.4169973 6
-62.542778 -44.898205 -1.0488437 8.1090002
-62.576496 -42.925228 -1.1582463 8.1000004
-62.443848 -40.566753 -0.80882055 6
-62.796749 -40.192524 -0.81505191 6
-62.64262 -39.726101 -0.89345568 6
-62.587475 -39.237415 -0.93789196 6
-62.521957 -37.430584 -0.86287266 6
-62.767258 -36.9879 -0.86707246 6
-62.626221 -35.761051 -0.97107816 6
-62.443611 -33.354294 -0.82446444 4
-62.738255 -33.058685 -0.82235897 4
-62.727974 -32.478077 -0.94106221 5
-62.630314 -32.237141 -0.84315789 4.25
-62.477329 -31.76111 -0.94934469 5
-62.611084 -31.488235 -0.92969561 4.5
-62.701576 -31.087854 -0.93938577 4.3333335
-62.673935 -30.467285 -0.91639727 4.5
-62.59515 -30.122971 -0.97718811 5
-62.690319 -42.857128 -0.70251667 6
-62.689049 -42.085163 -0.64981103 6
-62.515411 -41.712524 -0.567348 6
-62.579437 -41.293282 -0.41760629 5
-62.753452 -40.992085 -0.44454953 5
-62.566193 -40.735519 -0.42213097 4
-62.689144 -40.258053 -0.47920552 4.5
-62.650143 -39.84409 -0.48210385 4.1999998
-62.617977 -39.35556 -0.48177224 4
-62.436371 -39.103775 -0.54701 4.5
-62.616001 -38.617523 -0.51933527 4
-62.548882 -38.240341 -0.540169 4
-62.619858 -37.906631 -0.63438553 4.5
-62.56218 -37.471924 -0.57397747 4
-62.539539 -37.053947 -0.59731245 4
-62.67778 -36.545525 -0.62029529 4
-62.549831 -36.116497 -0.6474545 4
-62.411579 -35.802582 -0.66436857 4
-62.656315 -35.430069 -0.69429237 4.3333335
-62.633408 -34.653206 -0.7018187 4
-62.624523 -34.289307 -0.71546823 4
-62.543728 -33.699699 -0.75316083 4.6666665
-62.619305 -33.482487 -0.76982749 4.4000001
-62.419514 -32.988575 -0.77872509 4
-62.739986 -32.133045 -0.78103691 5
-62.584999 -45.102158 -0.19065997 7.7706251
-62.629826 -42.881172 -0.24356557 5
-62.514572 -42.231304 -0.38220903 4.5
-62.659477 -41.767017 -0.3803865 4
-62.589287 -41.224243 -0.36704826 6
-62.737186 -59.743748 0.36903369 6
-62.515453 -44.801418 0.12829897 6
-62.701408 -44.4603 0.12842199 6
-62.624184 -30.025362 0.37478399 6
-62.59383 -59.668358 0.67531979 5.0666666
-62.461811 -47.57745 0.63216269 7
-62.603542 -45.231041 0.64423883 6
-62.631413 -44.808353 0.50550848 6
-62.543159 -42.914696 0.49731171 6
-62.531395 -41.532955 0.64776766 6
-62.561577 -40.262665 0.78745335 5
-62.521477 -39.99419 0.77931231 5
-62.574333 -39.396545 0.73409808 5
-62.559711 -38.902542 0.76860529 5
-62.744801 -38.650883 0.77258193 5
-62.742027 -38.31786 0.71774513 5
-62.726292 -37.68005 0.68524796 5
-62.551411 -37.409016 0.64576453 5.3333335
-62.789169 -36.81002 0.72770053 5
-62.549774 -36.444679 0.62958652 5
-62.582657 -36.224735 0.64320785 5
-62.758095 -35.758179 0.63770574 5
-62.759468 -35.423748 0.70676917 5
-62.572517 -35.033291 0.68688828 5
-62.516468 -34.435871 0.42002335 6
-62.606506 -34.04372 0.67063826 5
-62.60387 -33.675537 0.63837588 5.5
-62.622089 -33.025978 0.53793275 5.1999998
-62.644829 -32.482975 0.51457548 4.5
-62.612988 -32.144855 0.51955569 4.4000001
-62.597347 -31.812021 0.50024533 4.375
-62.624687 -31.336813 0.47130296 4.75
-62.652348 -30.982874 0.51143306 4.3333335
-62.611504 -30.604801 0.44642547 4.5
-62.574856 -30.280909 0.43683809 4.6666665
-62.616238 -59.652679 0.98933733 5.5999999
-62.56583 -59.581047 1.0864555 5.8571429
-62.591393 -59.147247 1.0986297 7
-62.770855 -44.951965 0.88468486 7
-62.564034 -42.882725 1.0549576 6.1428571
-62.544876 -42.739983 0.984779 6
-62.703529 -42.215805 0.9811101 6
-62.716114 -41.951454 0.95215034 6
-62.650562 -41.372528 0.96121174 6
-62.423347 -40.942688 0.95027184 6
-62.577297 -40.636166 0.80808872 5
-62.786736 -40.217495 0.94370669 6
-62.416328 -39.94965 0.91729969 6
-62.615459 -59.668709 1.3822366 6.2307692
-62.579605 -59.576366 1.3354059 6.25
-62.530643 -49.08046 1.5419724 8.1764994
-62.631607 -48.728764 1.4801091 9
-62.724731 -43.57922 1.5822531 7
-62.606853 -42.86628 1.434242 6.1666665
-62.454311 -42.79594 1.4485053 6
-62.683601 -59.662731 1.7105802 7
-62.618011 -59.537704 1.723206 7
-62.779812 -51.957825 1.7928786 8.0764999
-62.541073 -49.306644 1.7534763 8.0795002
-62.490974 -49.13216 1.7363974 8.1557856
-62.623436 -44.839531 1.9457228 7
-62.529774 -44.76643 1.7768561 6.5
-62.525536 -42.903851 1.6654762 6.6666665
-62.699036 -59.636974 2.1887524 8
-62.616753 -59.521931 2.243798 8
-62.516205 -49.200779 2.1603079 9
-62.472801 -49.095631 2.2738698 9.0249996
-62.435081 -45.610706 2.2706585 8.066
-62.645626 -44.949993 2.2693064 7
-62.712074 -59.624184 2.5985737 9
-62.614563 -59.506744 2.6480997 8.6258249
-62.54998 -49.09045 2.6399798 8.8455
-62.415031 -44.876068 2.7409112 8.0539999
-62.634541 -59.62006 3.0310423 9.0015001
-62.598557 -59.49844 2.9879017 9.3055553
-62.74807 -51.868996 2.9550734 9.09375
-62.561546 -49.076698 2.9905767 8.7602186
-62.458725 -44.864952 2.8636603 8.0531254
-62.725601 -38.408184 2.8141677 6
-62.612747 -59.481251 3.3627584 10.046512
-62.401867 -49.28664 3.318141 10
-62.450111 -49.056873 3.4017789 10.7695
-62.654243 -45.763496 3.4004793 8
-62.621597 -59.457634 3.8411593 10.918643
-62.691807 -58.454693 3.7998266 8.0577497
-62.569103 -51.705746 3.6943374 11.024834
-62.537537 -49.053574 3.7950828 10.28425
-62.57806 -45.391129 3.7982872 7
-62.548409 -43.447895 3.8357463 7
-62.582195 -59.465874 4.1919651 11.314285
-62.673687 -58.370174 4.1868758 8.0472498
-62.445423 -51.726841 4.0753436 12.0705
-62.542343 -49.054783 4.1209841 9.5804996
-62.479507 -48.753597 4.1684194 8.0035
-62.418972 -46.798588 4.0256796 8.0465002
-62.46056 -45.387676 4.0400205 7
-62.592197 -45.178566 4.0635023 7
-62.5849 -59.4753 4.5683327 12.064516
-62.749771 -58.482944 4.6966643 9.0524998
-62.506634 -50.17297 4.6464453 8.0264997
-62.504864 -49.02869 4.6203432 11.333333
-62.623135 -59.430664 5.0191913 12.892419
-62.560776 -53.824921 5.171216 11.08
-62.680603 -51.715958 4.991323 9.5362501
-62.568573 -49.028511 5.0533385 9.973546
-62.622131 -46.031719 5.1559443 8.0491667
-62.460224 -45.359615 4.9825535 8.1415005
-62.612598 -59.355713 5.4440064 13.596724
-62.537354 -59.071835 5.4038506 12.5175
-62.487465 -57.225597 5.5933404 11
-62.667263 -57.075375 5.5840182 11
-62.532261 -53.703655 5.4852238 12.031099
-62.779305 -52.068821 5.2790384 13.0745
-62.522823 -51.758457 5.4209204 14.07125
-62.483135 -49.795109 5.4994345 8.0179996
-62.537724 -48.998318 5.3881574 9.8721371
-62.554829 -46.044769 5.3464823 8
-62.5854 -45.917332 5.3782582 8.0173893
-62.587318 -59.349369 5.7775335 13.727273
-62.701527 -58.980717 5.7228174 15.0295
-62.589249 -57.213169 5.9518766 12.530251
-62.747387 -57.082722 5.953054 14.046749
-62.789074 -54.514881 5.8896461 13.031
-62.647045 -53.672318 5.8562498 13.01225
-62.562054 -51.845089 5.6574912 12.59225
-62.582211 -48.932224 5.7366104 11.5
-62.530285 -46.044777 5.7992373 8
-62.607697 -45.869804 5.8175602 8.2063999
-62.594727 -44.920971 5.9361663 11.065166
-62.516075 -44.540741 5.8506541 11
-62.614807 -59.33572 6.1595979 14.098338
-62.629986 -59.095982 6.1474986 15.0175
-62.609798 -58.68211 6.177453 15.0435
-62.5397 -57.260117 6.2927766 15.042749
-62.78344 -57.139248 6.2414179 15.045
-62.568748 -53.716888 6.3041821 13.03775
-62.783714 -52.052002 6.1324873 14.738999
-62.736847 -51.712841 6.1342664 10
-62.533188 -49.040184 6.1718712 11.587321
-62.528805 -46.052723 6.0964613 8.6000004
-62.690235 -45.889 6.1122441 8.7139997
-62.602505 -44.60638 6.1006389 11
-62.670925 -59.660538 6.7444921 10
-62.637119 -59.341507 6.5544815 14
-62.480526 -57.256115 6.5977778 12.21795
-62.676788 -57.076447 6.6026354 14.284374
-62.622807 -53.65638 6.6160889 13.593
-62.785961 -52.22646 6.5682926 15.0735
-62.450024 -48.958015 6.6096997 11.166667
-62.601257 -45.880989 6.5181279 9.022357
-62.554447 -59.335869 6.9388013 13.666667
-62.65443 -57.226562 7.0161548 12.01125
-62.78249 -57.174953 6.9107785 11.013
-62.589405 -53.708107 6.9878635 13.633571
-62.445683 -48.997349 6.9434505 13.0242
-62.636845 -45.798286 6.8640537 9
-62.677769 -45.02821 7.1904798 15
-62.627785 -44.770298 7.0784111 12.5
-62.681633 -59.327534 7.4701557 12.802701
-62.596939 -57.217388 7.3667607 13.679166
-62.531013 -57.183258 7.310813 12.016
-62.74514 -54.024632 7.4283104 15.033
-62.578365 -53.662323 7.3950443 14.0474
-62.776054 -53.58725 7.4992309 14
-62.695259 -51.590008 7.3179193 11
-62.462292 -49.980099 7.242909 15.0775
-62.704716 -49.450104 7.358099 9.1505003
-62.590042 -48.946808 7.3651247 13.212001
-62.429325 -46.058037 7.4319806 15.0765
-62.592346 -45.881565 7.437355 9.3529415
-62.781784 -45.304996 7.5794373 13
-62.555012 -44.835648 7.5175996 12
-62.605179 -44.730511 7.3321319 13.012333
-62.499504 -59.656483 7.8313141 11.0065
-62.629642 -59.406715 7.705112 12.339333
-62.638439 -57.215935 7.7059808 13.009666
-62.661213 -57.137829 7.6918392 13
-62.669693 -53.581219 7.6984138 14.666667
-62.481709 -49.321568 7.7270989 9.1615
-62.541885 -48.929005 7.8692541 13.533334
-62.605476 -45.831516 7.7536006 9.1522999
-62.788174 -45.289154 7.8271241 13
-62.632069 -44.824928 7.7310257 14.037001
-62.569317 -44.717457 7.8234706 14.313001
-62.74369 -59.283176 8.2064676 15
-62.613426 -48.929176 8.2164736 13.4
-62.543365 -48.342022 8.0559216 15
-62.591248 -45.827057 8.1649675 10.519563
-62.492016 -44.828106 8.2649384 11
-62.566387 -44.689102 8.1442432 13.190143
-62.522072 -44.258408 8.2857647 10
-62.638058 -59.68877 8.624979 10.0905
-62.702705 -59.568836 8.4099808 10.093
-62.585342 -48.914715 8.5755825 12.038682
-62.572304 -45.849239 8.6663494 11
-62.730991 -45.40234 8.4907436 11.345666
-62.571507 -44.919712 8.5610142 12.25
-62.615051 -44.671631 8.6035814 12.666667
-62.736115 -50.558064 8.9696531 12.093
-62.634155 -48.852905 9.035759 12.4
-62.572868 -46.123081 9.1097345 13.561749
-62.61161 -45.82785 9.0616837 10
-62.57563 -45.372028 9.0120335 10
-62.603832 -44.825558 9.0469999 15
-62.605503 -44.635189 9.0078602 12.901239
-62.776852 -59.817272 9.3432398 11.101
-62.56002 -48.842922 9.3565521 13.338
-62.592197 -48.633209 9.3756819 13
-62.632744 -46.063122 9.3909712 13
-62.576263 -45.751484 9.4600964 11.005615
-62.549858 -45.588512 9.2847319 10
-62.526711 -44.846516 9.5656118 13
-62.592842 -44.597469 9.3545599 13.487555
-62.794022 -59.940674 9.6802616 11.095
-62.596611 -57.862347 9.8541269 11.0395
-62.644817 -57.448753 9.7836332 12.12
-62.63459 -46.102512 9.7883234 15.115499
-62.557674 -45.777283 9.774251 10.933822
-62.623314 -45.008392 9.866972 13
-62.643337 -44.614273 9.7360992 13.797188
-62.611076 -45.848831 10.25946 12.454643
-62.680817 -45.002056 10.306939 11
-62.630165 -44.693462 10.39786 15
-62.670826 -57.704914 10.629138 12.099751
-62.585312 -49.397152 10.663928 15.117
-62.732246 -47.877373 10.683699 11.1595
-62.747364 -47.480335 10.700742 12.1585
-62.743473 -47.093922 10.778573 13.1475
-62.696606 -46.370003 10.770164 11
-62.584351 -45.791027 10.629762 12.593917
-62.603699 -45.429482 10.520028 11
-62.553619 -45.093307 10.697613 12.923215
-62.743103 -44.677979 10.516284 13.8053
-62.461533 -57.543911 10.988332 12.438832
-62.429195 -49.157009 10.839621 10.1755
-62.651478 -48.266262 10.877672 12.65375
-62.557213 -47.818851 10.857511 11.574249
-62.604698 -45.833878 11.034874 13.195251
-62.759106 -45.369076 10.935657 11
-62.544895 -45.061424 11.024297 12.167749
-62.539303 -59.671677 11.486417 12.55425
-62.720467 -57.565922 11.3918 13.1105
-62.537533 -46.582851 11.311375 14.0275
-62.631924 -45.796585 11.427809 12.596341
-62.675659 -45.43615 11.525134 11
-62.617031 -45.056431 11.462355 11.460667
-62.56274 -44.618 11.320457 11
-62.507412 -58.858303 11.646476 14.136
-62.499599 -57.418255 11.607671 14.131
-62.567833 -46.03294 11.793731 12.537251
-62.621136 -45.694309 11.68694 11.9135
-62.615307 -45.293709 11.955163 14
-62.613266 -45.028442 11.819651 13.127555
-62.64011 -44.662601 11.815571 13.421313
-62.535736 -59.654854 12.037944 14.122
-62.769238 -49.506302 12.296656 14.028
-62.561356 -47.41161 12.293264 15.073
-62.591785 -45.601421 12.162571 14.0145
-62.519302 -45.455719 12.1227 14.51375
-62.590698 -44.999535 12.221253 13.8457
-62.648064 -44.589214 12.228797 14.480279
-62.577621 -45.731091 12.600979 13
-62.496174 -45.268925 12.711554 12.438787
-62.670269 -44.952457 12.66995 12.44658
-62.612904 -44.644814 12.498921 14.016624
-62.566269 -45.726517 13.033571 13.666667
-62.692348 -45.536682 13.140243 14
-62.534657 -44.891384 12.980504 14.25
-62.502022 -47.250553 13.562318 14.1625
-62.587406 -46.224754 13.421534 13.024333
-62.580353 -45.714691 13.439737 13
-62.683846 -45.359692 13.404683 12.4
-62.58773 -44.964638 13.41875 12.754773
-62.653332 -44.717831 13.471269 13.5
-62.674435 -46.444286 13.768651 14.432
-62.57634 -46.02795 13.784678 11
-62.671738 -45.659962 13.617261 13
-62.569927 -45.011559 13.782769 12.48
-62.649326 -44.579357 13.77596 13.533501
-62.597775 -45.793011 14.199025 14
-62.767654 -45.443394 14.181067 12.584499
-62.410931 -45.004425 14.089391 12.5
-62.619762 -44.594276 14.19178 13.899167
-62.742306 -44.399044 14.282461 15
-62.59185 -45.746517 14.720368 15.17
-62.586369 -45.446655 14.641825 13.065666
-62.619522 -44.585571 14.571984 14.33175
-62.658615 -45.487022 14.864369 15.054334
-62.542957 -44.831856 15.004305 13.5
-62.625519 -44.699989 15.053183 13.730477
-62.418278 -46.074963 15.563738 11
-62.408253 -44.884666 15.530104 13
-62.748146 -44.559017 15.210641 15
-62.580212 -46.157337 15.766032 13.5
-62.667469 -45.791119 15.760941 14.027333
-62.709232 -45.481323 15.888276 13
-62.605465 -44.954449 15.728595 13
-62.747047 -44.767395 15.777616 13.029
-62.513672 -46.702015 16.283842 11.04
-62.50032 -46.252384 16.232157 14.082251
-62.621014 -45.850929 16.175095 13.5
-62.73555 -45.460144 16.092108 13.333333
-62.76265 -45.140179 16.255543 14
-62.449848 -46.284573 16.773375 14.0825
-62.607193 -45.703255 16.666634 14.056333
-62.677574 -45.437607 16.553371 12.666667
-62.407917 -46.265213 16.905039 15.1655
-62.507473 -45.923244 16.811916 15
-62.688122 -44.680927 17.017242 14
-62.773373 -44.258228 17.091351 13
-62.479492 -45.345982 17.350876 14.027501
-62.533871 -45.0462 17.584932 14.25
-62.555275 -44.70443 17.444983 14.257778
-62.525654 -45.515045 17.669022 15
-62.62505 -44.498127 17.650164 15
-62.514046 -45.270298 18.293636 14
-62.581333 -44.915508 18.167252 14
-62.674973 -44.72953 18.280731 14.00725
-62.518311 -46.094368 18.721972 14
-62.464737 -45.626835 18.420713 15
-62.626274 -45.481438 18.585224 14
-62.71954 -45.149338 19.157188 14
-62.537003 -45.603817 19.248331 14
-62.606007 -44.604324 19.284407 15.0545
-62.517097 -45.97028 19.713552 12.5
-62.616123 -45.516998 19.929392 12
-62.4772 -44.733784 19.634895 14
-62.596138 -46.595177 20.199284 12.02
-62.518997 -44.77597 20.041967 15.0032
-62.51548 -46.17561 20.662992 13
-62.67218 -45.209095 20.795179 15
-62.405594 -44.662643 20.7736 15
-62.59008 -45.309906 20.945246 13
-62.474594 -45.016029 21.071672 15
-62.652527 -44.675377 20.927464 15.0145
-62.535339 -45.736492 21.942032 15
-62.625553 -45.369453 21.851286 15
-62.750454 -45.073994 21.784983 15
-62.402798 -45.405731 22.34306 14.081
-62.699986 -45.387341 22.711763 13
-62.542488 -45.726055 23.048517 13.5
-62.490242 -45.505711 22.864985 13
-62.468761 -45.429394 23.312927 14
-62.600143 -45.33136 23.798246 13
-62.683762 -45.229565 24.084913 14
-62.606026 -45.337978 27.049349 14
-62.454079 -45.185871 26.881811 15
-62.535397 -46.534904 28.51943 14
-62.783123 -45.529285 29.450066 14.0225
-62.670223 -44.998371 29.228504 14
-62.603645 -45.193981 31.407576 15
-62.589516 -46.083321 32.37289 15
-62.546055 -45.165455 32.29998 15.019188
-62.595406 -46.106625 32.476444 15.0245
-62.59248 -45.155437 32.481609 15
-62.197838 -42.838795 -0.94543159 7.553
-62.100357 -40.962627 -0.80371177 6
-62.00769 -40.572132 -0.88510305 6
-62.333408 -40.164577 -0.88958794 6
-62.195534 -39.953323 -0.89173746 6
-62.173107 -39.565868 -0.92651755 6
-62.288769 -36.128071 -0.96683687 6
-62.055317 -33.663227 -0.80401361 4
-62.281994 -32.59864 -0.87508494 4
-62.214928 -31.731585 -0.91096276 4.5
-62.154453 -31.398123 -0.8804211 4.5
-62.248783 -31.051331 -0.90953833 4.5
-62.176834 -30.561857 -0.9582597 5
-62.316143 -30.210155 -0.95377553 4.3333335
-62.36417 -44.895794 -0.67423618 8.092
-62.108673 -42.841454 -0.68584251 6
-62.365082 -42.48946 -0.64759928 6
-62.067131 -42.2724 -0.75936091 6
-62.292492 -41.654575 -0.75545603 6
-62.200329 -41.410374 -0.4265064 5
-62.378956 -41.092758 -0.40688422 4
-62.115559 -40.626297 -0.46800768 4.5
-62.364132 -40.270565 -0.48668572 4.5
-62.028225 -39.792061 -0.47102588 4
-62.14571 -39.34454 -0.51567668 4.3333335
-62.207272 -39.013771 -0.51328367 4
-62.323315 -38.551353 -0.53641146 4
-62.307365 -38.087444 -0.70367223 5
-62.254944 -37.797924 -0.56423187 4
-62.057388 -37.507046 -0.58350682 4
-62.281071 -36.971584 -0.60120946 4
-62.184681 -36.598175 -0.61906457 4
-62.032486 -36.22929 -0.63586479 4
-62.311676 -35.797356 -0.67549205 4.3333335
-62.200283 -35.397503 -0.68029541 4
-62.147758 -34.975498 -0.6910156 4
-62.33762 -34.536236 -0.70435113 4
-62.309067 -34.150318 -0.72425848 4
-62.17503 -33.809883 -0.74989575 4.6666665
-62.116726 -32.598236 -0.77703077 4.5
-62.399364 -32.377293 -0.76969504 5
-62.198631 -44.980038 -0.18062781 8.0799999
-62.229855 -42.91502 -0.21533382 5.5714288
-62.15041 -42.672176 -0.34188077 5.25
-62.199223 -41.486252 -0.37735671 5
-62.245399 -59.735615 0.35623768 6
-62.223343 -44.88871 0.16573304 6.6915002
-62.185181 -44.68721 0.21256122 5
-62.152393 -42.907749 0.27882355 5.75
-62.308475 -33.115204 0.35549134 6
-62.260494 -30.946108 0.26797891 6
-62.358562 -30.246637 0.24766837 6
-62.246281 -59.69278 0.60837007 4.6666665
-62.20623 -59.584267 0.72308189 5
-62.294231 -44.804752 0.47311807 6
-62.394367 -42.896774 0.54604995 6
-62.105251 -42.74213 0.65033358 6
-62.341763 -40.622524 0.69623291 5.5
-62.132095 -40.165154 0.77245706 5
-62.186932 -39.421635 0.72799057 5
-62.177391 -38.904831 0.76239097 5
-62.382599 -38.614147 0.73449785 5
-62.370869 -38.30479 0.53859305 6
-62.368832 -37.913403 0.6841172 5
-62.131943 -37.362377 0.69868201 5
-62.156979 -36.70583 0.62227005 5
-62.187351 -36.315979 0.64333123 5
-62.340588 -35.604977 0.69265914 5
-62.101051 -35.420322 0.68465668 5
-62.110943 -35.025372 0.68198055 5
-62.249401 -34.743587 0.6657002 5
-62.178082 -33.895714 0.6509825 5
-62.258728 -33.379265 0.50198722 5.3333335
-62.348602 -32.804226 0.58347869 5
-62.170719 -32.638287 0.53662872 4.75
-62.198696 -32.148991 0.49449658 4.375
-62.138702 -31.764021 0.52501529 4.6666665
-62.192345 -31.437061 0.48439154 4.6666665
-62.155273 -31.002562 0.45930174 4
-62.238762 -30.645948 0.45811173 4.25
-62.187428 -30.024887 0.41515496 4.5
-62.189644 -59.643051 0.97107565 5.6428571
-62.214584 -59.577759 1.0820931 5.8333335
-62.134903 -44.907207 0.89041078 7
-62.211586 -42.866062 1.0749263 6.1428571
-62.195271 -42.6814 0.96136713 6
-62.271412 -42.296139 0.95255762 6
-62.220421 -41.786324 0.92904097 6
-62.123703 -41.223991 0.94062746 6
-62.260963 -41.029182 0.92891479 6
-62.196346 -40.734219 0.80095536 5
-62.21661 -39.460011 0.90297252 6
-62.198788 -59.639194 1.3299184 6
-62.244274 -59.55788 1.3870698 6.3846154
-62.280884 -49.215355 1.5829674 8.0236664
-62.376076 -49.110321 1.5391688 8.204917
-62.218407 -48.72752 1.4888965 9
-62.327469 -44.944447 1.4323102 8.0756006
-62.209797 -44.639229 1.4308771 6
-62.201591 -42.876286 1.514713 6.125
-62.22958 -42.765858 1.5364598 7
-62.216457 -59.510868 1.7152193 7
-62.315628 -49.236145 1.6102606 8.1105003
-62.224873 -49.148048 1.7743715 8.7263336
-62.389515 -42.871532 1.6923815 6
-62.240868 -59.471157 2.237438 8
-62.315334 -49.114532 2.185122 9
-62.108318 -44.873699 2.3463216 7
-62.224232 -59.465733 2.6085203 8.6134348
-62.387936 -49.287785 2.5004702 9
-62.297825 -49.080559 2.5960875 9.5105352
-62.159157 -44.86412 2.7911501 8.0509996
-62.205902 -59.450348 2.9923995 9.3341455
-62.249477 -51.941158 3.0666304 9.1149998
-62.320454 -49.070976 3.006593 9.6584091
-62.297619 -44.857933 2.8834951 8.0430002
-62.03196 -43.40226 3.1703219 6
-62.199406 -59.429268 3.356385 9.9714861
-62.016514 -58.442223 3.422111 8.0465002
-62.299774 -49.042645 3.3967268 10
-62.280262 -45.364254 3.4831898 7
-62.202362 -59.388008 3.796562 10.933333
-62.183346 -58.438221 3.7233269 8.0375004
-62.11557 -51.714512 3.7852945 11.0755
-62.245918 -49.036301 3.7745776 10.981297
-62.352322 -46.430363 3.8686929 8.0454998
-62.208672 -45.32262 3.8076 7
-62.181229 -43.486057 3.9125965 7
-62.219944 -59.41296 4.2104497 11.487516
-62.303493 -58.365696 4.3422489 8.0605001
-62.076675 -51.732662 4.0411177 12.071
-62.239235 -50.018925 4.1583457 8.0185003
-62.251911 -49.910114 4.2255082 8.0190001
-62.235359 -49.321514 4.013639 10.55025
-62.243061 -49.022392 4.1423874 10.512036
-62.297695 -45.323406 4.0687342 7
-62.119965 -43.443619 4.0014534 7
-62.191391 -59.45929 4.5774956 11.940031
-62.338169 -48.997116 4.6598186 11.692307
-62.270412 -45.421326 4.599967 7
-62.226837 -59.413616 4.9711237 12.615936
-62.308193 -58.419807 4.8133774 9.0445004
-62.001328 -53.836529 5.1418905 11.0805
-62.154633 -51.696758 4.9884701 10.381667
-62.32439 -49.241779 4.9612451 12
-62.272499 -48.990685 5.0463018 10.908111
-62.148067 -46.484417 5.1395745 8
-62.148376 -46.18161 5.1063576 8
-62.138763 -59.895622 5.5506349 8.0254993
-62.225174 -59.306358 5.4377875 13.409666
-62.28537 -59.130348 5.3975248 13.693749
-62.236366 -57.275967 5.3533607 10.0135
-62.209106 -53.727726 5.4518275 11.53825
-62.195309 -51.796322 5.4015741 13.57425
-62.270325 -49.220119 5.2125711 11.1105
-62.225822 -48.985039 5.3846426 10.643867
-62.146465 -46.510345 5.3324938 8.0280457
-62.213768 -46.126209 5.3958683 8
-62.287838 -45.920326 5.3929882 8.0437145
-62.101547 -59.877724 5.664938 8
-62.219494 -59.311687 5.7794914 13.909091
-62.123699 -58.403782 5.8356447 14.0325
-62.176456 -53.702213 5.8379374 12.594857
-62.161903 -51.713963 5.8649254 14.075
-62.323685 -48.993717 5.7832003 12.357142
-62.206871 -46.532314 5.8235974 8.0807495
-62.170883 -46.180008 5.8777547 8.3323002
-62.266602 -45.938896 5.7987499 8
-62.291004 -44.969418 5.9277005 11.085167
-62.146641 -44.562954 5.8918543 11
-62.236965 -59.300537 6.111341 14.428572
-62.140034 -57.274727 6.1680269 14.872083
-62.205517 -53.824051 6.2893553 13.061501
-62.334282 -49.232216 6.2848568 11.0755
-62.228504 -49.005802 6.2048779 12.277875
-62.109589 -46.571129 6.1924562 8.8324499
-62.133495 -46.201244 6.1389589 8.7740879
-62.186409 -45.961319 6.1581221 9
-62.193584 -44.581615 6.0791488 11
-62.069168 -59.839481 6.5586128 9
-62.25396 -57.222771 6.5666232 13.866459
-62.06361 -57.184612 6.5249071 15.04325
-62.120529 -53.62114 6.6528702 13.666667
-62.351189 -53.582912 6.5973439 13
-62.316219 -48.988365 6.6097841 12.343083
-62.082966 -46.561764 6.4789667 9.0262499
-62.12648 -46.238308 6.5060592 9
-62.267303 -45.915482 6.5310626 9.0174446
-62.083714 -59.80545 7.0511503 9
-62.111759 -57.207809 7.1230903 11.012
-62.35445 -57.175446 6.8635998 12.0175
-62.128685 -53.703094 7.0377312 13.255899
-62.359657 -50.793865 7.1594152 14.0335
-62.155437 -50.131374 7.0030313 13.0765
-62.272228 -48.935112 6.9690204 12.71215
-62.073364 -46.526863 7.0315843 10
-62.089611 -46.178417 7.006073 9.8459167
-62.175213 -45.876236 6.9753013 9.6436253
-62.309895 -45.022499 7.1173763 14.095751
-62.258812 -44.763424 7.0113225 12.666667
-62.059803 -59.832916 7.5332861 9.8545828
-62.237751 -57.237263 7.3647399 11.01025
-62.118832 -53.671894 7.3818884 13.8318
-62.334778 -53.577465 7.4529963 14
-62.247932 -49.501873 7.20719 9.1525002
-62.216743 -48.920574 7.3765273 12.929417
-62.051785 -46.539265 7.3948202 9.8999996
-62.095589 -46.189377 7.3975143 9.7160501
-62.233028 -45.878887 7.4762292 9.3999996
-62.208797 -44.825268 7.4061031 13.611
-62.188473 -44.736275 7.333199 13.763071
-62.374115 -59.605564 7.9725223 15.02
-62.303169 -59.585285 7.7750244 12.0125
-62.27499 -57.153698 7.7999258 12.2645
-62.19688 -53.574413 7.7342567 14.666667
-62.306297 -48.924648 7.8264041 12.464591
-62.048203 -46.515953 7.7027373 10.078751
-62.099056 -46.196156 7.7653747 9.9658489
-62.187649 -45.872524 7.781764 9.4666662
-62.015705 -44.805458 7.997633 12
-62.222515 -44.714542 7.8937769 15.081
-62.00193 -59.770828 8.3454666 10
-62.122452 -58.762478 8.2762451 14.518499
-62.264938 -48.905365 8.1257944 12.333333
-62.268734 -48.473347 8.0558443 15
-62.012939 -46.537472 8.210434 10.78875
-62.069965 -46.181435 8.1275606 10.5151
-62.145477 -45.906052 8.1171169 9.9230766
-62.145897 -44.955185 8.215745 12.29725
-62.200939 -44.69949 8.19452 13.371583
-62.048355 -44.275494 8.2790499 10.001625
-62.170166 -59.679237 8.5604515 10.52125
-62.223846 -48.89003 8.5770073 12.032999
-62.022949 -46.512344 8.6084671 11
-62.061794 -46.170311 8.5926657 11.311857
-62.171989 -45.846264 8.6846056 11.083333
-62.39822 -45.343929 8.4362936 10
-62.219547 -44.985558 8.5051098 12.333333
-62.208141 -44.657013 8.6048698 12.872968
-62.043289 -59.974453 9.1984234 10.079
-62.247822 -48.83849 8.9832268 12.41265
-62.058701 -46.205589 8.9828615 11.637938
-62.13166 -45.876293 9.0147839 10.84225
-62.139214 -45.309055 8.9863129 10
-62.197002 -44.59885 9.0089064 13.212343
-62.017582 -59.61224 9.5163269 12
-62.192463 -48.840965 9.3417997 13.6
-62.152534 -48.485882 9.3582401 14
-62.158897 -46.117733 9.3803596 12.045166
-62.186058 -45.781364 9.4230003 10.9375
-62.253384 -45.599873 9.2621698 10
-62.284447 -44.832973 9.5198812 13.074
-62.187473 -44.59861 9.3610029 13.427037
-62.208096 -59.976173 9.6851072 12
-62.19376 -57.939171 9.8082256 10.0785
-62.113018 -46.121929 9.80373 12.816376
-62.164715 -45.825653 9.8033171 11.568778
-62.115669 -45.586723 9.8908129 12
-62.259579 -44.981033 9.8203506 13.032072
-62.219303 -44.587448 9.757884 14.339833
-62.003082 -46.219822 10.003121 13
-62.21027 -45.828518 10.208238 11.8975
-62.02739 -44.656361 10.116415 14
-62.391148 -57.720181 10.600263 12.0995
-62.208157 -50.38681 10.529351 15.111
-62.332458 -49.997669 10.65763 15.1145
-62.003525 -48.862247 10.62009 15.1195
-62.215038 -48.086147 10.523727 11.698001
-62.011562 -46.122494 10.699501 11.5
-62.151325 -45.792965 10.586722 11.848834
-62.191505 -45.064114 10.737233 11.666667
-62.215641 -44.661865 10.549768 14.363334
-62.236015 -57.777802 10.981412 11.719167
-62.090206 -48.073914 11.101821 12.156
-62.086964 -47.344463 11.102654 13.150249
-62.180954 -46.839424 10.933902 13.1495
-62.019928 -46.543194 11.05492 13.15
-62.221432 -45.856289 10.990568 14.141166
-62.26812 -45.368076 10.996191 13.0695
-62.240669 -45.003399 10.936296 11.882286
-62.219063 -59.792576 11.552415 12.598249
-62.033012 -48.952602 11.546875 13.151751
-62.019558 -48.655315 11.317865 13.15125
-62.086037 -48.160946 11.431825 12.902125
-62.047672 -47.922733 11.299368 13.151
-62.249969 -45.761532 11.415905 12.625039
-62.351967 -45.445896 11.474488 12.03675
-62.180088 -45.028015 11.397956 11.5805
-62.385429 -59.696484 11.600425 12
-62.185856 -46.326565 11.627133 11
-62.22826 -45.670822 11.74563 12.204727
-62.206993 -45.485771 11.80987 13.324644
-62.229858 -45.093163 11.715567 11
-62.222244 -44.651661 11.804235 12.75675
-62.273808 -50.622555 12.082276 14.03
-62.184643 -45.40379 12.159101 13.743072
-62.230991 -45.059448 12.195334 12.254539
-62.141373 -44.584648 12.17448 14.34225
-62.079498 -44.178799 12.270599 12
-62.209167 -45.731583 12.551792 13.0875
-62.148842 -45.372017 12.564694 12.737285
-62.190205 -45.0285 12.574867 12.682778
-62.324123 -44.591614 12.414973 14
-62.22644 -45.822704 12.945203 13.338166
-62.170807 -45.443573 13.003572 14.059199
-62.250237 -44.962337 12.997792 13.5
-62.183258 -46.184856 13.364656 12.540751
-62.281013 -45.730511 13.380279 13
-62.122578 -45.346222 13.440125 12.691543
-62.205055 -45.015354 13.417473 13.117308
-62.343769 -44.792824 13.359013 12
-62.310631 -45.659565 13.785777 14.082
-62.086979 -45.387676 13.742228 12.4
-62.186497 -45.032131 13.796593 13.017282
-62.353981 -46.279839 14.180972 12
-62.169563 -45.341244 14.022682 12.5
-62.165642 -45.018253 14.131889 13.214
-62.185547 -44.734795 14.355245 13
-62.382622 -46.90033 14.770262 15.081
-62.101143 -45.628838 14.490295 15.1605
-62.191055 -45.476154 14.701056 13.868299
-62.113441 -44.943024 14.541444 12.5
-62.210861 -44.680653 14.745487 13.51775
-62.041718 -46.276073 14.804632 15.083
-62.115871 -45.311527 14.959299 14
-62.189518 -45.053448 14.863509 13.3125
-62.196812 -44.65382 15.044066 13.882353
-62.083714 -45.407063 15.282924 15
-62.169075 -44.944485 15.477158 13.476566
-62.210697 -44.620872 15.232604 13.5
-62.099445 -46.034191 15.702571 11
-62.245934 -45.800076 15.879685 12
-62.198414 -45.410786 15.742175 12.270124
-62.192574 -44.943256 15.863891 13.375
-62.315399 -46.549152 16.111107 12.025249
-62.384853 -46.02338 16.286018 14
-62.390652 -45.889927 16.168837 13.0275
-62.138821 -44.997276 16.214619 12.666667
-62.163052 -44.717113 16.196268 14
-62.227077 -46.446613 16.790571 13
-62.379803 -45.876335 16.599125 13.0265
-62.037884 -44.9231 16.654108 13
-62.181068 -44.7206 16.638678 13.837
-62.081394 -46.713596 16.834208 13
-62.158573 -45.367985 17.163538 12
-62.03363 -44.907852 16.964947 14.058833
-62.281357 -44.691856 17.115334 14.333333
-62.263706 -44.240314 17.043081 13
-62.183254 -45.425251 17.300594 12.791625
-62.124653 -44.822891 17.512175 14.166667
-62.16835 -44.688828 17.483833 14.666667
-62.26947 -45.328381 17.638618 14.2
-62.119434 -44.854614 17.750477 14.666667
-62.188751 -44.592373 17.839928 15
-62.277874 -45.675289 18.347845 14.03
-62.127361 -44.876896 18.073992 14.25
-62.143639 -44.723537 18.20627 14.5
-62.274414 -46.156147 18.713263 14
-62.128582 -45.79702 18.508387 14
-62.368252 -45.212368 18.409117 14
-62.02557 -44.826286 18.744181 14.5
-62.213722 -44.676086 18.579584 13.861285
-62.271374 -45.719757 18.854385 14.0275
-62.273426 -45.509903 19.003782 13.396167
-62.086864 -44.913273 18.889427 14
-62.213058 -44.558075 19.064577 15
-62.292068 -46.175743 19.362015 14
-62.23069 -45.436977 19.367867 13.0825
-62.03791 -44.857868 19.292894 15
-62.161495 -44.719753 19.430708 15
-62.237446 -46.008587 19.866194 12.030334
-62.168594 -45.890827 19.850979 12
-62.109112 -45.410511 19.80648 12.37525
-62.094391 -44.64526 19.876806 15
-62.316216 -46.475639 20.107626 12.047999
-62.139198 -46.036091 20.044769 12.0495
-62.333179 -45.992085 20.015306 12
-62.275814 -44.805801 20.264608 15
-62.033779 -44.776859 20.223028 15
-62.149937 -44.674595 20.640471 15
-62.229797 -46.111214 21.000698 15.041
-62.177666 -45.260498 20.926414 13
-62.066498 -45.012714 21.024134 15
-62.289131 -44.707115 20.978483 14.5
-62.345474 -45.339542 21.315525 13.0825
-62.086117 -44.800007 21.383387 14
-62.130699 -44.636787 21.386801 14.58825
-62.253345 -45.418465 22.257668 14.081374
-62.264824 -45.368755 22.887846 14.0825
-62.075062 -45.265034 23.251135 14
-62.148777 -45.290035 23.825893 13
-62.122887 -44.493504 23.818106 15
-62.010281 -45.973469 24.201899 13
-62.123348 -45.32317 24.065353 13.25
-62.062469 -44.784252 24.022743 15
-62.128231 -45.224392 24.655193 14
-62.157383 -45.307438 25.153696 14.581249
-62.095631 -45.517948 25.513994 15.0805
-62.064911 -45.655663 25.798697 14.083
-62.201199 -45.363956 25.710958 15.0815
-62.29335 -45.277897 26.457685 15.0825
-62.191872 -45.31348 27.029703 14
-62.096642 -45.161793 26.851398 15
-62.129673 -45.873306 28.291576 14
-62.236885 -46.487492 28.499908 14.020429
-62.130398 -45.820423 28.592978 14.75
-62.375263 -45.510784 29.191551 14.03
-62.236088 -45.836712 29.315069 15.082251
-62.263695 -45.012371 29.221764 14
-62.069149 -45.133881 29.737225 15.083
-62.317932 -45.299397 31.23597 15
-62.093838 -45.142632 32.28994 15
-62.215614 -45.140854 32.486507 15
-61.808147 -44.910816 -1.1561199 8.1145
-61.653008 -42.965996 -1.055351 8.0974998
-61.617455 -40.911713 -0.87774068 6
-61.897476 -40.427601 -0.88728589 6
-61.613663 -38.628952 -0.84461683 6
-61.952942 -38.263203 -0.85208607 6
-61.709244 -36.96484 -0.96471655 6
-61.968346 -36.525524 -0.96417451 6
-61.768234 -33.079842 -0.85317624 4
-61.805115 -32.153049 -0.8409878 4.25
-61.715714 -31.844547 -0.91256374 4
-61.733967 -31.428007 -0.86501914 3
-61.764084 -31.006372 -0.90526462 4
-61.776051 -30.540565 -0.93577713 4
-61.764706 -30.169662 -0.93860841 3.2857144
-61.762287 -44.988224 -0.59441203 8.0925007
-61.887608 -42.589111 -0.55730385 6
-61.715736 -42.062866 -0.40101376 5
-61.749783 -41.816216 -0.41618294 5
-61.740593 -41.332455 -0.79809833 6
-61.836582 -41.172062 -0.40750492 4
-61.915165 -40.55751 -0.52649373 5
-61.800388 -40.188019 -0.45894852 4
-61.728748 -39.515362 -0.50234848 4
-61.919888 -39.075539 -0.51670277 4
-61.797268 -38.537872 -0.53321487 4
-61.851837 -38.165607 -0.58982271 4.25
-61.653057 -37.80442 -0.56961507 4
-61.938442 -37.246746 -0.59718519 4
-61.760216 -36.9566 -0.61095744 4
-61.710361 -36.631809 -0.62134075 4
-61.853317 -36.195381 -0.68576831 4.6666665
-61.78191 -35.854156 -0.65635318 4
-61.710091 -35.468884 -0.67255193 4
-61.791363 -34.639259 -0.72627437 4
-61.709496 -34.163303 -0.74672413 4.5
-61.879208 -33.95026 -0.75860113 4.6666665
-61.897915 -33.374729 -0.7668196 4
-61.679737 -32.874153 -0.77195954 4.5
-61.646442 -45.035576 -0.28518862 8.0810003
-61.825615 -42.903599 -0.21290794 5.4444447
-61.775322 -42.365673 -0.37348354 4
-61.922523 -41.814812 -0.36985916 5
-61.637917 -41.522415 -0.39838314 4
-61.685329 -44.81163 0.070407934 6
-61.816879 -42.917896 0.360773 6
-61.819633 -59.723331 0.59670085 4.7647057
-61.794033 -59.580891 0.71987128 5
-61.856266 -47.368679 0.63060862 7
-61.767002 -44.809795 0.45494327 6
-61.900639 -42.911125 0.49184459 6
-61.801506 -40.863773 0.79205936 5
-61.900028 -40.629887 0.76774001 5
-61.690159 -40.20488 0.76835173 5
-61.814438 -39.52261 0.7185511 5
-61.732861 -38.908897 0.74394912 5
-61.814423 -38.602425 0.72062552 5
-61.713505 -37.347912 0.66807544 5
-61.930271 -36.941204 0.65546083 5
-61.72578 -36.673489 0.57641476 5
-61.757141 -35.357018 0.67250949 5
-61.718174 -34.89286 0.66807884 5
-61.856762 -34.625149 0.64892548 5
-61.727852 -33.788651 0.51465571 5.3333335
-61.863789 -33.410751 0.53998554 5
-61.713604 -32.953411 0.50108814 5
-61.802738 -32.479053 0.5216105 4.5999999
-61.82402 -32.202766 0.49153557 4.1666665
-61.843723 -31.842943 0.47476384 4.5
-61.770325 -31.349836 0.50397617 4.8333335
-61.766239 -31.000566 0.45707256 4.2857141
-61.693176 -30.72653 0.47696424 6
-61.918297 -30.251905 0.44106203 4.3333335
-61.730602 -59.651482 0.98413551 5.3333335
-61.82127 -59.577148 1.041719 5.8333335
-61.977558 -44.94714 0.85199261 7
-61.759361 -42.861752 1.0438921 6
-61.815979 -42.492558 0.95545834 6
-61.793159 -42.172325 0.93868858 6
-61.792305 -41.75581 0.91097182 6
-61.989017 -41.437023 0.91478336 6
-61.723583 -41.033226 0.90869367 6
-61.842461 -40.790073 0.91122764 6
-61.751678 -40.232479 0.89969271 6
-61.86578 -39.167004 0.87716365 6
-61.725018 -59.660393 1.4095339 6.2727275
-61.801342 -59.549107 1.4577296 6.5925927
-61.802582 -48.716763 1.4975104 9
-61.779297 -44.898232 1.4519255 7.3824172
-61.748604 -44.634575 1.4215548 6
-61.827644 -42.871708 1.4609414 6
-61.800076 -42.572689 1.2734842 6
-61.708893 -59.625698 1.7243017 7
-61.782955 -59.514114 1.723613 7
-61.896366 -55.061275 1.8204366 7
-61.81683 -49.156212 1.7609204 8.8360004
-61.67334 -42.867165 1.682976 6
-61.620808 -59.624527 2.2028677 8
-61.811691 -59.465096 2.2298543 8
-61.778831 -49.123669 2.232779 9
-61.851372 -44.943275 2.2418883 7
-61.660934 -44.733765 2.1021328 7
-61.875862 -42.989727 2.057924 7
-61.635731 -59.611877 2.5832336 9
-61.813366 -59.49543 2.5871432 8.5006523
-61.65493 -50.419785 2.7943559 7
-61.715462 -44.879944 2.7876008 8.0257502
-61.658482 -59.672424 3.1338875 8.0097504
-61.777832 -59.47641 2.980303 9.163703
-61.770061 -54.56715 3.0641162 9.080801
-61.804386 -54.366879 2.8814821 9.0819998
-61.72966 -49.054691 2.9256904 8.8333998
-61.853466 -44.860012 2.8682394 8.0434999
-61.782539 -59.459236 3.3643796 9.8085108
-61.695629 -59.140629 3.2935247 8.0244999
-61.706085 -56.304249 3.3132451 8.0485001
-61.604149 -54.43158 3.530787 8.0594997
-61.857452 -49.059219 3.459152 9.666667
-61.755432 -45.44791 3.4684381 7
-61.780899 -59.410362 3.8216741 10.974359
-61.794052 -55.276657 3.952853 8.0629997
-61.832352 -54.903248 3.9506228 8.0640001
-61.762997 -54.427334 3.9170537 8.0349998
-61.612179 -54.366074 3.8679397 8.0354996
-61.739758 -51.822124 3.7061684 10.412833
-61.720695 -49.205074 3.9861276 10.111
-61.789619 -49.051338 3.7463434 10.732786
-61.793308 -46.37254 3.8688142 8.0459995
-61.895302 -45.275013 3.6151741 7
-61.85907 -43.415733 3.8784494 7
-61.82066 -59.427197 4.2055383 10.823882
-61.915375 -57.402088 4.2858768 8.0620003
-61.779949 -56.571316 4.3329439 8.0635004
-61.836819 -55.136616 4.082644 8.0649996
-61.660206 -54.37891 4.2862158 8.0345001
-61.742458 -49.377552 4.0266366 13.0285
