# .PCD v0.7 - Point Cloud Data file format
VERSION 0.7
FIELDS x y z intensity
SIZE 4 4 4 4
TYPE F F F F
COUNT 1 1 1 1
WIDTH 1274
HEIGHT 1
VIEWPOINT 0 0 0 1 0 0 0
POINTS 1274
DATA ascii
-9.0418453 -85.973831 5.4453726 8.6438751
-9.0058498 -68.869667 5.4012861 9.4491482
-8.9157572 -68.777412 5.3988562 9.4285717
-8.9180002 -86.050217 5.8058462 11.62975
-8.951458 -85.971565 5.8115568 11.295583
-9.1141672 -68.869888 5.8443923 10.086654
-8.990325 -68.75988 5.8332539 10.277635
-9.1201572 -68.918976 6.0644336 10.0865
-8.9706974 -68.725822 6.1895919 10.877067
-9.1065845 -68.884003 6.6137238 11.243
-9.0042315 -68.728127 6.5402446 11.519365
-9.040988 -68.982719 7.0975327 11.892467
-8.9926586 -68.720367 6.9711466 12.5064
-9.1288109 -69.217834 7.3381724 11.0875
-9.0183563 -69.137077 7.3994055 13.081714
-8.9992504 -69.076988 7.7889171 13.888153
-8.8511257 -68.852608 8.0044212 14.544374
-8.8609905 -68.684067 8.1201153 15.048124
-9.1856432 -68.421936 8.7011156 13
-9.1689186 -68.342926 8.5822496 13
-9.0429859 -68.653458 9.2997074 14.837801
-9.180213 -68.323303 9.497345 14
-9.0737457 -68.52562 9.8486099 14.020167
-9.1652603 -68.352341 9.682848 14
-9.0905638 -68.521416 10.12126 15.061
-9.1657085 -68.343445 10.282639 15
-8.8105373 -68.572624 10.751212 14.08375
-9.1239233 -68.24749 10.590446 15
-9.0665894 -68.633331 10.953144 14.5
-8.9197111 -68.379814 10.812935 15
-9.0644541 -68.670212 11.449923 14.5
-9.1133032 -68.293945 15.288942 15.077
-8.4437389 -85.867752 -0.0084860064 6
-8.6152983 -85.969933 0.36101347 6
-8.5786457 -78.866386 0.63409543 6
-8.6185942 -77.845863 2.2978067 5
-8.6801844 -77.074966 2.245995 5
-8.5384655 -75.914642 2.220217 4
-8.5725946 -75.585182 2.1889586 4
-8.5772171 -74.605087 2.1027577 4
-8.6359911 -74.148193 2.2917943 1.9090909
-8.6097298 -79.076294 2.7593248 5
-8.752677 -77.055466 2.4973047 3
-8.5520926 -74.090218 2.6443872 2.3525641
-8.5075321 -71.667091 2.7541072 3
-8.6096001 -85.702286 3.1551847 5
-8.6150799 -85.335503 3.185462 6
-8.6075602 -84.97921 3.1605098 5.5
-8.5265436 -84.78231 3.1130741 5
-8.6434841 -84.336479 3.0924149 5.5
-8.7737837 -83.815628 3.0224614 5
-8.4004984 -82.509529 3.1909261 0
-8.5729723 -82.143784 3.14609 2.25
-8.4599829 -81.666222 3.1640427 1.75
-8.5381794 -81.347275 3.1442509 2
-8.5622606 -80.999298 3.1200936 1.8571428
-8.5950241 -80.58316 3.0866628 2.3333333
-8.6264782 -80.166397 3.0649641 2.3333333
-8.6885347 -79.667038 3.0661495 2.75
-8.4782791 -79.505577 3.134037 4.5
-8.5147161 -79.08419 2.907999 5
-8.522294 -74.062439 2.9119737 2.2777777
-8.5213232 -73.893417 3.0290892 3.5555556
-8.463871 -73.252296 3.1232498 3.5
-8.5198669 -73.041824 3.0110524 3
-8.5473413 -71.327751 3.1697066 5
-8.4757977 -68.953018 3.1317413 5
-8.596282 -89.663567 3.5546262 2
-8.6112003 -89.315231 3.5872149 2
-8.7106018 -89.199043 3.5365851 4
-8.5054388 -88.515694 3.5654347 1.6
-8.5319939 -88.240814 3.5796623 1.3333334
-8.7851419 -87.648865 3.5541766 3
-8.6265774 -87.487732 3.5510039 2.3333333
-8.7373133 -86.005699 3.4805436 6
-8.6414585 -85.771904 3.4585941 3.6428571
-8.6539211 -85.468285 3.3900063 2.75
-8.6353893 -84.925858 3.3522255 2.6666667
-8.584693 -84.560493 3.293973 3
-8.7522125 -84.053925 3.3053801 1
-8.6452665 -83.642464 3.2801628 1
-8.5734167 -83.452553 3.2618623 1
-8.5951014 -82.939262 3.2377706 1.4
-8.5010471 -82.442406 3.2185397 1.5
-8.7539644 -82.362907 3.2039578 2
-8.5356121 -81.969841 3.2008517 2
-8.6656303 -79.38588 3.4249835 2
-8.4084873 -79.166695 3.466728 4
-8.5650253 -73.878983 3.4209955 4.1666665
-8.4946957 -73.273521 3.3659017 5.25
-8.4718399 -73.10611 3.3186553 5
-8.7309837 -72.014946 3.4634373 5.3333335
-8.6971655 -71.368729 3.4430597 5.25
-8.5981522 -68.913216 3.5195615 6
-8.5534449 -89.874046 3.6060874 1.3333334
-8.5054607 -89.536659 3.6276476 3
-8.6156998 -86.431366 3.7079921 3
-8.6111441 -86.080292 3.7943356 2.5999999
-8.5628338 -85.927261 3.6382821 2.6666667
-8.7682247 -79.251648 3.8339109 6
-8.6112976 -79.142448 3.7972796 4.3333335
-8.5691757 -73.851791 3.8795462 5.9000001
-8.5946655 -71.349869 3.8462183 6
-8.6144695 -68.869438 3.970618 7
-8.4986191 -86.050247 4.3158813 1.5
-8.6896133 -79.16552 4.1883345 2.9722223
-8.5873089 -73.844482 4.1345487 6.1999998
-8.5570679 -68.877235 4.1226072 7
-8.6262503 -86.072815 4.6096835 5
-8.5825377 -79.146584 4.4649854 5.375
-8.5848131 -68.846703 4.6322012 8.0028639
-8.5554304 -68.796021 4.7273374 8
-8.5493174 -86.03775 5.0222149 6.5500832
-8.7236156 -85.962746 5.1098728 7.546
-8.5962772 -68.83284 5.0571575 9.0072355
-8.5452576 -68.775536 5.0884633 9.0310001
-8.7079811 -86.003792 5.5159211 9.1032505
-8.6345892 -85.974251 5.4293494 8.6443748
-8.6243258 -68.855316 5.3980842 9.5408649
-8.6051807 -68.775635 5.4131503 9.5030499
-8.6094408 -85.952293 5.8724966 11.196309
-8.5999622 -68.829102 5.7697659 10
-8.5937033 -68.761688 5.8455644 10.312441
-8.5723391 -68.724472 6.138299 10.794229
-8.6210718 -68.701225 6.5598826 11.493614
-8.6304064 -68.993736 7.1170068 12.102636
-8.6238117 -68.703026 6.9583645 12.650705
-8.5962858 -69.117294 7.371665 13.083317
-8.6014776 -69.097168 7.77812 13.977796
-8.6787987 -68.602753 9.0975018 14.374333
-8.6545048 -68.646217 9.2780495 14.789249
-8.6390734 -68.530083 9.7220592 15.061
-8.6316233 -68.479225 10.248917 15.07
-8.7168255 -68.700966 10.727831 14
-8.7944984 -68.56752 10.944119 15
-8.6284771 -68.64888 11.347814 14.666667
-8.3568029 -86.109787 0.32602111 6
-8.231842 -79.366119 1.8296483 7
-8.1600142 -75.27903 1.9621605 4
-8.2379065 -74.550797 1.9336782 4
-8.1539764 -74.196785 1.991243 4
-8.1358948 -76.144661 2.0906312 4
-8.243186 -75.827003 2.1142161 4
-8.2018185 -75.010735 2.1007259 3.6666667
-8.1585541 -74.081573 2.3008506 1.9090909
-8.2519293 -78.990356 2.7398674 4
-8.3232985 -78.174667 2.497303 2
-8.2043915 -77.049629 2.406714 3
-8.1828413 -74.070114 2.6231747 2.5853333
-8.2147722 -73.809151 2.4477224 6
-8.1282377 -69.111519 2.6815848 4
-8.174263 -85.718559 3.1636879 5
-8.2729673 -85.385452 3.1365204 5
-8.2875824 -84.994896 3.039772 5.5
-8.1572866 -84.565887 3.0919755 5
-8.0430298 -84.023872 3.1374981 4
-8.2583857 -83.822868 2.9170728 6.5
-8.3052969 -83.332146 2.89978 6
-8.2019882 -82.99514 3.0350535 4.5
-8.0767593 -82.652519 3.1854622 3
-8.1777735 -82.295166 3.0901825 4
-8.2740078 -81.850975 3.173166 2.3333333
-8.2642775 -81.343399 3.1655846 1.3333334
-8.2355814 -80.943237 3.1401665 1.3333334
-8.2100554 -80.608482 3.1157026 1.3333334
-8.1632042 -80.203186 3.1010933 1.6666666
-8.1955309 -79.760887 3.0347986 2.5
-8.3289318 -79.544258 3.1267133 3.5
-8.100976 -79.090477 2.9726365 5
-8.2224846 -74.046028 2.8792365 2.75
-8.2079191 -73.886726 3.0413022 3.5
-8.1420021 -73.293129 3.1031435 3.5
-8.256506 -73.085915 3.0302031 3.25
-8.234087 -71.181847 3.0450661 4
-8.1237545 -68.981972 3.110682 5
-8.1263266 -66.862366 3.1505711 6
-8.1494331 -66.415863 3.1109304 6
-8.1468906 -66.120613 3.1438997 6
-8.1505623 -89.850426 3.5716689 2
-8.2148218 -89.359818 3.5433154 2
-8.1654444 -89.097504 3.5581529 2
-8.1863632 -88.577705 3.5779724 0
-8.1300077 -88.226059 3.5758116 1.75
-8.1343555 -87.577744 3.5638034 3
-8.2597294 -87.110291 3.5661492 3
-8.2305632 -85.743492 3.4559903 3.2
-8.1723757 -85.488235 3.3169274 4
-8.2071123 -84.975334 3.2704031 3
-8.119586 -84.602364 3.3142705 1.8
-8.2015562 -84.14621 3.2943258 2
-8.2073879 -83.704247 3.2649794 2
-8.2094879 -83.378319 3.2567139 2
-8.267993 -82.909798 3.2356663 2
-8.3664751 -82.528244 3.2450666 0.5
-8.3668108 -82.155342 3.228446 0.5
-8.3808956 -81.805153 3.2242186 1
-8.2013435 -79.372574 3.4318907 2.8333333
-8.1144276 -79.184486 3.3392918 3.5
-8.2293234 -73.873848 3.3663194 4.2028985
-8.2032185 -73.255386 3.3351226 4.1999998
-8.2656269 -73.125298 3.4604583 4.5
-8.3876495 -72.274574 3.2035549 4
-8.07374 -68.969299 3.5500579 6
-8.1569223 -66.2425 3.2224717 6
-8.1885872 -89.799187 3.6236863 2
-8.2448616 -89.494713 3.603231 2
-8.2015314 -86.719749 3.6178656 4
-8.1429996 -86.047951 3.783345 3.4761906
-8.2418051 -85.940483 3.6083803 3.5
-8.088336 -83.041451 3.7810581 6
-8.2241955 -82.341225 3.7617195 6
-8.1930628 -79.152519 3.7193849 4.9000001
-8.2368803 -73.847664 3.8007193 5.3039212
-8.005744 -71.081696 3.7177067 6
-8.1579075 -68.9617 3.9697316 7
-8.1167336 -86.067505 4.1871257 3
-8.1897087 -79.125076 4.2181807 5.4444442
-8.2049904 -73.837624 4.0823002 6.2222223
-8.1548223 -68.89389 4.1153598 7
-8.1270266 -86.040222 4.5704117 5.7142859
-8.0348549 -85.97348 4.4801941 4
-8.1844864 -79.131294 4.4404764 5
-8.1481705 -68.865334 4.6422582 8.0023766
-8.1778622 -68.789589 4.6134181 8
-8.1650934 -86.031128 4.9405169 6.5856428
-8.1064062 -85.945206 5.0938907 7.0223751
-8.2217312 -68.870071 5.0174332 9.0103998
-8.1421843 -68.774239 5.0446458 9.0100002
-8.1380167 -85.951828 5.3531475 8.585125
-8.1217775 -68.873352 5.4111829 9.3607054
-8.1942816 -68.767662 5.3711157 9.3415337
-8.1711969 -85.92939 5.8429785 10.454827
-8.1543026 -68.86058 5.8435831 10.625
-8.1908846 -68.735725 5.866766 10.338015
-8.050312 -68.885826 6.3194051 10.6295
-8.1462889 -68.72892 6.1799326 10.6824
-8.0496511 -68.852867 6.5039115 12
-8.2251101 -68.700356 6.5307794 11.465072
-8.141818 -68.948349 7.0041642 11.920875
-8.2157516 -68.699989 6.942379 12.393982
-8.1926823 -69.096298 7.4130516 13.170197
-8.1903601 -69.074982 7.7689877 13.757835
-8.2050362 -68.754692 7.9759479 13.679833
-8.1653242 -68.695038 8.1936331 13.681295
-8.2102356 -68.350807 8.3048325 13.6192
-8.2243567 -67.928192 8.3251476 14.0325
-8.1565886 -68.621399 8.6016912 13.96417
-8.1786203 -68.18412 8.6179523 14.603785
-8.2030935 -67.819878 8.6093845 14.199
-8.1725368 -67.56781 8.6482363 14.0325
-8.15553 -68.664101 8.9795713 14.282423
-8.1753969 -68.227585 8.9887505 14.519875
-8.1915579 -67.872498 8.9979658 14.865584
-8.1776924 -68.606377 9.3747644 14.803101
-8.1067934 -68.279488 9.4430685 14.5
-8.1657763 -67.820381 9.3529425 15.032
-8.1373749 -67.520515 9.3371735 15.0325
-8.1280556 -68.620522 9.7758112 14.36361
-8.1266727 -68.195595 9.8070555 15
-8.1309767 -68.561447 10.166766 15.026
-8.0920162 -68.188515 10.093909 15
-8.0966778 -68.682571 10.768819 14
-8.0401335 -68.634216 11.015956 13.5435
-8.1209698 -68.524742 11.85633 15.0435
-8.3235884 -68.430901 12.332761 14
-8.3114605 -68.555489 12.487569 15.087
-8.2584686 -68.355507 12.57264 14
-8.1132584 -68.696648 12.868073 14
-8.1665115 -68.236305 13.184911 14.0785
-8.2688837 -68.347328 13.755813 15
-8.3012781 -68.253716 14.053521 15
-8.1880436 -68.588295 14.422746 15
-7.8881817 -79.227692 0.59015119 6
-7.7059264 -72.392776 0.97732854 7
-7.7960196 -74.699989 1.9708599 5
-7.7185011 -72.536125 1.8812612 7
-7.6387095 -71.330864 1.8934902 7
-7.6959653 -79.510231 2.1350029 7
-7.60181 -76.662888 2.1228828 5
-7.6407614 -76.271843 2.0937674 5
-7.6768556 -75.879509 2.0642245 5
-7.7858572 -74.09169 2.2880197 1
-7.6509871 -81.034981 2.7747161 5
-7.7814832 -80.52726 2.7410119 5
-7.8808765 -80.191208 2.7169232 5
-7.9389892 -79.846169 2.695338 5
-7.7731466 -74.054016 2.610816 2.3
-7.6973553 -73.999237 2.7690382 1.5
-7.8566022 -85.861954 3.134727 6.3333335
-7.8405967 -85.462502 3.0577836 6.5
-7.7557783 -85.073204 3.1163139 6
-7.8286901 -84.595596 3.0888906 6
-7.8245029 -84.228584 3.0936189 6
-7.8582287 -83.906387 3.0452244 5.6666665
-7.8505869 -83.453484 3.0672724 4.3333335
-7.8329334 -82.915222 3.0138495 5.25
-7.8351622 -82.508453 3.0447786 4.3333335
-7.8555374 -82.161423 3.0623653 4
-7.8412566 -81.82605 3.0606449 3.75
-7.8417983 -81.330017 3.073627 3
-7.8221431 -80.913582 3.0479753 3
-7.8409524 -80.496201 3.0264773 3
-7.7726274 -80.193619 3.0174167 2
-7.8499327 -79.824585 3.014138 2.25
-7.8132305 -79.532326 3.1341491 2
-7.9698315 -79.096947 2.9287915 5
-7.7936249 -74.02655 2.86711 2.6666667
-7.7788262 -73.903954 3.0286632 4.03125
-7.7113447 -73.284828 3.0053883 3.8888888
-7.612258 -73.152168 3.1391811 4.5
-7.7699966 -72.147079 3.1096742 4.6666665
-7.7600121 -71.375298 3.1557376 5
-7.8112955 -69.04483 3.1349485 5
-7.8632836 -89.762741 3.5698216 2.1666667
-7.7283177 -89.407936 3.5428436 1.75
-7.83883 -89.022049 3.5314641 1.3333334
-7.7706513 -88.526154 3.5709071 0.66666669
-7.7761755 -88.150284 3.5706503 1.2
-7.851799 -87.844261 3.5599248 1.75
-7.711051 -87.432983 3.4865296 2.25
-7.8393831 -86.1278 3.5761964 2.5
-7.8035178 -85.714577 3.4432924 3.9000001
-7.7550936 -85.460403 3.3092597 3.1428571
-7.8250084 -85.072525 3.3223171 2.2
-7.7871671 -84.62413 3.277725 2.6666667
-7.8996658 -84.185974 3.2704618 1
-7.84688 -83.74279 3.243614 1.5
-7.8242941 -83.365898 3.2261899 1
-7.9076247 -82.890884 3.2187114 2
-7.854084 -79.364166 3.3988485 2.8333333
-7.9162078 -79.129768 3.4316249 3.0999999
-7.761426 -74.022179 3.3668671 6
-7.7714114 -73.839462 3.3761101 4.8076925
-7.7480006 -73.271454 3.379446 4.25
-7.6460156 -73.168221 3.2104685 5
-7.7806802 -71.982079 3.4552717 5.3333335
-7.7053599 -71.343079 3.4110849 5
-7.8229814 -69.016411 3.5346179 6
-7.7503996 -89.721291 3.6213186 2
-7.6369042 -86.459938 3.6663673 3
-7.7724147 -86.038452 3.8152356 3.1111112
-7.7443275 -85.973022 3.8196585 4.2384615
-7.6566691 -81.591125 3.699815 6
-7.8989415 -79.213562 3.7734244 6
-7.7888174 -79.135323 3.8000879 4.0999999
-7.7735925 -73.817802 3.8490024 5.7745094
-7.7769046 -73.331673 3.7327669 5
-7.7805276 -71.31086 3.6951013 6
-7.7630706 -68.997375 3.7924383 6.5
-7.7470741 -86.023712 4.1747322 2.7738097
-7.7523432 -85.975075 4.2617693 3.8717952
-7.8296447 -79.124886 4.1915054 3.5338097
-7.7537675 -73.819199 4.0927396 6.2222219
-7.683176 -73.556412 4.2326736 7
-7.7678103 -68.966759 4.0966692 7.0526314
-7.8041043 -86.016159 4.5271788 4.7142859
-7.7471132 -85.966087 4.5973296 5.0502906
-7.844738 -79.112007 4.442368 5.1428571
-7.7927656 -68.948265 4.6590834 8.0340414
-7.8173251 -86.03756 5.0675201 7.4572001
-7.7388082 -85.947151 5.0397482 7.072084
-7.803802 -68.918388 5.0320878 9.0086432
-7.8739905 -86.016281 5.3531671 9.0602493
-7.749383 -85.943115 5.409061 8.7644005
-7.8319263 -68.897835 5.4130554 9.464756
-7.9861369 -68.769577 5.4445114 10
-7.756351 -85.925583 5.7802925 10.793386
-7.8040552 -68.876694 5.8334327 10.382913
-7.9835858 -68.728508 5.7686348 10.5
-7.8086271 -68.868034 6.2223144 10.742622
-7.9625392 -68.741615 6.2867136 11.285714
-7.8008847 -68.840302 6.5683384 11.44602
-7.9339948 -68.749977 6.5897102 11.441313
-7.7985744 -68.92778 6.9952722 12.395597
-7.938767 -68.714134 6.9243898 12.5
-7.8128643 -69.07946 7.3826385 13.075645
-7.8088498 -69.062347 7.7541828 14.092208
-7.8520651 -68.739708 7.8714533 13.031656
-7.9254675 -69.000168 8.366868 11
-7.8316593 -68.739937 8.2053061 13.731033
-7.8062978 -68.702873 8.5810547 14.167427
-7.91821 -67.02784 8.5375996 14.033
-7.9247932 -66.379814 8.7864342 15.0355
-7.7824121 -68.708504 8.9582844 14.202999
-7.899116 -66.940765 9.0072775 15.033166
-7.9130254 -66.50132 8.9509172 15.034
-7.8950944 -66.302589 9.046814 15.033751
-7.9488215 -65.665321 8.98314 15.0355
-7.9957633 -64.803139 9.0964775 15.0365
-7.8525515 -68.655342 9.3830671 14.44355
-7.8783069 -66.985245 9.2458305 15.033
-7.9343343 -68.905952 9.8380079 12
-7.732831 -68.674026 9.7809544 14.049999
-7.8309011 -68.641266 10.173432 14.053333
-7.6937842 -68.613556 10.580089 14.5435
-7.848146 -68.566856 10.990382 14.362
-7.9038262 -68.824303 11.318528 13
-7.6759853 -68.410355 11.525906 13.0785
-7.6150494 -68.222641 14.640936 15.0785
-7.2085896 -76.416641 1.877766 4
-7.2490244 -75.737907 1.825164 4
-7.2719388 -75.394768 1.7972034 4
-7.333065 -75.039017 1.7630675 4
-7.3485789 -74.687569 1.7338963 4
-7.3493757 -74.343307 1.7062957 4
-7.4641385 -70.852119 1.6183068 7
-7.5600395 -70.732613 1.6288801 7
-7.2728658 -79.447868 2.0250351 7
-7.4694848 -78.601509 2.252877 5
-7.4194584 -75.052612 2.1245644 3
-7.4068794 -74.057549 2.2758982 1.4
-7.4840512 -79.011345 2.6538792 4.75
-7.4079819 -74.033371 2.595875 1.9984848
-7.2965918 -73.99649 2.7148168 3
-7.5361886 -71.985741 2.7492051 3
-7.3775411 -85.490967 3.1468897 5
-7.2230792 -85.18734 3.1656468 4
-7.4687681 -83.386925 3.181983 0.5
-7.3585491 -82.998428 3.0815854 3
-7.3392711 -82.621658 3.1222081 2.8333333
-7.3531084 -82.199226 3.1033325 1.8571428
-7.3417182 -81.820175 3.0901761 1.5
-7.3927698 -81.416649 3.0794132 2.125
-7.4048486 -81.042191 3.093261 2
-7.453907 -80.643745 3.067075 1.7142857
-7.4027276 -80.239685 3.0412874 1
-7.438365 -79.832092 3.0276554 2.5999999
-7.4528689 -79.492134 3.1157966 3
-7.4695749 -74.013481 2.8272605 2.5
-7.3998094 -73.888901 3.0239649 3.3827162
-7.4049416 -73.295319 3.0191264 3.5
-7.3651643 -73.055275 3.0008922 5.1999998
-7.5895777 -72.511192 3.0435591 4.5
-7.3176231 -72.086998 3.0790226 4
-7.4904461 -71.619415 3.0609565 4
-7.2914815 -71.451302 2.9893827 4
-7.2255249 -70.839195 2.8673313 4
-7.3770881 -69.016098 3.1199813 5
-7.4295111 -89.69355 3.5710263 1.75
-7.3690104 -89.445824 3.5630679 1.3333334
-7.3757496 -89.044411 3.5209246 2
-7.4914804 -88.524147 3.5742717 1.2
-7.4086652 -88.209549 3.5570028 0.40000001
-7.3463249 -87.619225 3.533633 0
-7.4591475 -87.117828 3.499562 2.6666667
-7.4170504 -85.815849 3.4662943 3.4166667
-7.419003 -85.430359 3.2975516 4.1666665
-7.2026544 -85.022224 3.2895453 2
-7.3793645 -84.487808 3.2343924 3
-7.3331552 -84.195854 3.2220228 2.2857144
-7.3463006 -83.863739 3.2318156 1.6666666
-7.2808132 -83.507286 3.2238688 2.3333333
-7.3168454 -83.042633 3.2203054 1
-7.2451138 -82.557617 3.2224562 0
-7.2472692 -82.208458 3.207351 0
-7.4411225 -79.359543 3.3225696 2.5
-7.4662256 -79.14006 3.4075718 3.8571429
-7.4137864 -73.844994 3.3915172 4.5769229
-7.5979586 -73.258232 3.3757253 4
-7.460979 -73.028893 3.2060463 5
-7.4927249 -71.35997 3.4279904 5
-7.5075932 -68.998215 3.5563967 6
-7.4401917 -89.858131 3.6300731 2
-7.3675818 -86.065247 3.7615027 2.909091
-7.4581189 -85.968323 3.7983756 4.2549019
-7.3131466 -79.205788 3.7260487 6
-7.4845514 -79.119576 3.9426825 1.5714285
-7.3911419 -73.808228 3.8325655 5.5478258
-7.4556222 -68.899712 3.9878588 7.3605003
-7.4081001 -86.018509 4.1308389 2.8392856
-7.4052877 -85.968628 4.2017417 3.6729169
-7.361495 -79.084373 4.3058286 4.1999998
-7.3745775 -73.799332 4.1083007 6.25
-7.379138 -68.956749 4.1098218 7
-7.3334966 -86.015862 4.6218772 5
-7.414104 -85.946793 4.5734921 5.2298584
-7.4293618 -79.082932 4.4327531 5.25
-7.3849301 -68.936096 4.6623578 8.0076075
-7.5886335 -86.013603 5.08778 8.0512505
-7.3828535 -85.92421 5.0262947 7.0716434
-7.3901753 -68.928452 4.9896312 9.0186605
-7.5019555 -86.01535 5.2508521 8
-7.3992896 -85.925247 5.420239 9.0990162
-7.4086299 -68.887779 5.3737688 9.3244762
-7.2603316 -86.282043 5.7932339 12.14
-7.3938713 -85.895401 5.7547607 11.061581
-7.3683171 -68.876389 5.8303242 10.240883
-7.4174414 -68.851418 6.2300277 10.924601
-7.4279017 -68.83989 6.5827446 11.345458
-7.3180399 -68.746536 6.6373148 11.280667
-7.4443779 -68.895279 6.9979649 12.2365
-7.3590617 -68.752808 6.944757 12.790036
-7.4007654 -69.063377 7.3909607 13.072702
-7.4067478 -69.048676 7.7710547 13.862679
-7.3838201 -68.71814 7.9124608 12.696834
-7.4185519 -68.71582 8.1614447 13.669979
-7.3720689 -68.696068 8.6017742 14.335294
-7.3908978 -68.686646 8.9741449 14.257109
-7.3569293 -68.638832 9.4248571 14.404819
-7.4257464 -68.62265 9.7581015 14.548416
-7.2752442 -68.652771 10.062349 13.0865
-7.4019003 -68.587318 10.473639 13
-7.4961982 -68.674904 10.885071 14.087
-7.2773647 -68.394653 11.167954 13.0815
-7.1214404 -77.429054 1.9540939 4
-7.1873021 -76.753159 1.9029348 4
-7.0827532 -75.686401 1.9866153 5
-6.9884067 -75.247833 1.8946142 6
-7.0278692 -74.914497 1.8920646 4
-6.8074803 -74.72345 1.6509578 4
-6.834867 -74.257439 1.7103971 4.5
-6.9674306 -79.460228 2.034302 7
-6.9897656 -78.040688 2.1464717 5
-6.9565926 -77.645531 2.1256397 5
-6.9684634 -77.251694 2.1001394 5
-7.0523911 -76.08065 2.0162544 5
-7.1230392 -75.160767 2.0091422 3
-7.0674295 -74.047318 2.2623975 1
-6.8433642 -73.970345 2.2690086 4
-7.0066571 -84.755669 2.782387 7
-6.9944525 -83.938141 2.7417579 7
-6.8717155 -81.493286 2.622031 7
-6.9944973 -78.987633 2.635674 4.6666665
-7.0081792 -74.020691 2.6194072 1.75
-6.9119744 -73.987823 2.6275702 2.8571429
-6.8175602 -71.907928 2.7380066 3
-6.9533391 -85.375198 3.1890144 5
-6.8395085 -85.131828 3.1063819 4.5
-7.1175375 -84.715157 3.1259303 4.5
-6.9522419 -84.202698 3.095041 4.3333335
-7.0387654 -83.79068 3.1317644 3.1428571
-7.0093222 -83.390785 3.0422618 4
-6.9967608 -82.899147 3.1331356 3
-6.9387035 -82.543694 3.1446388 3
-6.9268341 -82.160225 3.0847676 3.5999999
-6.9192219 -81.808273 3.0663693 3.5999999
-6.941895 -81.380638 3.0790424 3.2
-6.9897504 -80.921822 3.0670369 2.25
-6.9424314 -80.508415 3.0158844 3.4000001
-6.960598 -80.106514 3.0017478 2.5999999
-6.9633741 -79.793983 2.9914567 2.7
-6.9885097 -79.518951 2.9960804 3.25
-6.9033709 -78.984093 2.9447701 5
-7.0624142 -74.011971 2.808202 3
-6.9762626 -73.850151 3.0011604 3.0882354
-7.0186791 -73.368095 3.0260704 3.4000001
-6.8525496 -73.163879 2.9984665 3
-7.0152268 -72.734245 2.8529651 3
-6.9757714 -71.208122 3.0160921 4
-6.9882441 -71.139923 3.0465012 4.3333335
-7.0062547 -69.002838 3.1069419 5
-7.0039067 -89.410255 3.5584433 1.9
-6.9395032 -88.991386 3.5296798 2.2
-6.9862852 -88.538994 3.5553288 2.3333333
-6.9617972 -88.21772 3.5553968 0.375
-7.0062633 -87.709358 3.5372677 1.5
-6.9860368 -87.34005 3.4449127 3.6666667
-7.099227 -86.226738 3.4797471 7
-7.0144873 -85.729759 3.4532926 3.6666667
-6.8546596 -85.354263 3.2888594 2
-6.9111428 -84.903656 3.2858152 2.3333333
-7.0173807 -84.617661 3.2619905 2.1666667
-6.9855175 -84.208023 3.2471402 0.75
-7.057056 -83.870682 3.2381148 1.75
-7.1518717 -83.414261 3.2600198 0
-6.8477116 -83.189278 3.2004714 3
-6.9959888 -79.41404 3.3579166 2.75
-6.9729266 -79.114334 3.4863636 3.3846154
-7.0343657 -73.834633 3.3819318 4.5833335
-7.1431651 -72.342186 3.2783508 4.5
-6.8980923 -68.959869 3.4850893 6
-7.1568913 -86.450821 3.6292696 3
-7.1343842 -86.058693 3.6804886 3
-7.015419 -85.91951 3.7125678 3.5714285
-7.1423416 -79.203316 3.6621099 6
-6.9845896 -79.081139 3.7327046 3.375
-7.0797744 -73.788124 3.8022616 5.6111112
-7.1519322 -68.799004 3.9745932 8.0784998
-7.1912384 -86.008789 4.2261591 1
-7.0256371 -85.952057 4.2544193 3.8333333
-6.9600906 -79.06649 4.1782765 3.8958333
-7.0907288 -73.772949 4.0946379 6.4545455
-6.9748888 -68.935814 4.0979209 7
-7.1320047 -86.007317 4.7545857 5
-7.0204377 -85.91098 4.6417928 6.5
-6.9759955 -79.056267 4.4289036 5.4166665
-6.9771252 -68.914574 4.6726923 8.1574821
-7.0569091 -68.641571 4.7558422 9
-6.8221083 -86.082726 5.0055394 7
-6.9838052 -85.914787 5.018014 7.185091
-6.9859796 -68.903793 4.9841933 9.0160456
-6.9123697 -85.863953 5.4803424 9.2137308
-7.0171866 -68.868973 5.4050517 9.4772635
-6.9842153 -68.604591 5.583909 10
-6.9524226 -85.821404 5.7538948 10.910188
-7.0081849 -68.865471 5.7973619 10.284267
-6.9134493 -68.798225 5.7208266 10
-7.0421314 -68.842545 6.2111139 10.929679
-6.947649 -68.779305 6.2627988 10.2173
-7.063282 -68.81929 6.4820085 11.7
-7.041254 -68.716576 6.6198649 11.288722
-6.987196 -69.029907 7.0579538 12.078057
-7.0282226 -68.714287 6.9277186 12.44
-7.0240717 -69.058594 7.3776422 13.019137
-6.9976616 -69.030884 7.7401214 13.867155
-6.9482584 -68.698212 7.9145203 12.42695
-6.9799657 -68.689941 8.1874695 13.791349
-7.0100303 -68.687248 8.6247444 14.230375
-6.9702883 -68.658546 9.0325594 14.333651
-6.9407921 -68.589645 9.4299145 13.867166
-7.0203934 -68.590225 9.7495794 14.0445
-7.0161529 -68.593292 10.583715 14.313875
-7.096004 -68.571648 10.878908 15
-7.146327 -68.605766 11.278249 14.5865
-6.9668074 -68.408218 12.033057 14
-6.966506 -68.312653 12.284971 14
-6.8964939 -68.375275 12.799069 15.086
-6.9498982 -68.321136 13.41665 15
-6.9359636 -68.227348 13.700371 15
-6.8055439 -68.524315 14.067761 15
-6.801187 -68.306236 14.018709 14.078
-6.4100213 -74.190712 1.5628645 5
-6.4879222 -78.200562 1.9257287 4
-6.5753846 -77.466888 1.8715949 4
-6.602829 -77.128334 1.8470352 4
-6.5995436 -76.586037 1.8981907 4.6666665
-6.7078099 -76.212166 1.8658332 4.5
-6.782445 -75.748497 1.9188643 5
-6.671484 -75.357231 1.761338 3.5
-6.683557 -75.039223 1.7317953 3.5
-6.5641804 -74.778114 1.7751305 5
-6.5184088 -74.371033 1.7508844 5
-6.5409741 -73.957497 1.7191231 5
-6.5618567 -89.522186 2.0619898 7
-6.5537925 -86.094162 2.3717532 7
-6.5654984 -78.921761 2.2697628 4
-6.6547422 -78.555962 2.1053951 5
-6.6433454 -78.144341 2.0827196 5
-6.719079 -76.948402 2.0030828 5
-6.5993896 -74.040329 2.2640953 0.60000002
-6.4353223 -73.998962 2.3368621 1
-6.4442129 -80.005264 2.7078662 5
-6.6421657 -74.01413 2.5789351 1.1666666
-6.5701003 -73.983147 2.6284466 2.1388888
-6.460824 -73.447952 2.720103 5
-6.5557942 -85.462166 3.0079134 6.5
-6.5041566 -84.801239 3.0019071 5
-6.7173018 -84.692322 3.0803578 4.5
-6.5661407 -84.201851 3.0891321 3.8
-6.5071583 -83.756241 3.0646102 4.5999999
-6.6899862 -83.385841 3.15347 2
-6.695127 -82.994949 3.1230371 2
-6.6033916 -82.64399 3.0785933 3
-6.6471839 -82.258415 3.0521817 3
-6.6404591 -81.805275 3.0425656 2.5
-6.5919447 -81.467712 3.0621738 2
-6.6593146 -81.00248 3.0354764 1.5
-6.7298622 -80.618149 2.9905508 2.5
-6.6933475 -80.197357 2.9871526 1.75
-6.5481424 -79.767502 2.9696693 1
-6.6632094 -79.444458 3.1055553 2.75
-6.6000476 -74.002579 2.881819 2
-6.5576501 -73.858566 2.9497623 3.3157895
-6.5399752 -72.991249 2.9925225 3.8
-6.4826994 -72.561707 3.0781722 4.3333335
-6.4939127 -72.318642 3.0393777 4
-6.491878 -71.809372 3.0342789 4.3333335
-6.5307417 -71.437843 3.0478992 4.6666665
-6.5865107 -71.035187 3.0809784 5
-6.7617931 -70.02562 2.8015456 4
-6.4509678 -69.324501 2.9956329 5
-6.547399 -69.012291 3.076905 5
-6.6028433 -89.436234 3.5650883 1.625
-6.5331526 -88.601067 3.5402806 1.3333334
-6.5711775 -88.20063 3.5399675 1.2857143
-6.6172309 -87.870346 3.5037882 2.3333333
-6.4334974 -87.571693 3.5135298 1.5
-6.7109284 -87.030052 3.485872 2
-6.4315457 -86.573135 3.5958009 2
-6.5718555 -85.717804 3.4868965 3.4285715
-6.6498623 -85.473938 3.324151 3.1428571
-6.6758757 -84.962845 3.2607212 1.6666666
-6.5270309 -84.638985 3.251879 2
-6.5876036 -84.271072 3.2391102 2.3333333
-6.7339916 -83.819977 3.2296796 3
-6.5234509 -79.368851 3.2840912 3.25
-6.7041512 -79.153168 3.3769417 1
-6.5325732 -73.791855 3.4049115 4.7307692
-6.5530882 -73.07444 3.4112651 5.25
-6.5203471 -72.677681 3.3638794 5.5555553
-6.5400763 -72.171814 3.4111662 5.7142859
-6.5207453 -71.784584 3.3353956 5.25
-6.5574765 -71.406456 3.2910442 5.5
-6.5409365 -70.979637 3.3351142 5.25
-6.5185428 -68.958038 3.4801795 6
-6.6191745 -86.058151 3.6615171 2.5
-6.6131034 -85.912918 3.6545055 4.1999998
-6.6165056 -81.48304 3.6177447 6
-6.6248517 -79.084229 3.817601 2.3499999
-6.5768194 -73.765526 3.7981601 5.5
-6.5262132 -72.968842 3.7132046 5.6666665
-6.4547787 -71.934883 3.7746015 6
-6.5062313 -70.913055 3.8165543 6.3333335
-6.5307808 -68.928543 3.7519977 6.5
-6.5919967 -85.942589 4.2185049 3.1666667
-6.6705022 -79.057411 4.2360811 3.9333334
-6.5726271 -73.777008 4.0591078 6.2857141
-6.5067759 -72.924438 4.2213106 7
-6.4226213 -71.881996 4.2641449 7
-6.4289293 -71.332062 4.1387014 7
-6.4655986 -70.84436 4.2059798 7
-6.550281 -68.917046 4.0875983 7
-6.6034899 -85.937149 4.5370035 5
-6.5773373 -79.047493 4.4260926 5.5
-6.5082955 -72.885551 4.570426 8.0159092
-6.4028239 -72.709633 4.7479563 8.0299997
-6.4837155 -72.172852 4.6814861 8.0353336
-6.4743762 -71.843643 4.727293 8.0297499
-6.4742689 -71.336357 4.7485309 8.0287809
-6.5088677 -71.024139 4.6703949 8.0252504
-6.5326047 -70.764 4.7156682 8.0310001
-6.5696974 -68.894127 4.6586304 8.0511999
-6.6111417 -66.602318 4.5060511 8.0327492
-6.7843914 -66.239922 4.4661274 8.0319996
-6.6042242 -86.023552 4.8624239 8.10075
-6.6030974 -85.876633 5.0322022 7.2818842
-6.5962934 -84.535988 5.0805802 8.0775003
-6.5165195 -72.913239 4.8956757 8.7212143
-6.4444356 -72.612541 4.8579626 8.2954321
-6.4509087 -72.263184 4.8410931 8.0252924
-6.4525323 -71.339806 4.8230839 8.0265942
-6.5962057 -68.880264 4.9732213 9.022357
-6.6263633 -86.066254 5.521306 8.4458342
-6.5836239 -85.806641 5.4313607 9.2087641
-6.600399 -68.847397 5.4105511 9.4932127
-6.76651 -86.138359 5.6240106 11.1215
-6.5802937 -85.748299 5.7583108 11.095737
-6.4821754 -85.598587 5.725698 11
-6.5979357 -68.844292 5.7940984 10.291379
-6.4734106 -68.694054 5.6556048 10
-6.6598291 -85.927917 6.00423 13.151
-6.6340356 -68.830864 6.2260399 11.017909
-6.5447097 -68.78186 6.2050638 10.735364
-6.6463327 -68.838821 6.5133934 11.46439
-6.6307354 -68.724716 6.5989552 11.470409
-6.6437564 -69.017479 7.0762534 12.211773
-6.614336 -68.693726 6.8914495 12.306167
-6.6004348 -69.029045 7.4026489 13.081906
-6.6344748 -68.995171 7.7600675 14.129647
-6.6588368 -68.644615 7.8975167 13.153821
-6.7420373 -68.850052 8.2571039 11
-6.6651664 -68.529129 8.2169704 13.596322
-6.5207233 -68.323532 8.0525799 13
-6.672308 -68.620613 8.5917616 13.536592
-6.6863327 -68.570427 8.9147434 13.813056
-6.5233274 -68.347221 8.9618731 14
-6.6697764 -68.564377 9.4501867 14.364976
-6.7109075 -68.809029 9.6535578 12
-6.6444597 -68.596062 9.8176899 13.525125
-6.5359459 -68.283813 9.7503138 15
-6.6684322 -68.543747 10.185014 13.540125
-6.5157151 -68.310295 10.078381 15
-6.6065044 -68.534554 10.629486 14.031063
-6.6042986 -68.620972 11.021235 13.8
-6.5215726 -68.590057 11.559499 15
-6.7615805 -68.513321 11.862021 14.358167
-6.758152 -68.625488 12.568971 14
-6.7615514 -68.530251 13.053867 14
-6.4776134 -68.369133 14.537216 15.074
-6.7377162 -68.199951 15.752348 15.078
-6.1270523 -75.008148 1.559147 3
-6.3944526 -74.625534 1.5950508 5
-6.1712098 -74.044449 1.5512059 4
-6.2959948 -86.151375 1.9738718 7
-6.3171883 -79.361153 1.8996813 7
-6.1433325 -78.553963 1.9723097 5
-6.2274165 -77.670494 1.8073623 5
-6.3365412 -77.23703 1.8634956 5
-6.3942952 -76.82251 1.9251802 5
-6.1655107 -76.681908 1.7872159 4.6666665
-6.1203427 -75.765808 1.6790372 3.25
-6.1743069 -75.431778 1.6953557 3.5
-6.2912588 -74.973778 1.7044199 4
-6.3827467 -74.260612 1.6781549 5
-6.1878505 -87.456795 2.3797169 7
-6.2324314 -86.433556 2.3170311 7
-6.233933 -79.290398 2.1523159 7
-6.2906141 -78.460014 2.0310364 5
-6.2215953 -74.020798 2.2578068 0.91666669
-6.2349591 -73.984268 2.2421148 2.25
-6.2688184 -80.996468 2.7694147 5
-6.3445334 -80.498871 2.7402031 5
-6.1924658 -79.013161 2.6197734 5
-6.2497444 -74.019638 2.4620445 1.888889
-6.231144 -73.959625 2.6310911 2.2638886
-6.3529129 -69.982788 2.7885797 4
-6.2005324 -85.40976 3.0414326 5
-6.3492537 -85.105049 3.0221548 5
-6.3270364 -84.557564 3.100498 5
-6.3473916 -84.174896 3.0774283 4.5
-6.2095928 -83.69622 3.1361723 2.25
-6.1767416 -83.353218 3.1434209 2.0999999
-6.1768346 -82.99794 3.0959957 2.6666667
-6.1792555 -82.595802 3.0558286 2.7142856
-6.1905069 -82.236244 3.0609601 2.25
-6.2139149 -81.795578 3.0082815 3
-6.2193885 -81.414619 2.9817181 2.8
-6.2050548 -81.065056 3.0157793 2
-6.2014594 -80.618942 2.9761734 2.5
-6.1835847 -80.182312 2.9761648 2.3333333
-6.143074 -79.821365 2.9481771 2.5
-6.190773 -79.456718 3.0555098 3
-6.2403893 -73.843369 3.0095804 3.3020833
-6.2224889 -73.235573 2.9339166 4
-6.183228 -73.080841 2.9701097 3.5
-6.002614 -69.349113 3.1205847 5
-6.2654729 -68.970573 3.0867283 5
-6.2623777 -89.736969 3.5541251 2.5
-6.2618303 -89.418282 3.5520818 1
-6.2817907 -89.044586 3.5437276 1
-6.1827116 -88.236748 3.5342932 0.5
-6.0664682 -87.825592 3.542733 2.6666667
-6.1942887 -87.446838 3.5031486 4
-6.2974944 -87.187004 3.4810457 3
-6.2393413 -85.816559 3.5155227 3.8888888
-6.1532784 -85.475143 3.3407235 2.8333333
-6.1908498 -85.031975 3.2215943 4
-6.0666385 -84.217735 3.2297633 2
-6.1362257 -83.765678 3.2054591 1.5
-6.2750192 -79.327255 3.3941126 2.3333333
-6.153759 -79.089027 3.4215238 3.5714285
-6.2047639 -73.79567 3.4183192 4.6333332
-6.3460393 -73.344582 3.3079107 4
-6.1243224 -73.013687 3.417625 4.4861112
-6.2892137 -71.848885 3.517637 5.5
-6.1985073 -71.591522 3.5386255 6
-6.1548033 -70.992043 3.566509 6
-6.0273499 -69.399101 3.2394435 6
-6.1474695 -68.926582 3.4960175 6
-6.051239 -88.485878 3.6298809 2
-6.2023425 -87.696175 3.6457698 4
-6.2403555 -86.026527 3.6620469 4
-6.1961646 -85.927002 3.655566 2.6666667
-6.1099191 -79.048088 3.8207424 3.6428571
-6.2068243 -73.752861 3.8119071 5.5789471
-6.1404076 -72.924362 3.8762965 5.8333335
-6.2616172 -72.588699 3.6169953 6
-6.1121001 -72.386742 3.8138142 6
-6.1917834 -71.80407 3.7976918 6.25
-6.1749029 -71.418816 3.8343198 6.4000001
-6.1360741 -70.939667 3.7653036 6.3333335
-6.1978292 -68.899384 3.931689 7
-6.19554 -85.942169 4.2226772 4
-6.1171923 -79.017944 4.2677593 4.6333332
-6.1489797 -73.748314 4.0450792 6
-6.190629 -72.875908 4.2111449 7.2799997
-6.2706146 -72.591522 4.225029 7
-6.2951007 -72.185303 4.2480807 7
-6.327116 -71.822693 4.2607903 7
-6.3315105 -71.398956 4.2370811 7
-6.3735709 -71.028297 4.2509837 7
-6.1567898 -68.899162 4.0771742 7
-6.2345357 -85.924232 4.6030688 5.3714089
-6.203217 -79.017715 4.4233851 5.3333335
-6.2353678 -72.834503 4.5735579 8.0238504
-6.1348348 -72.784897 4.5778947 8.0316658
-6.3249516 -72.299927 4.6349564 8.0368338
-6.2528157 -71.724762 4.7525415 8.0186996
-6.3704495 -71.411171 4.7410855 8.0187502
-6.3821168 -70.994003 4.6358275 8.0216665
-6.2010255 -68.867508 4.6286726 8.0019331
-6.3930736 -68.73291 4.7676024 9
-6.0137339 -86.036156 4.9076457 7
-6.2095218 -85.857605 5.0481462 7.7280211
-6.117764 -85.534782 4.9804425 8.0880003
-6.1973071 -72.907028 4.8642392 8.349556
-6.2143183 -72.658165 4.9186115 8.5137119
-6.3516145 -72.281845 4.8957453 8.2174501
-6.2039022 -71.740883 4.8545303 8.1272755
-6.3697386 -71.480606 4.8523884 8.0276566
-6.3111625 -71.047432 4.8413825 8.0295
-6.1879544 -68.863968 4.9422913 9.0103397
-6.1860399 -85.8209 5.4322782 9.1384172
-6.2374268 -68.833069 5.4317012 9.6367493
-6.2072215 -68.771751 5.4439421 9.2311115
-6.1903143 -85.759789 5.7365236 11.539667
-6.1821866 -85.556923 5.7569447 9.0860004
-6.2498989 -68.831512 5.7727323 10.315783
-6.1352992 -68.783684 5.8728504 10.416667
-6.2154398 -68.850075 6.2725096 11.011366
-6.2017479 -68.76664 6.2554145 10.788056
-6.3056026 -68.883644 6.6146059 11.714286
-6.2243404 -68.745697 6.5852008 11.5805
-6.1847725 -68.996422 7.0468392 12.086583
-6.2042475 -68.704895 6.9090214 12.229943
-6.2153492 -69.010231 7.3954258 13.157757
-6.2405787 -68.983315 7.7429085 14.135478
-6.237452 -68.59053 7.9907079 14.045
-6.2640281 -68.483498 8.1889086 14.901036
-6.2635546 -68.543938 8.6439362 14.173064
-6.3843322 -68.524399 8.8887129 14.696167
-6.0913844 -68.477425 10.223816 14.558001
-6.1341395 -68.577301 10.828239 14.54325
-6.3352914 -68.68145 11.385906 13
-6.345057 -68.48423 14.570104 15
-5.821764 -75.256294 1.5975544 5
-5.8309627 -74.81385 1.5669186 5
-5.8643732 -74.375038 1.5335255 5
-5.6177115 -78.897293 1.9344153 5
-5.7463918 -78.242592 1.8369788 4.5
-5.9116764 -77.816032 1.8453993 4
-5.6926436 -77.454926 1.7477125 5
-5.9548178 -77.136147 1.799383 4
-5.998301 -76.799713 1.7728031 4
-5.6848783 -74.033943 1.8745315 4
-5.8039145 -86.255707 2.3218315 7
-5.829267 -74.023125 2.2558849 1
-5.7895947 -73.978271 2.2974448 1
-5.762392 -73.951729 2.6486914 2.4561403
-5.7507677 -85.67411 3.118901 6
-5.8092623 -85.469902 3.1085565 5
-5.781064 -85.131302 3.1961491 1.5
-5.7240725 -84.651466 3.1234903 3.4000001
-5.7810779 -84.205048 3.0758686 4
-5.6172237 -83.784645 3.178529 3
-5.7045918 -83.443115 3.0373814 4
-5.7860513 -83.095688 3.0205657 4
-5.9121075 -82.677513 2.9560966 4.6666665
-5.8874388 -82.149681 2.9772203 4.25
-5.8492932 -81.696442 2.9584525 4.5
-5.9476228 -81.408638 3.0473194 3
-5.9037848 -81.100586 2.9531331 4
-5.9434843 -80.721535 3.0309968 3
-5.9245491 -80.231567 3.004781 3
-5.7898836 -79.851234 2.9684756 2
-5.7321644 -79.429558 3.0413334 2.6666667
-5.790103 -73.813744 2.9752636 3.25
-5.8164978 -73.041359 2.9945004 3.3461537
-5.650506 -70.957359 2.8554742 4
-5.9998035 -70.131409 2.9697852 5
-5.7297139 -69.576981 2.9746447 5
-5.9267168 -69.054695 3.0935731 5
-5.7772989 -89.484566 3.5245211 1.1428572
-5.9197435 -89.071938 3.5210497 1
-5.7088132 -88.165054 3.5273299 3.3333333
-5.7436771 -87.836761 3.5297725 3.2
-5.6523356 -87.369865 3.45122 4
-5.9385095 -86.989479 3.5074933 4
-5.8074255 -85.748634 3.4877985 3.5
-5.7970591 -85.461403 3.2890921 3.0999999
-5.8334889 -85.025963 3.2441025 1.5
-5.9674759 -84.770615 3.2417402 2
-5.898335 -84.267166 3.2264099 0.66666669
-5.952796 -83.898018 3.20681 0
-5.9282532 -82.317337 3.4328291 7
-5.8725238 -79.07341 3.4396069 3.4444444
-5.8185568 -73.740593 3.3780084 4.8571429
-5.792192 -72.995468 3.3688169 4.4166665
-5.9320221 -70.809303 3.512166 6
-5.7848268 -69.710373 3.5083339 6
-5.8152137 -69.247215 3.5054581 6
-5.8412628 -68.914597 3.4888062 6
-5.6863084 -88.45842 3.6791973 1
-5.7812662 -88.312599 3.6579683 2
-5.8122358 -87.788078 3.6247532 0.16666667
-5.7348828 -87.470909 3.6257906 0
-5.9081545 -86.02327 3.6490862 2
-5.7931242 -85.94931 3.7305732 3.6666667
-5.8522296 -79.036255 3.8198841 3.0873013
-5.7817669 -73.719254 3.84396 5.8000002
-5.8307114 -72.84539 3.9166873 6
-5.9306545 -72.6623 3.8044536 6
-5.8707895 -71.815132 3.6500661 6
-5.9235015 -71.433167 3.6017864 6
-5.649272 -70.836288 3.6333077 6
-5.826942 -68.878433 3.9436324 7
-5.9191604 -86.029625 4.3172336 2
-5.8165951 -85.952354 4.2523813 1.5
-5.8706889 -79.018829 4.1506944 3.8869047
-5.8086829 -73.745651 4.0396686 6.1666665
-5.8068237 -72.826424 4.1959114 7.0772858
-5.7940626 -72.775131 4.210927 7
-5.6893392 -72.394592 4.075808 7
-5.7105274 -71.95549 4.0498877 7
-5.6997313 -70.920326 4.0117998 7
-5.692565 -70.757492 4.1187606 7
-5.8048458 -68.88063 4.1054583 7.2761998
-5.781682 -68.765572 4.0683889 8
-5.8530502 -85.927467 4.5869703 5.2857141
-5.7256932 -78.988861 4.4183016 5.8333335
-5.7812963 -72.841415 4.5781226 8.0190363
-5.7702785 -72.786606 4.5768924 8.0113411
-5.6221213 -72.214462 4.5192757 8.0559998
-5.6314397 -71.697731 4.5007567 8.0555
-5.6499505 -71.117119 4.4801354 8.0550003
-5.6476994 -70.795494 4.4920034 8.0524998
-5.8111563 -68.847664 4.633873 8.0686674
-5.8927965 -86.066879 4.8682294 7
-5.7518778 -85.894493 5.0171666 7.2545877
-5.7940426 -72.876602 4.8686004 8.5120621
-5.8041821 -72.702583 4.9368429 8.9652195
-5.8573289 -71.699249 4.8846602 8.7046671
-5.6746435 -71.456985 4.9061804 9.0559502
-5.7968807 -68.861206 4.9518576 9.01054
-5.8905725 -86.202698 5.4322186 10.127
-5.7934937 -85.822678 5.3896389 9.2596684
-5.825655 -68.821266 5.4274106 9.6538525
-5.7941442 -68.776649 5.3994308 9.0031672
-5.8065171 -85.801567 5.7176123 11.529057
-5.8436141 -68.853333 5.6990108 10.185625
-5.7641883 -68.781334 5.8727837 10.530921
-5.7962217 -68.820496 6.216928 11.008429
-5.8235536 -68.763351 6.2335591 10.965942
-5.7722769 -68.817047 6.723042 12
-5.823626 -68.756149 6.5977883 11.63908
-5.8213763 -68.962585 7.035048 12.29388
-5.843792 -68.734024 6.9135227 12.221109
-5.8014178 -68.997055 7.3954968 13.125868
-5.8342767 -68.95179 7.7691278 14.059278
-5.8585219 -68.755066 7.9032393 14.0585
-5.7440338 -68.474319 8.1989231 14.8195
-5.8153448 -68.547958 8.6043167 14.435687
-5.99055 -68.380119 8.436779 15.058
-5.7537775 -68.46769 8.8870888 14.794
-5.9080997 -68.466942 9.2238207 15.029
-5.7786694 -68.374336 9.7987919 15.029
-5.8018355 -68.501923 10.211311 14.05725
-5.636148 -68.602745 10.640635 14.0865
-5.9176178 -68.530334 11.273115 14.086
-5.8091149 -68.403366 14.881717 15.0745
-5.4216075 -71.056007 0.77689606 7
-5.2371554 -74.973526 1.3750412 3
-5.4029703 -78.826057 1.7757286 5
-5.4937844 -77.017166 1.663552 5
-5.4642301 -73.894936 1.8292323 4.5
-5.4214239 -85.828453 2.2321208 7
-5.3936057 -74.015175 2.1906183 2
-5.4236784 -73.963577 2.2129836 1.2333333
-5.5366044 -78.985893 2.5833011 5
-5.4036484 -73.944626 2.6027858 1.9607844
-5.5707669 -85.84787 3.115536 7
-5.2387261 -85.455864 3.1000323 4.5
-5.5417218 -85.004166 3.1383991 3.3333333
-5.3737478 -84.598656 3.0319176 4.5
-5.4899788 -84.15461 3.1017234 3
-5.4505577 -83.81282 3.0827174 2.8333333
-5.2928004 -83.409485 3.1034205 2
-5.280612 -83.038261 3.1003935 2
-5.2843924 -82.586143 3.1029289 1.4
-5.2814236 -82.168816 3.0707498 1.7142857
-5.274159 -81.748398 3.0338097 2
-5.3158193 -81.362267 3.0169439 2
-5.3640141 -80.954193 2.9892519 2.125
-5.3518224 -80.611023 3.0032568 2
-5.4484892 -80.263519 2.9538238 2.3333333
-5.4383845 -79.833275 2.8804107 3.6666667
-5.4898958 -79.388374 3.1304457 3
-5.3152308 -79.096184 3.1965122 4
-5.3428354 -73.788353 2.9954448 3.1538463
-5.4911847 -72.999207 3.0421429 4
-5.3585792 -72.507584 2.8927979 3.4000001
-5.2999663 -72.258194 2.950372 4.25
-5.3412333 -71.880196 3.0493379 4.5
-5.2738051 -71.258301 2.898237 4
-5.595551 -68.930641 3.0321021 5
-5.4235568 -67.629349 2.8068945 6
-5.3893738 -89.657181 3.5304153 1.3333334
-5.4371538 -89.465477 3.5159111 1.1666666
-5.449111 -89.090057 3.4928336 3
-5.2317009 -88.128777 3.5739641 3
-5.5935698 -87.579788 3.5574622 4
-5.3252501 -87.029671 3.579385 3
-5.554637 -86.614304 3.5219593 3
-5.3434138 -86.050346 3.5747006 4
-5.3957024 -85.855095 3.4817469 3.5
-5.3936281 -85.499588 3.3406951 3
-5.4313784 -84.857643 3.2203453 3
-5.4704776 -84.570183 3.2114086 3
-5.460968 -84.289429 3.2037323 3
-5.4148488 -79.359993 3.3154638 2.6666667
-5.5242329 -79.05513 3.3398006 3.75
-5.3095627 -73.753815 3.3918202 4.5454545
-5.5574441 -73.39653 3.3202448 4
-5.4369941 -72.973122 3.496279 4.75
-5.3156552 -72.582642 3.2971444 5
-5.2245779 -72.383369 3.4015419 6
-5.4598222 -71.888573 3.5875123 6
-5.4610605 -71.567307 3.559891 6
-5.5121965 -70.832657 3.5524833 6
-5.2982025 -70.409386 3.258182 5
-5.2679858 -70.134384 3.5431786 6
-5.5908003 -69.628662 3.4357743 6
-5.3538208 -69.400764 3.5270329 6
-5.3732543 -68.895195 3.4483271 6
-5.2451224 -89.129585 3.9577646 6
-5.4758453 -88.480515 3.6445949 1.6666666
-5.2523642 -88.076256 3.6362295 1
-5.4677615 -87.80291 3.6321368 0.5
-5.4338269 -87.513382 3.6209352 0
-5.3465166 -86.224678 3.6058102 3
-5.3878536 -85.95314 3.8137147 4
-5.4258351 -78.992279 3.7853878 2.6666667
-5.3245115 -73.716919 3.8391845 5.852941
-5.4499531 -72.938751 3.8904128 6
-5.4447017 -72.566208 3.8460529 7
-5.5801768 -71.205109 3.9904466 7
-5.3642497 -68.855019 3.943634 7.1341248
-5.3923912 -89.298401 4.0902591 6
-5.2088332 -89.187065 4.3049769 5
-5.4143829 -85.918037 4.2625875 3.3333333
-5.4191084 -78.979347 4.2643785 5.0833335
-5.4278264 -73.720329 4.0158682 6
-5.5065823 -72.868469 4.2270484 7
-5.3423724 -72.659615 4.2429218 7.7115827
-5.4434938 -71.840752 4.0651774 7
-5.5725646 -71.451157 4.090117 7
-5.4420333 -68.872185 4.1346555 7.3333335
-5.3780689 -85.872513 4.6483865 5.6444445
-5.4606671 -78.975006 4.4203134 5.3333335
-5.4185162 -72.893532 4.5571876 8.0341539
-5.4379196 -72.665169 4.5492525 8.028738
-5.4583197 -72.226936 4.5162716 8.0616245
-5.4933596 -71.87664 4.5093393 8.0488214
-5.5210943 -71.405724 4.4903617 8.0593004
-5.562614 -71.020988 4.4751458 8.05725
-5.5131445 -70.759247 4.4598851 8.0559998
-5.4063573 -68.853821 4.6475883 8.2027731
-5.2548542 -68.782448 4.6998162 8.25
-5.3808856 -85.818489 5.0221262 7.4576302
-5.2355881 -85.467461 4.9410539 8.0935001
-5.529942 -72.877541 4.8784342 8.8050003
-5.5062356 -72.557404 4.9665561 9.0126877
-5.4967465 -72.321594 4.9505501 9.0450001
-5.5955381 -71.39373 4.917079 9.0570002
-5.4081492 -68.852959 4.9552264 9.015646
-5.220871 -68.792435 5.1329112 9
-5.3558025 -85.77993 5.4050794 9.2464199
-5.350944 -85.579582 5.4826169 8.0584993
-5.4586997 -68.82724 5.4622908 9.7182751
-5.3597903 -68.778351 5.4099183 9.5301666
-5.3897414 -85.746109 5.7156711 11.356264
-5.3186297 -85.575272 5.7630796 11.10125
-5.4289465 -68.840988 5.6848326 9.9005632
-5.3737593 -68.76487 5.8669853 10.615917
-5.4310045 -68.822998 6.1902566 10.586091
-5.3684092 -68.75415 6.2404628 10.974589
-5.3977451 -68.82579 6.6696615 11.258375
-5.4616795 -68.739532 6.5619946 11.593667
-5.3776751 -68.984978 7.0243392 12.075971
-5.423481 -68.719093 6.9463148 12.229864
-5.3803425 -68.976418 7.3874655 13.295838
-5.4291515 -68.933723 7.7409244 13.774616
-5.3840222 -68.643951 7.9102025 13.310683
-5.4195457 -68.615181 8.1852169 13.278303
-5.4223323 -68.557587 8.5778093 13.823885
-5.412293 -68.557358 9.0126677 14.125238
-5.4318991 -68.527573 9.3599281 14.107499
-5.3726578 -68.497955 9.8024244 14.787724
-5.5316935 -68.368355 9.8135014 14.5
-5.3457141 -68.517372 10.202932 14.792563
-5.4580765 -68.389603 10.172772 15
-5.4490442 -68.417435 10.602136 13
-5.4572487 -68.354546 10.698208 15
-5.5596485 -68.543747 11.098488 15.0865
-5.4574137 -68.511719 11.342337 14.586
-5.5950608 -68.303017 11.980623 14
-5.4116168 -68.571609 12.27254 14
-5.4676628 -68.43972 12.701196 14.074
-5.4668031 -68.258781 13.39639 14.538
-5.4736571 -68.470665 13.726402 15
-5.0914612 -78.233742 1.5803893 5
-5.1088428 -76.666603 1.5294609 3
-5.1319284 -75.912941 1.4689907 3
-5.1847286 -75.446136 1.4232701 3
-5.1868467 -78.722122 1.7012125 5
-4.9635677 -77.345078 1.6979154 4
-4.9704833 -76.999184 1.6759928 4
-5.0203719 -74.050545 1.7404814 2.5
-5.1210794 -73.893417 1.9462507 4
-4.8979316 -86.297203 2.197906 7
-5.0808849 -78.91304 2.3690937 5
-4.9793878 -73.948914 2.2334588 1.2941177
-5.0430865 -73.340508 2.3976338 5
-5.0044932 -82.527168 2.786716 6
-4.9923711 -82.029724 2.7610345 6
-5.0141773 -81.535538 2.7330544 6
-5.0247359 -81.057594 2.7417676 6
-5.0325723 -79.002167 2.7009215 5
-5.0050755 -73.918388 2.6054435 2.4551282
-5.0420246 -73.225456 2.7420611 3
-5.1840477 -73.050064 2.7826567 5
-4.9482183 -72.447914 2.7724943 3.5
-5.1426711 -72.261467 2.7374558 3
-5.0242972 -71.988304 2.7321045 3
-4.9962101 -85.608818 3.1989031 6
-4.9578109 -85.448891 3.0998294 5.1999998
-4.9807835 -85.016945 3.0969512 3.5
-5.1742086 -84.444023 3.1644728 0
-5.0961714 -84.237343 3.0509429 2.5
-5.0165873 -83.808296 3.1273797 1.3333334
-5.0249219 -83.378357 3.0937536 2.1428571
-5.0048656 -82.9804 3.0416627 2.8571429
-4.9692531 -82.567307 3.0184016 2.8333333
-5.0498934 -82.106941 2.9866998 3.5999999
-5.0610881 -81.789108 3.0358887 2.25
-5.017283 -81.398277 2.9682949 3.4000001
-5.0186834 -80.961395 2.9776845 2.6666667
-5.0115833 -80.59269 3.0118406 2
-4.9394836 -80.171104 2.9548109 2
-5.0094204 -79.808212 2.9246109 2.2857144
-5.0316563 -79.404762 3.0402858 3.2142856
-5.0493841 -78.919662 3.0630155 5
-5.1041188 -78.663765 3.020237 6
-5.0371757 -73.77047 3.0342557 4.07971
-4.8613601 -73.211243 2.9199262 3
-5.120863 -72.9459 3.012922 6
-5.1644201 -72.793251 3.1006136 6
-5.1946926 -72.37278 2.8019991 3
-5.0246196 -71.868279 2.8234878 4
-4.959898 -71.522858 2.9046574 4
-4.9967003 -70.884621 2.8605459 4
-4.8636589 -70.773621 2.8399773 4
-4.815331 -69.502853 3.1252608 5
-5.0321364 -89.9002 3.4077837 2.5
-4.9913974 -89.384293 3.5153096 1
-4.8501959 -89.009979 3.486619 5
-4.8430381 -88.166718 3.5791609 2
-4.9876075 -87.802238 3.5754845 3.5
-5.0508013 -87.343575 3.5915065 2
-5.1093473 -87.196716 3.5814502 4
-4.9498296 -86.081383 3.5108976 3.75
-5.0170708 -85.789589 3.4146283 4.5
-5.0284824 -85.504044 3.3102908 3
-5.1852951 -85.123085 3.2383027 3
-4.8933444 -84.245392 3.2049024 1
-4.9567547 -79.031456 3.4175448 1.9444444
-5.0204849 -73.745628 3.4097238 5.1315789
-5.1884251 -72.697357 3.3278358 6
-4.8459444 -72.351501 3.2611146 5
-5.0628099 -71.727272 3.4211075 5
-5.1830344 -71.193047 3.3283374 5
-4.8926859 -69.418983 3.4832916 6
-5.1231046 -68.898621 3.470444 6
-4.8936124 -89.048096 3.662827 2
-4.9018211 -88.755157 3.6179159 1
-4.9994326 -88.285622 3.627239 1.8
-4.9644723 -87.785667 3.6205509 0.55555558
-5.0511575 -87.465195 3.6231019 1
-4.9514613 -85.929916 3.7571418 3
-4.9390087 -78.979698 3.8448813 2.5104165
-5.0233111 -73.712524 3.8055406 5.6825395
-5.0285158 -71.662888 3.7559297 6
-4.8506365 -69.268898 3.8349042 7
-5.0270109 -68.859795 3.9464211 7
-4.9117684 -68.623085 3.8955348 8
-4.9376507 -89.039268 4.2724972 5.3333335
-4.9353333 -85.881439 4.2604551 3.75
-4.9204569 -78.958717 4.2116833 4.3827162
-5.1821284 -72.920715 4.211946 8.0751657
-5.0074944 -68.856796 4.137094 7.3371663
-5.0168867 -68.761604 4.0323896 8
-4.8642969 -89.09713 4.5350904 5.3333335
-4.9848304 -85.865692 4.5901775 5.0333333
-4.9874897 -78.937782 4.4224305 6
-5.0446286 -68.843346 4.6770177 8.2888336
-4.9313951 -68.780479 4.6850028 8.0046663
-5.0223269 -85.832535 5.0216479 7.4805512
-5.0381064 -68.840675 4.9426107 9.0115261
-5.0181255 -68.783707 5.0269909 9.0194998
-4.9628849 -86.070557 5.3185568 9.1084995
-4.9993477 -85.779213 5.4139471 9.6460638
-4.9983635 -85.577637 5.389215 8.6269999
-5.0013814 -68.830536 5.5323415 9.9147501
-5.0005078 -68.763763 5.3996882 9.4512072
