# .PCD v0.7 - Point Cloud Data file format
VERSION 0.7
FIELDS x y z intensity
SIZE 4 4 4 4
TYPE F F F F
COUNT 1 1 1 1
WIDTH 1259
HEIGHT 1
VIEWPOINT 0 0 0 1 0 0 0
POINTS 1259
DATA ascii
-170.62561 111.18216 -1.4522872 7
-170.69724 111.7814 -1.4305687 7
-170.71098 112.14831 -1.4755051 7
-170.71375 112.42714 -1.2904199 7
-170.77512 113.04169 -1.3204511 7
-170.74071 113.38284 -1.3751216 7
-170.77309 113.60938 -1.3696088 7
-170.7323 114.43259 -1.5087262 7
-170.49326 100.87716 -0.81397039 7
-170.53954 101.79812 -0.81440848 7
-170.58961 102.3297 -0.86548036 7
-170.52289 101.38242 -0.73814595 7
-170.58813 101.80402 -0.60522234 7
-170.63712 103.61103 -0.7293933 7
-170.45439 105.25281 -0.71862447 7
-170.55046 107.00179 -0.75564766 7
-170.55777 111.45999 -0.43764979 8.0959997
-170.63374 111.86939 -0.45173439 8.0983343
-170.58562 112.36826 -0.42207852 8.0915003
-170.65591 112.7017 -0.4726404 8.0488749
-170.64587 113.0737 -0.45925227 8.0552006
-170.63222 113.42176 -0.43774959 8.0184002
-170.68402 113.98201 -0.44727612 8.0885
-170.72737 114.13539 -0.49510533 8.0930004
-170.73947 114.70171 -0.47431704 8.0895004
-170.77386 114.94337 -0.51686847 8.0924997
-170.77361 115.45728 -0.47531316 8.0865002
-170.41849 101.32716 -0.2846854 8.0434999
-170.43922 101.78112 -0.31164464 8.0449991
-170.45686 102.68625 -0.3689853 8.0480003
-170.48949 103.11114 -0.24133322 8.04
-170.51712 103.40068 -0.32366809 8.0410004
-170.56403 104.58691 -0.19863647 8.043334
-170.60216 105.43155 -0.28072524 8
-170.6265 105.81938 -0.28436995 8
-170.63545 106.13155 -0.28691614 8.0395002
-170.67476 106.70734 -0.33846417 8.0380001
-170.68242 107.11962 -0.277338 8.0494995
-170.70479 107.42509 -0.33330035 8
-170.73866 107.93128 -0.30762807 8.0179996
-170.73241 108.168 -0.29072469 8.0395002
-170.75591 108.58847 -0.28938818 8.0485001
-170.46626 109.22244 -0.37812465 8.1000004
-170.42447 110.70457 -0.35483196 8.0904999
-170.46141 110.91115 -0.39185411 8.0935001
-170.50877 111.54356 -0.37844658 8.0900002
-170.52524 103.09148 0.593817 8.0213327
-170.58119 103.87396 0.59320378 8.02075
-170.65376 105.44215 0.75683063 9
-170.65971 105.77991 0.6611594 8.6731672
-170.72841 106.03081 0.65847152 8.5340004
-170.70503 106.88366 0.47182938 8.0190001
-170.75288 107.46095 0.70595169 9
-170.70903 107.88274 0.46492401 8.0185003
-170.78142 108.00603 0.70953828 9
-170.76476 108.96494 0.5096736 8.0179996
-170.64391 105.09615 0.85100359 9.0500002
-170.69885 105.84244 0.9248355 9.0570002
-170.72554 106.25741 0.94526619 9.0544996
-170.75629 106.58489 1.1343367 9.0295
-170.56033 111.60598 1.0110266 9.0930004
-170.67017 112.34063 0.97560048 9.0955
-170.66719 112.64333 0.95988059 9
-170.6899 113.0343 0.94936645 9.0690002
-170.68016 113.41225 0.92712247 9
-170.78064 113.73644 0.9317584 9.0974998
-170.65355 105.13708 1.5245908 9.0209999
-170.40056 100.84087 1.7705879 10.0435
-170.68588 106.55396 1.7795993 10.0465
-170.71107 107.06943 1.7736391 10.046
-170.74454 107.46651 1.7474844 10
-170.42242 101.89122 3.0860128 11.038
-170.43817 102.55196 3.1047034 11.0375
-170.55685 102.42211 3.2460334 11.035
-170.57434 102.95052 3.216758 11.0355
-170.53259 101.91045 3.8922169 12.0425
-170.5116 97.153687 5.1236839 13.052
-170.77968 107.10414 5.0149636 13.0415
-170.46599 110.89612 4.9984183 13.039249
-170.52582 111.23507 5.113276 12.084
-170.59337 97.025635 5.3180313 12.365833
-170.70197 97.269714 5.2784171 13.0415
-170.73407 118.75371 5.7880516 13.0855
-170.73441 103.40137 6.126142 10.002
-170.64296 118.92039 6.1106992 13.0945
-170.31946 115.8206 -2.9087665 6
-170.29559 119.04453 -2.934263 6
-170.054 104.97124 -2.4136658 6
-170.075 106.54422 -2.4412475 6
-170.13406 107.44959 -2.4975946 6
-170.15822 107.79098 -2.4360385 6
-170.14336 108.71593 -2.4020972 6
-170.19821 108.81159 -2.5163205 6
-170.23662 109.91747 -2.5389302 6
-170.33463 111.79508 -2.4164162 6
-170.394 112.29393 -2.4773755 6
-170.29242 112.88353 -2.6298759 6
-170.34871 113.37236 -2.5847676 6
-170.39919 114.15776 -2.6273718 6
-170.03444 103.09811 -2.2687654 6
-170.05092 103.32481 -2.3442171 6
-170.08385 103.80079 -2.3006177 6
-170.07013 104.55479 -2.3687363 6
-170.08319 105.06664 -2.319962 6
-170.09552 105.55105 -2.3149202 6
-170.10526 105.61656 -2.3467755 6
-170.09172 106.11723 -2.3622792 6
-170.08929 106.50371 -2.3514111 6
-170.14058 107.11555 -2.3456671 6
-170.1723 107.40276 -2.3095517 6
-170.14713 107.65182 -2.3774908 6
-170.22533 108.28318 -2.3389137 6
-170.3101 109.8388 -2.3440948 6
-170.28897 110.16177 -2.3927414 6
-170.34193 110.80859 -2.3635812 6
-170.38867 111.86812 -2.3689086 6
-170.39955 112.27168 -2.3895006 6
-170.33942 113.98904 -2.0207303 7
-170.38821 114.86638 -2.0284119 7
-170.19876 107.60455 -1.6430056 7
-170.02574 109.26388 -1.7479849 7
-170.10785 110.52781 -1.9092308 7
-170.11253 111.07143 -1.8210388 7
-170.16934 111.87064 -1.8126154 7
-170.21567 112.77499 -1.8340746 7
-170.24702 113.44197 -1.8972 7
-170.28052 113.71977 -1.7960762 7
-170.31406 114.40717 -1.8473717 7
-170.37343 115.09927 -1.8159901 7
-170.08322 97.465645 -1.2882258 7
-170.01874 97.913292 -1.2574004 7
-170.01254 98.131134 -1.2635751 7
-170.02948 98.490723 -1.2662977 7
-170.06525 98.943237 -1.2887827 7
-170.11221 99.331253 -1.2534381 7
-170.07835 99.740822 -1.2762424 7
-170.09712 100.08145 -1.3280603 7
-170.11203 100.54388 -1.2943939 7
-170.14685 100.9726 -1.3387816 7
-170.17058 101.5184 -1.30957 7
-170.18382 101.82798 -1.3397987 7
-170.19786 102.2379 -1.4665203 7
-170.21994 102.68092 -1.4011619 7
-170.26344 102.97867 -1.322889 7
-170.29085 103.78253 -1.3015438 7
-170.33142 104.08836 -1.325076 7
-170.34593 104.48677 -1.2234243 7
-170.38223 104.97723 -1.4106618 7
-170.36583 105.47189 -1.3920815 7
-170.3748 105.78004 -1.313628 7
-170.36674 106.08027 -1.3156037 7
-170.14774 97.507538 -1.0161946 7
-170.0127 98.466072 -1.191101 7
-170.1257 99.723816 -1.1805292 7
-170.146 100.65043 -1.0356387 7
-170.16324 100.93044 -0.85454857 7
-170.37157 105.47683 -0.98579961 7
-170.39192 106.4657 -1.015231 7
-170.10152 96.731445 -0.64807743 7
-170.04688 96.836365 -0.65002471 7
-170.2905 98.143234 -0.76743776 7
-170.21558 99.018219 -0.55167353 7
-170.16432 100.25079 -0.73410386 7
-170.00145 93.063896 -0.11794289 8.0434999
-170.05458 94.189842 -0.13469425 8.0434999
-170.07684 94.575439 -0.20282882 8.0497503
-170.10196 95.009796 -0.21109411 8.0504999
-170.1145 95.541946 -0.23263381 8.0504999
-170.15669 96.214722 -0.30266908 8.0550003
-170.17664 96.659111 -0.28424254 8.0262499
-170.1996 96.991241 -0.19946493 8.0128336
-170.22188 97.335976 -0.21663119 8.0146666
-170.23459 97.894226 -0.28029087 8.0267506
-170.26268 98.129257 -0.23025572 8
-170.28423 98.517433 -0.23409572 8
-170.32297 99.399086 -0.2338285 8.0438747
-170.34714 99.867943 -0.26877049 8.0123749
-170.32957 100.31121 -0.21873146 8.0214996
-170.39732 100.50752 -0.33551705 8.0489998
-170.39716 101.12462 -0.35259312 8.0495005
-170.32594 107.75662 -0.3341873 8.0979996
-170.37901 108.7191 -0.36154065 8.0974998
-170.34602 108.95797 -0.31405213 8.0924997
-170.24727 90.085693 0.4840593 7
-170.20901 95.016541 0.62579829 8.0279999
-170.21809 96.056618 0.6214602 8.026
-170.25989 96.601013 0.6186769 8.0132504
-170.27341 96.91069 0.54751921 8.0135002
-170.29791 97.484268 0.58292377 8.0254993
-170.0222 91.550537 0.85574579 9
-170.07675 93.346542 0.82250458 9.0535002
-170.2076 95.761864 0.91065216 9.0419998
-170.20064 96.015709 0.95000529 9.0395002
-170.34299 107.77092 1.197638 9.0979996
-170.27039 96.663239 1.3217248 9.0305004
-170.02403 102.44209 1.4780599 9.1005001
-170.23918 106.99268 1.2416837 9.0955
-170.01138 92.802254 1.9228134 10.054
-170.08226 93.367363 1.925588 10.052999
-170.08481 94.385391 1.9446189 10.046
-170.26305 97.058372 1.7381028 9
-170.32799 99.055275 1.7878069 10.0525
-170.38428 100.30312 1.8182404 10.0465
-170.17815 90.248413 2.1530895 8.1645002
-170.27458 90.671371 2.300916 8.1724997
-170.127 90.04892 2.5304213 8.0105
-170.23843 90.423203 2.4937234 8.0074997
-170.06761 90.597626 2.8123691 8.0139999
-170.08524 111.77959 3.0514612 11.0325
-170.12529 106.57761 4.9578199 13.038
-170.23013 107.09304 4.9875965 13.0385
-170.01686 108.34076 5.1243916 13.0355
-170.20796 103.4239 5.2982674 13.0555
-170.12263 108.30903 5.7912412 13.031
-169.62192 95.517334 -2.4410253 6
-169.71237 97.401497 -2.4060473 6
-169.71185 98.144318 -2.4581099 6
-169.73825 98.507126 -2.4148057 6
-169.76764 99.060875 -2.4136298 6
-169.93387 101.59555 -2.4010231 6
-169.60301 94.726097 -2.1842122 6
-169.60852 95.024155 -2.1824541 6
-169.67897 96.796394 -2.3117914 6
-169.7135 97.416565 -2.309731 6
-169.71935 97.851715 -2.3316116 6
-169.74155 98.274467 -2.2797315 6
-169.75885 98.613419 -2.2917957 6
-169.78439 99.182678 -2.2634709 6
-169.77882 99.2995 -2.2973711 6
-169.81015 99.729744 -2.2634642 6
-169.86646 100.34674 -2.2951269 6
-169.85808 100.771 -2.2525613 6
-169.90427 101.06118 -2.2592258 6
-169.90547 101.38011 -2.3254189 6
-169.97176 102.01063 -2.3144462 6
-169.98387 102.51442 -2.3038697 6
-169.60909 93.267738 -1.7126552 6
-169.6411 94.156609 -1.7361339 6
-169.66405 94.491493 -1.7482076 6
-169.76143 96.243759 -1.737837 6.5
-169.73151 96.792267 -1.8242176 6
-169.78587 97.01368 -1.8349818 6
-169.74719 97.674438 -1.9374954 6
-169.82013 107.43836 -1.7953722 7
-169.93388 108.24872 -1.7604747 7
-169.6447 90.824463 -1.2240889 7
-169.64244 91.353096 -1.3520088 7
-169.67093 91.816071 -1.3496132 7
-169.72961 92.933189 -1.3567209 7
-169.82466 94.634483 -1.3846436 7
-169.85785 95.185966 -1.2842338 7
-169.87453 95.749329 -1.3721913 7
-169.93571 96.736832 -1.269626 7
-169.94798 96.986542 -1.3000593 7
-169.97955 97.379944 -1.2869087 7
-169.73517 90.570244 -0.89161468 7
-169.80936 94.234047 -1.1684049 7
-169.84244 94.744186 -1.171128 7
-169.88617 95.187355 -1.1656311 7
-169.8759 95.768173 -1.1765939 7
-169.98283 97.149765 -1.0280429 7
-169.82286 91.440308 -0.62558746 7
-169.81824 91.622162 -0.66637582 7
-169.88022 92.209885 -0.56814867 7
-169.87387 92.665588 -0.65900093 7
-169.92752 93.088486 -0.5533644 7
-169.79031 90.475327 -0.2166314 6
-169.89288 91.400558 -0.22720954 7.2089996
-169.96092 91.834618 -0.25401312 8
-169.88739 92.217567 -0.21912026 7.0227499
-169.97803 92.608955 -0.23483698 8.0579996
-169.97989 92.824768 -0.20983964 8.0530005
-169.93881 90.294624 0.03242296 6
-169.72568 90.608459 0.62860692 7
-169.70572 91.615837 0.57170063 7
-169.99751 91.680847 0.85159272 9
-169.7859 90.402245 3.0657835 10.0265
-169.98853 102.86912 3.3161736 10.022
-169.63206 111.4498 3.6863127 12.046
-169.61992 110.97196 4.7115498 13.0465
-169.91298 103.73489 5.0393772 13.0515
-169.96265 106.68096 5.0429077 13.037
-169.76913 107.7149 5.048254 13.036
-169.92824 108.14214 4.9748664 13.0365
-169.88264 108.67531 4.9884048 13.036
-169.97392 111.77352 5.3132844 13.0325
-169.86124 107.89774 5.8516378 14.0505
-169.74597 108.31818 5.8275871 13.03
-169.66826 110.97928 5.7586269 14.0465
-169.40092 96.570305 -2.4540045 6
-169.3784 90.881699 -2.1734881 6
-169.40054 91.590744 -2.1543279 6
-169.38638 92.188942 -2.1681278 6
-169.45271 92.430214 -2.1742959 6
-169.46686 93.055946 -2.1693585 6
-169.5321 93.606606 -2.1715915 6
-169.46733 90.196648 -1.6407334 6
-169.31075 90.18309 -0.86680061 6
-169.39316 91.241898 -1.1657654 6
-169.41022 91.715118 -0.85448581 6
-169.30029 92.192444 -1.1412873 6
-169.44281 92.731583 -0.91336995 6
-169.56462 90.201584 -0.57037175 6
-169.43271 90.738823 -0.740623 6
-169.58096 91.139511 -0.62308675 6
-169.47931 91.680832 -0.73685336 6
-169.59464 92.089516 -0.6772598 6
-169.50951 92.680664 -0.79416937 6
-169.41087 107.50896 4.7470107 13.041
-169.51057 108.1936 4.6768384 12.029
-169.46962 107.49191 4.8618765 13.037
-169.52774 111.0475 4.9047389 13.0365
-169.34518 110.53171 5.7394366 13.707334
-169.56609 111.47681 5.7244148 14.046
-169.02612 93.230011 -2.2557573 6
-168.94633 111.80832 3.5363882 11.368
-168.92659 101.74364 4.2375846 11.023
-169.02728 102.60049 5.5842896 12.0225
-169.17528 103.02908 5.8743567 12.0215
-169.08221 110.66899 5.9393697 13.028
-169.04028 110.62477 6.0220695 14.034
-168.75093 93.348511 -2.3028257 6
-168.42169 105.01824 1.5929973 10.0435
-168.54594 108.24821 2.1681819 10.028999
-168.40076 108.25626 2.58601 11.039
-168.52696 114.4967 3.0338476 11.029
-168.54443 102.15366 3.4085159 9.1639996
-168.74246 102.15987 4.1012464 11.0235
-168.57233 101.94988 4.4123964 11.022
-168.17177 91.930206 -2.2621565 6
-168.05179 106.32784 1.5336782 10.047
-168.01295 93.107414 1.8781046 10.0585
-168.00607 93.629395 1.8120915 10.057
-168.16663 105.60831 1.8230289 10.056
-168.10628 106.10155 2.5424726 11.049
-168.04881 107.23431 2.5421815 11.039499
-168.26161 108.24823 2.529129 10.531
-168.0172 113.83344 2.4423213 11.039
-168.21855 114.08437 2.6285167 10.5275
-168.19485 104.25168 2.9639332 11.0345
-168.2851 113.51374 3.1182137 11.029
-167.60027 119.5673 -3.2021077 5
-167.65709 90.942856 0.74427629 9.0565004
-167.70126 109.11613 0.53297782 9.0439997
-167.72031 109.43453 0.54549313 9.04
-167.64737 109.64143 0.65479785 9.0334997
-167.82776 96.903702 1.2276112 9.0649996
-167.96864 105.95107 1.5518748 10.0425
-167.87302 106.26263 1.5364519 10.041
-167.99921 106.75007 1.5515962 10.0405
-167.62273 93.658974 1.7129961 10.053
-167.67105 105.26131 1.6099322 10.0505
-167.84708 105.70589 1.6148431 10.05
-167.78294 106.2556 1.6747897 10.0525
-167.87459 106.69038 2.512851 11.04
-167.87111 106.93838 2.4973392 11.041667
-167.79416 107.35394 2.4928136 11.041
-167.94972 107.76926 3.1260493 11.0305
-167.93098 113.53658 2.9192014 11.0295
-167.72169 107.56137 3.5258942 12.0365
-167.96964 107.93318 3.2032459 11.0295
-167.68633 108.05093 3.5362673 12.036
-167.91882 113.38387 3.7743959 12.032
-167.42999 116.87663 -3.1487756 5
-167.45563 92.414314 -2.4384751 6
-167.43845 91.435829 -2.3567233 6
-167.41713 92.708931 -2.3263457 6
-167.56702 109.41087 0.36793581 9.0424995
-167.4584 93.924782 0.77457887 9.0424995
-167.52832 119.84693 0.56491357 9.0349998
-167.31862 96.740112 1.0365582 8.165
-167.33714 110.09785 0.94814545 8.1595001
-167.58812 113.50874 1.1345417 9.0235004
-167.20401 99.44149 1.4946301 10.045
-167.42238 112.6386 1.2708836 10.039
-167.49251 113.73669 1.3797208 10.0525
-167.26837 118.83902 1.4580629 10.037
-167.33997 96.590645 1.6482524 9.0244999
-167.54857 104.0993 1.9648676 10.0635
-167.20163 110.22768 1.6599383 10.032
-167.53645 112.6219 1.620343 10.033501
-167.29364 118.83751 1.8372949 10.0265
-167.22395 115.95314 2.1286247 10.026
-167.40005 103.1942 2.6263156 10.02
-167.38416 105.93634 2.4295473 11.0425
-167.24324 106.07455 2.4421675 11.04
-167.4875 106.40303 2.4453115 11.042
-167.25719 114.12141 2.542485 10.527
-167.22913 114.42422 2.7227681 11.03
-167.40721 101.8373 3.0273919 10.0215
-167.32465 102.24382 2.9873719 10.0205
-167.34824 102.61591 2.9459937 10.02075
-167.30222 102.99635 3.015609 10.02
-167.24016 108.25417 3.1942947 12.0425
-167.39748 114.39226 3.1338885 10.0155
-167.59755 108.1535 3.2619445 10.017
-167.57051 108.51805 3.514679 12.0365
-167.51247 109.01875 3.5445859 12.035
-167.35974 109.39119 3.3703618 11.026
-167.47766 109.11293 3.6593127 12.034
-167.55199 113.53325 3.6719072 11.0235
-167.17853 91.451019 -2.421994 6
-167.05908 92.839371 -2.3855748 6
-166.96114 108.64615 0.51541716 9.0450001
-166.96785 109.68259 0.61259508 9.0425005
-166.80746 114.81283 0.77653641 9.1070004
-166.8327 118.44131 0.70661199 9.0279999
-166.94308 119.53136 0.44149539 9.0865002
-167.13547 90.928085 0.96699584 9.0614996
-167.12453 98.996681 1.0834385 9.0640001
-167.13928 99.285149 0.95747423 9.0625
-166.85709 108.03807 1.1618873 9.0255003
-167.00786 108.86435 1.1881169 9.0249996
-167.0665 112.25858 0.84271067 9.1000004
-167.15517 112.80801 0.86408001 9.1075001
-167.19119 114.01164 1.1303216 9.0240002
-166.86974 91.271202 1.2173048 9.033
-167.06094 103.55702 1.370312 8.1590004
-167.06126 104.49927 1.4632032 10.0395
-166.92212 108.00562 1.3359141 8.1555004
-167.06271 108.64111 1.3445314 9.0708342
-166.9787 108.95638 1.433834 9.241416
-166.96721 109.73625 1.4360753 9.5302505
-167.1129 110.66269 1.4850246 10.0565
-166.84953 113.56353 1.3019834 10.045
-167.10614 114.25473 1.5416564 9.0185003
-167.04453 115.72517 1.2708991 10.0505
-166.97691 116.19153 1.2506635 10.05
-166.97128 118.3494 1.4310783 10.038
-166.92894 95.503189 1.6418452 10.045
-166.8587 103.69507 1.7463062 9.0190001
-167.03603 108.82945 1.6837066 9.0179996
-167.18871 114.08005 1.7879859 9.0159998
-167.16748 119.0067 1.7812248 10.0295
-166.851 119.76988 1.9555594 10.025
-167.17372 91.203415 2.161237 8.0024996
-167.19096 91.854431 2.2516422 8.0085001
-166.89363 109.84297 2.2666738 11.0445
-166.88527 110.59061 2.1781659 10.026
-167.17006 115.46777 2.218837 11.036
-166.83655 118.74694 2.3421481 11.037
-166.91983 119.53465 2.3410528 10.023251
-167.15347 94.853569 2.5388286 10.028
-167.19638 96.198837 2.5697501 11.0495
-167.03014 114.73318 2.4228601 10.0225
-167.00252 114.89417 2.7207563 11.0295
-166.96469 101.84256 2.8066859 10.022
-167.1312 102.30574 2.9308615 10.527
-167.14987 103.14697 3.0625422 10.0195
-167.10641 104.39003 2.8392828 11.034
-167.12732 114.66331 2.8455966 11.029
-167.05659 106.84246 3.3239145 12.0415
-166.93839 114.28431 3.2156124 12.043
-167.00148 102.79623 3.8618155 12.0335
-166.98221 113.02905 3.8614774 12.0295
-166.89017 107.2206 4.047596 12.0305
-166.5957 114.74899 -0.20151007 7.5132499
-166.73856 96.416451 0.35980171 8.0270004
-166.40054 114.02437 0.36620468 9.0524998
-166.5224 95.883324 0.55002946 8.0255003
-166.47958 96.079453 0.47898713 8.0244999
-166.47034 102.13721 0.41738978 8.0214996
-166.7215 108.69912 0.56033146 9.0585003
-166.51437 111.42571 0.56022471 9.0365
-166.49741 113.94124 0.7090953 9.0874996
-166.47043 114.44286 0.65606022 9.0839996
-166.45345 114.85223 0.60800552 9.0557499
-166.55502 118.24493 0.48676014 9.0380001
-166.60991 118.67793 0.58036911 9.0328331
-166.47008 111.14304 1.1866133 10.0405
-166.61661 91.399292 1.5309104 8.1628332
-166.68176 96.765465 1.554496 10.049
-166.55223 96.849503 1.599584 10.0425
-166.41638 98.35965 1.4791185 10.0485
-166.44588 104.67808 1.3075866 10.0465
-166.76189 107.82376 1.5127903 10.04375
-166.535 108.69919 1.3263434 9.0225
-166.77596 109.80225 1.375652 9.0170002
-166.49731 110.41677 1.440789 10.057
-166.47186 112.5852 1.384354 9.7060003
-166.73439 119.71053 1.4701909 10.08
-166.67485 94.99588 1.6380146 10.0425
-166.49548 98.41214 1.6740257 9.0235004
-166.72318 103.32648 1.7823255 10.0595
-166.58539 105.20953 1.7564703 9.0179996
-166.5331 108.50439 1.6837701 10.0325
-166.58521 114.64605 1.6243867 10.0295
-166.79706 115.19769 1.8470551 10.0865
-166.5146 118.95413 1.8141432 10.050834
-166.49484 119.65553 1.6608107 10.0295
-166.55954 90.973854 2.0093889 8.1709995
-166.41055 102.68554 2.3395131 11.0425
-166.65508 105.55156 2.3623219 11.0405
-166.67526 105.85033 2.3722637 11.038
-166.46103 110.99163 2.166409 10.0255
-166.58716 112.47274 2.2580669 11.047168
-166.6655 118.61742 2.3091364 10.52775
-166.42561 90.094963 2.4672592 8.0139999
-166.6552 91.869919 2.7155113 10.068
-166.40193 93.168175 2.5748892 11.055
-166.55936 93.357704 2.6165345 11.05475
-166.43558 93.99247 2.5350082 11.0435
-166.55223 94.204155 2.5551517 11.047501
-166.53165 98.17485 2.4357879 11.0505
-166.45795 99.13382 2.5346117 11.04
-166.6749 99.536911 2.702723 11.0575
-166.72774 102.18898 2.6849341 10.0225
-166.50252 105.08057 2.4185851 11.051
-166.51649 105.39938 2.4962907 11.048333
-166.53963 105.80995 2.534481 11.04675
-166.7775 106.35339 2.4821632 11.0365
-166.57539 96.281273 3.1627173 11.031
-166.41658 108.26123 3.053273 11.0285
-166.6217 115.57899 3.0782139 11.0915
-166.66429 115.61424 3.0988317 11.0925
-166.51584 116.80805 2.8642743 11.0855
-166.57971 119.09851 2.8497522 10.019
-166.67058 119.92705 3.1918664 12.0665
-166.75826 90.604202 3.3962629 9.1619997
-166.67699 95.001511 3.5028176 12.052
-166.43587 95.375053 3.2627413 11.029
-166.67461 99.708344 3.3254428 12.047
-166.42126 102.13908 3.2166877 9.1639996
-166.53412 106.46674 3.2897556 12.0495
-166.75934 108.33955 3.5148447 12.0345
-166.42377 116.1059 3.3065386 11.103
-166.62477 90.460922 3.6904852 9.0089998
-166.72049 91.136192 3.7781129 9.0917492
-166.60243 91.311943 3.7999055 10.1015
-166.60518 92.859909 3.901525 11.0675
-166.58652 101.07555 4.1365829 11.02075
-166.57463 108.20388 4.3451905 12.531
-166.68391 108.46757 4.2466741 13.0385
-166.48573 108.10078 4.603116 11.0165
-166.5307 113.33613 4.5788608 13.0315
-166.46175 113.31013 5.0568161 11.016
-166.5154 113.70029 4.9589696 14.0425
-166.43547 114.27694 4.9464855 14.0505
-166.05019 112.9865 -3.0885799 5
-166.39024 115.50386 -3.0226867 5
-166.21706 117.06738 -2.8472562 6
-166.06276 114.63346 -2.4248922 6
-166.24287 114.59734 -2.3095498 6
-166.28453 91.031792 -0.013458509 8.0705004
-166.06569 101.68102 0.34818563 8
-166.3391 114.79058 0.34316149 9
-166.06189 115.01922 0.31969526 9.0515003
-166.17865 96.8358 0.75754511 9.0609999
-166.18777 101.44114 0.42739701 8.0200005
-166.18312 101.84905 0.57371598 8.71
-166.03558 102.13231 0.6043449 8.526
-166.16074 111.28259 0.56624913 9.033
-166.00226 113.36986 0.44944331 9.0439997
-166.14841 113.96899 0.6667127 9.0845003
-166.38594 114.06107 0.43354639 9.0384998
-166.20105 114.69524 0.66135538 9.0697498
-166.35204 99.195572 0.91925216 9.0629997
-166.31186 101.89232 0.83177078 9.0314999
-166.09506 105.22208 1.1200267 9.026
-166.38501 111.64175 0.81904125 9.092
-166.30745 112.52885 0.84678489 8.1584997
-166.06938 118.74953 0.98829389 9.0235004
-166.09619 90.658173 1.4253587 9.0309992
-166.13165 95.587502 1.3707267 9.0275002
-166.23749 102.20148 1.4648881 10.053
-166.12636 113.03442 1.5442541 9.0939999
-166.06433 113.69153 1.4990131 10.034
-166.3539 114.23878 1.3458542 10.043
-166.28395 114.59937 1.5035863 9.5235004
-166.34312 114.84856 1.2323865 10
-166.36949 119.0007 1.5434239 10.084
-166.3815 95.707214 1.610607 10.057
-166.20988 112.55921 1.647375 10.0295
-166.23361 119.06303 1.9058352 10.0245
-166.21466 119.34136 1.645949 10.096
-166.26849 92.674118 2.2789302 10.0655
-166.39189 105.46839 2.3000672 11.043
-166.33502 108.14427 2.3794651 11.0355
-166.23511 110.3538 2.2381821 11.0475
-166.39781 111.58726 2.1929402 11.0425
-166.39836 112.95731 2.2335622 11.0445
-166.12271 114.60835 2.1108074 11
-166.02182 119.14104 2.0784588 9.0109997
-166.23854 93.352859 2.5843298 11.057
-166.35204 93.772736 2.5481839 11.05175
-166.17694 94.12426 2.5433385 10.707833
-166.14929 96.179321 2.507467 11.0555
-166.39012 96.878754 2.4989483 11.0435
-166.05229 97.976837 2.4233961 11.055
-166.26054 100.02116 2.5256429 11.039
-166.33281 106.71294 2.4361954 11.036
-166.04478 111.02859 2.4152112 11.0335
-166.18179 115.49624 2.5113225 11.0705
-166.04332 116.44852 2.4474955 10.021
-166.30716 99.259674 3.0886679 11.063
-166.0417 102.95901 2.9149706 10.019
-166.10007 104.38732 3.1952279 12.0395
-166.21815 105.80289 2.8199539 11.063
-166.10696 106.15953 3.047327 10.0175
-166.2274 108.13901 2.8056884 10.0175
-166.11111 114.1993 3.0653749 12.0395
-166.23174 115.58913 3.1976676 11.0985
-166.19847 119.3859 2.8492522 11.096
-166.3801 90.047974 3.5815446 9.1789999
-166.03244 90.746056 3.2756798 11.032
-166.2206 90.858284 3.4450948 9.1637497
-166.15782 91.408356 3.4061162 9.1615
-166.27841 94.921989 3.5205336 10.610001
-166.08186 95.462952 3.4201684 11.704166
-166.15828 99.013336 3.2635815 12.047251
-166.16241 99.331787 3.2543991 12.0505
-166.03935 99.611786 3.2329073 12.046
-166.18436 105.48273 3.21943 12.04
-166.27097 105.92386 3.2222474 12.0405
-166.1696 91.178139 3.7029028 11.028
-166.36549 92.880989 3.9325659 11.0695
-166.00992 95.160858 3.9210677 9.0100002
-166.16112 95.390732 3.7724988 9.0072498
-166.1329 96.281883 3.9526792 9.0094995
-166.16296 96.48912 3.899159 9.0105
-166.09996 104.84383 3.6221106 12
-166.00513 112.54941 3.9462278 13.045
-166.08197 113.03986 3.8497128 12.536751
-166.06271 113.44748 3.9433243 12.028
-166.10458 92.842285 4.0436525 12.0615
-166.23315 95.319473 4.2658148 12.029
-166.29358 108.15392 4.1818361 12.028168
-166.29356 95.537079 4.4166026 10.0105
-166.12389 108.76082 4.4755297 13.033
-166.0209 108.86908 4.6392155 13.032
-166.21071 112.91251 4.7192225 13.03
-166.34555 113.78769 4.5775824 13.031
-166.04471 108.51154 4.858932 14.046
-166.17957 113.30359 4.8799868 14.04175
-166.17102 113.82383 4.8819299 13.704
-166.20531 114.21767 4.8740835 14.039499
-166.32956 114.4879 4.9642577 13.028
-166.07341 95.037231 5.2077708 10.0915
-166.05739 95.615555 5.2227907 10
-165.6628 110.67435 -3.0118201 5
-165.67422 115.26856 -3.0587275 5
-165.84045 115.43205 -2.7530568 6
-165.94775 116.04229 -2.7498341 6
-165.72952 116.97653 -2.6393745 6
-165.90826 118.01601 -2.7289014 6
-165.60764 108.04096 -2.2191184 6
-165.91077 109.20793 -2.356035 6
-165.61804 114.34089 -0.61397457 8.0994997
-165.92853 114.87515 -0.55637455 8
-165.64145 97.02388 -0.3189908 8.0489998
-165.90266 114.52681 -0.38572532 8.0310001
-165.63962 97.891449 0.3625212 8.0220003
-165.97635 101.77002 0.34437478 8
-165.73178 114.67883 0.30858293 9
-165.80219 95.538017 0.45143524 8.0240002
-165.6707 102.57306 0.56605178 9.0550003
-165.9263 110.82316 0.51920456 9.0369997
-165.72725 113.07688 0.71229982 9.09375
-165.82932 113.77245 0.7347939 9.1008329
-165.83969 114.65201 0.67156398 9.0865002
-165.98808 115.11697 0.59491944 9.0305004
-165.95132 90.459175 0.92649299 9.0625
-165.86093 91.675079 0.85636669 9.0625
-165.60422 96.447113 1.0837413 8.1645002
-165.91678 114.68893 1.1970148 10
-165.86394 91.027924 1.5298668 9.0295
-165.91527 91.516197 1.52274 8.1619997
-165.63475 95.065285 1.5123352 9.0249996
-165.80389 95.46907 1.4796008 9.5352497
-165.72693 96.098717 1.5815452 9.0249996
-165.65887 101.39136 1.3121384 9.1025
-165.87302 102.30421 1.3498436 8.1595001
-165.64893 105.11427 1.3237044 10.05
-165.76443 109.772 1.3277704 9.0165005
-165.66212 112.95619 1.2787273 10.0445
-165.87447 113.33672 1.30761 9.0205002
-165.73854 113.79057 1.4616957 9.0179996
-165.87679 114.68384 1.3854681 10.0145
-165.80264 116.13315 1.595795 10.08
-165.66695 116.55582 1.5755782 10.03
-165.81113 95.27829 1.6110941 10.0395
-165.77356 110.64868 1.9972616 11.041
-165.61983 111.06432 1.9785393 11.0405
-165.61348 113.3548 1.7030219 9.0155001
-165.85783 116.24493 1.9786853 10.105
-165.67366 116.44917 1.9780493 11.05
-165.94539 90.516335 2.0256569 8.1785002
-165.84929 90.957191 2.120693 8.0054998
-165.85612 94.922638 2.1925387 10.02925
-165.6413 109.00134 2.0107501 10.0265
-165.81569 110.87983 2.1281176 10.727666
-165.73872 111.36048 2.1178133 10.313875
-165.80882 116.36227 2.170552 11.0405
-165.7616 118.87788 2.257638 11.033751
-165.71378 119.25096 2.2418344 10.02275
-165.79614 91.955696 2.4584665 11.048
-165.92622 93.875923 2.4842408 11.0545
-165.93141 94.653427 2.596837 10.0255
-165.72705 94.980286 2.5185146 10.026
-165.81641 95.288612 2.6394944 10
-165.8999 98.595261 2.4563868 11.0405
-165.86536 99.019768 2.5272658 11.038
-165.95493 104.49767 2.6425767 11.058
-165.87022 104.95588 2.6052628 11.019166
-165.62047 108.3067 2.6631005 10.0165
-165.69147 108.64133 2.7867839 10.017
-165.79825 110.48998 2.5597942 10.021
-165.65068 112.58105 2.5743988 11.03
-165.798 114.11208 2.716033 11.028
-165.75842 114.86897 2.6442883 11.0285
-165.81699 115.98383 2.6489449 11.028
-165.73796 116.21254 2.6796403 11.08
-165.68417 94.499107 3.056459 11.030251
-165.88388 95.05426 3.0186651 11.0305
-165.70119 100.71494 3.1370599 12.051
-165.92484 102.29945 2.7999825 11.06
-165.72685 102.78633 2.9182227 10.019
-165.88919 103.51453 3.0783222 12.0465
-165.94772 104.56204 3.1566577 12.04225
-165.68196 105.03313 3.1049647 12.04225
-165.83047 105.28861 3.1946151 12.04475
-165.61852 108.2904 3.0769842 11.710167
-165.73741 109.88072 3.0689921 12.0505
-165.97353 115.3731 3.0866649 11.56825
-165.84641 90.251091 3.5700951 9.0042496
-165.72029 93.890457 3.3247488 12.048
-165.67618 94.259224 3.4025989 11.795876
-165.79875 94.583427 3.3954735 12.050751
-165.77257 94.853325 3.3810506 11.709167
-165.70938 95.406029 3.5060952 11.0265
-165.67308 95.611687 3.3865459 12.0405
-165.85083 96.17894 3.2237873 9.0094995
-165.95215 99.429749 3.3078403 12.0435
-165.64629 100.62884 3.5374081 12.046499
-165.7169 100.84222 3.4361904 12.0375
-165.62575 104.68263 3.5531676 12.058
-165.92192 104.83167 3.5955529 12
-165.60797 105.21563 3.5054011 12.0575
-165.79921 105.97588 3.3214853 9.1564999
-165.94839 109.4969 3.3244667 12.034
-165.91655 109.98253 3.3417654 12.0335
-165.72685 93.042511 3.8474483 11.0685
-165.67758 94.470367 3.6142075 12.0585
-165.80322 94.850922 3.6504097 10.016251
-165.87906 95.437477 3.7212396 11
-165.65366 95.739197 3.6849687 11.0245
-165.91823 96.783653 3.9356859 9.0100002
-165.93594 100.48186 3.7976165 11.0225
-165.77094 104.39893 3.9395089 13.0455
-165.72778 105.33148 3.8171012 12.5385
-165.87465 108.33198 3.9769173 13.051
-165.81586 113.11604 3.8122697 13.0455
-165.62772 113.40137 3.8644683 13.044
-165.7343 114.09683 3.7621224 12.028
-165.82924 93.02626 4.3274369 13.049
-165.79817 95.477386 4.2626286 13.0435
-165.81694 95.850746 4.2490458 12.704833
-165.68045 96.241867 4.2541819 12.841501
-165.64151 105.15422 4.0116687 13
-165.60039 105.23748 4.0045862 13
-165.85027 108.50592 4.0773587 11.522751
-165.7506 91.140015 4.524724 10.0125
-165.76439 95.466644 4.6680136 12.009167
-165.66333 95.906326 4.4029474 13.056
-165.92744 103.47414 4.6600413 13.0335
-165.71857 104.11683 4.6048236 13.0585
-165.91138 104.90486 4.5714159 13
-165.78104 90.968742 5.0382237 10.1334
-165.84644 102.60968 4.9439769 14.04575
-165.70047 103.47462 4.9428043 14.0405
-165.80801 104.55997 5.1617169 14.054501
-165.70604 105.1118 4.9370675 14.0205
-165.78522 105.26409 4.8972011 14.02225
-165.61508 107.51023 4.8859644 14.052
-165.87733 107.88499 4.9225917 14.0515
-165.81618 108.08968 5.0153365 14.0525
-165.98918 108.50029 4.9204526 14.0485
-165.86923 112.99067 4.81002 14.0445
-165.95644 95.260834 5.2179003 10.0035
-165.71062 102.63302 5.3112345 12.0195
-165.65208 102.84964 5.4619737 12.019
-165.61903 104.32314 5.3197546 14.0565
-165.78052 107.85207 5.2353606 13.0275
-165.51231 111.78751 -3.0582898 5
-165.31342 115.25587 -3.1210413 5
-165.35597 119.07693 -3.0264971 5
-165.27438 119.39223 -3.0300791 6
-165.28976 110.30645 -2.462981 6
-165.31316 115.28392 -2.7842479 6
-165.26422 115.89498 -2.5696437 6
-165.42458 102.83717 -2.1605079 6
-165.43604 103.38876 -2.1777613 6
-165.32343 107.8426 -2.2152312 6
-165.41098 108.3829 -2.2733612 6
-165.41945 108.70225 -2.152493 6
-165.24321 110.26907 -2.3251264 6
-165.44991 112.41266 -2.3094418 6
-165.25581 113.91534 -2.3688207 6
-165.33 114.31347 -2.2853575 6
-165.52826 95.508987 -1.6784754 6
-165.44354 95.744217 -1.8799659 6
-165.22433 110.17426 -1.4084424 7
-165.55978 90.023163 -0.67283928 6
-165.5358 108.46006 -0.58197254 8.0434999
-165.442 114.03999 -0.60550344 8.0970001
-165.44492 90.795525 -0.1589717 8.0714998
-165.48334 97.174156 -0.22562231 8
-165.45374 97.259209 -0.22632067 8
-165.46046 103.27132 -0.15280859 8.0190001
-165.20114 91.371384 0.38663259 8.0299997
-165.55101 92.00679 0.39699915 8.0295
-165.49011 98.501595 0.35197368 8.0214996
-165.41605 103.23566 0.38897225 8.0185003
-165.43109 91.327744 0.49127585 8.0144997
-165.47623 92.015694 0.51572245 8.0284996
-165.20959 92.912811 0.79202586 9.0609999
-165.4476 95.026558 0.58050936 8.1669998
-165.31424 96.326607 0.63541245 9.0559998
-165.47482 96.639412 0.47374418 8.0240002
-165.23248 96.98909 0.49936545 8.0240002
-165.20923 97.292389 0.58918607 8.6866655
-165.26497 97.894547 0.42671326 8.0225
-165.30872 98.097366 0.50865972 9.0489998
-165.4034 98.566338 0.59670848 8.7094164
-165.3885 103.22861 0.51152509 8.0194998
-165.46481 103.65428 0.71731764 9.059
-165.50642 108.96204 0.5037815 9.0194998
-165.28955 109.5785 0.41819972 9.0509996
-165.33629 113.36493 0.75510597 9.1079998
-165.42438 113.81396 0.64164984 9.085
-165.52403 90.452805 1.1287225 9.0334997
-165.52048 91.129288 1.0214646 9.0375004
-165.5657 91.421761 1.1332337 9.0325003
-165.39326 92.628883 0.93373305 9.0375004
-165.38522 95.166374 0.88209349 8.1665001
-165.29147 96.03688 0.84320074 8.1654997
-165.27608 97.861687 1.0249676 8.1630001
-165.31148 110.09382 1.0222198 9.1000004
-165.23335 113.92013 1.1583036 10.053
-165.30321 115.21358 1.1193094 10.0515
-165.32642 90.081459 1.4111564 9.5407505
-165.38266 91.033775 1.3523433 9.0403748
-165.47621 95.112854 1.5385928 9.6955004
-165.36044 95.332359 1.5076001 9.7065001
-165.44672 95.8088 1.3711481 9.0265007
-165.41528 96.585442 1.4612219 9.5367498
-165.41483 97.140923 1.5502607 10.02
-165.32986 97.389694 1.4928873 9.5122499
-165.27477 97.91375 1.3979439 10.048
-165.38075 101.38263 1.5715916 9.0066671
-165.22052 101.81876 1.4040755 9.5317497
-165.43507 103.0859 1.2598485 10.04775
-165.33232 105.19391 1.5559596 10.0585
-165.42082 105.31319 1.4873838 10.05425
-165.42773 108.72183 1.2486564 10.0445
-165.45863 108.98786 1.3801296 9.4789991
-165.45036 109.43885 1.2556458 9.5332499
-165.37195 109.82518 1.4271334 9.0961657
-165.29784 110.13921 1.3524809 9.7643747
-165.31602 110.60069 1.3441954 9.8322001
-165.47054 111.02455 1.4629232 10.033
-165.49736 113.36376 1.3593606 10.035
-165.2784 113.78875 1.2392081 10.0435
-165.59782 116.56931 1.5953674 10.029
-165.26918 90.121132 1.9273964 8
-165.48476 92.617691 1.8530848 10.062
-165.5177 102.08048 1.7759454 10.031
-165.35272 108.94322 1.9169718 10.0275
-165.54834 110.76202 1.6671741 10.03
-165.44525 119.26134 1.8441402 10.02425
-165.49765 90.260963 2.3793736 8.0135002
-165.47345 97.729576 2.3298674 11.054251
-165.20186 99.285492 2.2497678 11.054
-165.37422 102.22441 2.3898771 11.0555
-165.22629 108.57765 2.2534311 11.02375
-165.41119 109.41007 2.3519709 11.01725
-165.36684 109.85819 2.3162513 11.0335
-165.304 110.26299 2.2990556 11
-165.26091 110.69964 2.0463727 11.0435
-165.37584 110.85548 2.3541367 11.0325
-165.56226 119.18956 2.0178678 10.0235
-165.34503 119.27122 2.1631086 11.036
-165.38156 90.09861 2.5118663 8.0135002
-165.45094 92.965286 2.4841523 11.0545
-165.52475 94.723999 2.6065698 10.025249
-165.50638 96.384987 2.6418152 10.023
-165.51419 98.835793 2.653311 10.0225
-165.28946 102.18945 2.7979991 10.0195
-165.33592 103.10399 2.6439693 11.042167
-165.50388 103.71769 2.7052846 11.032
-165.53886 107.16706 2.6159105 10.017
-165.35954 110.91613 2.4850929 11.031
-165.25467 112.91177 2.7503834 11.028
-165.59845 114.36509 2.6609421 11.0285
-165.53391 114.55795 2.7128155 11.0275
-165.37062 116.5503 2.5736754 10.52475
-165.31389 116.95309 2.766968 12.0495
-165.52351 118.59831 2.6170588 11.029
-165.4514 119.29396 2.615648 11.0895
-165.55664 92.557823 2.8703656 11.036
-165.56865 93.915024 2.9450698 11.0315
-165.50018 98.657021 3.1159525 11.5555
-165.27431 102.1488 2.8566482 10
-165.52536 103.98312 3.0126662 12.046
-165.41127 105.00801 3.0790319 11.356334
-165.57368 105.22612 3.1043515 12
-165.36205 105.79809 3.154952 12.037251
-165.48138 106.14928 3.1273978 12.043751
-165.47118 107.03356 2.9204328 11.0285
-165.48564 108.48177 3.1866133 12.036
-165.33437 108.89027 3.1375422 12.036625
-165.5463 109.58687 3.1960697 11.025
-165.28059 110.03492 2.9090772 12
-165.49831 110.87469 2.9939318 12.047
-165.45912 112.55952 2.9662943 12.045
-165.4099 113.10728 3.0350509 11.0265
-165.5493 115.19491 3.0389948 12.037
-165.23149 115.995 2.9163427 11.093
-165.36858 116.18295 2.9631467 11.0255
-165.35095 116.52676 2.8648617 10.0155
-165.31635 118.26795 3.0999203 11.024
-165.41637 118.43193 2.9430549 11.0245
-165.22948 90.137794 3.4972429 10.01425
-165.36536 93.764519 3.4309542 12.056499
-165.52538 94.156357 3.3835802 12.05325
-165.51736 94.70137 3.3309536 11.028
-165.38457 95.03434 3.5166147 9.0879993
-165.29599 95.559677 3.5670691 9.0030003
-165.47742 100.51933 3.3555233 9.1630001
-165.27466 101.05328 3.4235747 10.5985
-165.371 101.22049 3.4351594 12.0365
-165.56134 104.18845 3.5862036 12.0585
-165.55533 105.58794 3.227222 12.037
-165.25865 105.75161 3.2764618 9.1560001
-165.341 108.93824 3.3459153 12
-165.34572 109.81857 3.3262253 11.063
-165.23399 111.59867 3.2311482 10.016
-165.37433 113.04898 3.4489429 10.087749
-165.36829 113.22244 3.4387043 11.0225
-165.5144 115.03703 3.5921302 11.0215
-165.45206 118.25188 3.2871504 11.0235
-165.43321 90.105682 3.7945378 11.025
-165.58473 93.032494 3.7829332 11.068
-165.5896 94.226395 3.6201963 11.0265
-165.48158 100.51766 3.9397163 11.0215
-165.48578 100.88471 3.8541 11.02125
-165.27585 102.24612 3.9519558 13.043
-165.31073 104.91154 3.9582717 13.040501
-165.39583 105.26109 3.9944019 13.0395
-165.45628 105.90134 3.7493687 12.031
-165.59856 106.41527 3.7566624 12.0315
-165.36107 109.89424 3.7907486 13.0445
-165.2755 110.04507 3.7727685 13
-165.39464 113.15158 3.7189925 9.1695004
-165.31853 113.24998 3.6425812 12.0285
-165.46518 113.82018 3.8311548 13.0435
-165.42337 115.13339 3.7990575 12.027
-165.5726 115.27254 3.6091447 12.0285
-165.24843 116.6126 3.6730604 12.08
-165.50418 95.493637 4.3191581 13.05475
-165.58163 95.817009 4.217217 13.0515
-165.57542 96.146324 4.1897264 13.047
-165.30545 96.874474 4.1383314 13.0435
-165.31848 104.60402 4.1946211 13.05525
-165.59969 105.59759 4.0140028 12.028
-165.35622 108.23698 4.1059799 12.03475
-165.37488 108.95 4.178391 13.023334
-165.38971 109.40752 4.2624459 12.350166
-165.51569 113.75384 4.0173049 11.019
-165.5896 95.631035 4.4901423 13.0575
-165.24612 101.09702 4.4607024 13.0345
-165.27965 102.17825 4.7948318 14.0495
-165.21283 104.02104 4.7192874 14.046
-165.50818 104.75436 4.4996262 13.058
-165.45506 104.85128 4.7636404 14.045
-165.41803 103.11857 4.8795772 14.042
-165.30428 103.24134 5.1621108 14.0555
-165.33855 103.8046 4.8523827 14.04125
-165.41675 107.07298 4.9289179 13.789499
-165.47984 107.70871 5.0397005 13.0285
-165.31833 102.9836 5.4124026 13.2328
-165.3264 103.39804 5.4629402 12.0185
-165.29051 103.82475 5.5513344 14.059
-165.5244 107.31319 5.4857001 12.017
-165.30859 103.16074 5.6110778 14.0325
-165.40329 103.8946 5.805635 15.04
-165.32173 104.2186 5.7125392 14.0315
-165.06796 109.00742 -2.9631488 5
-164.98393 109.51906 -2.950711 5
-165.04776 114.23129 -2.9273591 5.3333335
-165.16129 114.85923 -3.1131358 5
-165.07906 119.54655 -2.9444232 6
-165.16052 115.16869 -2.4108951 6
-164.94951 119.27864 -2.7789962 6
-164.90102 119.93179 -2.771044 6
-165.15613 91.551247 -2.1750283 6
-165.16548 97.536919 -2.0650086 6
-164.84753 101.47155 -2.1574359 6
-164.90573 101.74088 -2.0944543 6
-164.93213 102.20645 -2.0968363 6
-164.84454 102.59456 -2.0773141 6
-165.10069 108.30283 -2.3074772 6
-164.91367 108.68818 -2.2700303 6
-164.8183 90.645691 -1.493369 6
-164.92426 90.212807 -0.88200158 6
-164.95293 90.135765 -0.77064687 6
-165.08253 90.953407 -0.52720708 7
-165.19171 110.27499 -0.44211683 8.0190001
-164.93706 90.294983 0.38140413 8.0310001
-165.12451 96.84304 0.3530589 8.0225
-164.88847 101.86896 0.37782198 8.0095005
-165.17955 109.97813 0.29720759 9
-165.16592 110.06138 0.29576412 9
-165.10751 91.426079 0.45015559 8.0279999
-164.84819 92.013199 0.6947875 9.0609999
-165.03618 95.574615 0.42422768 8
-165.01387 95.690666 0.65348941 8.1106672
-165.15807 97.122093 0.65153289 9
-165.15248 97.871162 0.68688726 9.0365
-164.83498 102.18311 0.46384147 9.0535002
-165.17833 110.28561 0.53437525 9
-165.19978 110.40171 0.53701955 9
-165.08372 113.14997 0.71013457 9.1005001
-165.07295 91.319824 0.98369074 9.0340004
-164.87813 91.906548 0.81473756 9.0620003
-165.07553 97.095497 1.1021649 8.1634998
-165.05606 97.688263 0.81870151 8.1654997
-165.17157 101.43891 1.1609106 8.1604996
-165.14867 109.97528 1.0743906 10
-165.14548 110.05309 1.1540021 10
-164.99571 110.55333 1.0574818 10.041
-164.88097 91.053871 1.4266206 9
-165.18604 92.151024 1.5320704 10.0565
-164.94724 92.557762 1.4967312 10.0485
-164.91566 93.159248 1.4785385 10.0445
-164.97083 93.406487 1.3797164 9.0279999
-164.9124 93.721657 1.3373096 9
-164.93184 94.22551 1.4539853 10.051499
-165.14124 95.196335 1.5122275 9.0240002
-165.1004 95.960823 1.4869634 9.0240002
-165.01233 96.382668 1.5161926 9.0229998
-165.04802 97.314323 1.5217022 9.5192499
-164.87419 97.61438 1.225463 8.1625004
-164.87192 99.910149 1.2854518 10.049
-164.96902 100.28006 1.3009222 10.047874
-165.05241 100.50525 1.597064 10.035
-165.15105 101.51925 1.3181281 8.8477497
-164.99585 101.76072 1.488308 9.5258751
-165.07964 105.07745 1.2895244 10.0385
-165.12126 109.37655 1.2923887 9
-165.0963 109.76136 1.3213931 10.038
-165.0975 110.22345 1.3846673 9.6719999
-165.15891 110.47265 1.3459272 10.036
-165.09384 111.14371 1.3855795 10.033
-165.10921 111.40278 1.5215952 10.03
-164.83879 114.97776 1.368964 9.52425
-164.96742 115.37588 1.5630865 9.0147495
-165.04584 116.03875 1.5450395 10.0805
-164.96877 90.082008 1.9048724 8
-164.94501 91.347244 1.7501059 10.0615
-164.93756 92.383018 1.8240402 10.0625
-164.89232 92.606651 1.6684788 10.0605
-165.0507 93.829399 1.6193007 8.0120001
-165.10016 100.14577 1.8406845 10.063
-165.18166 109.99651 1.9255495 11
-164.87675 115.33119 1.6454586 10.0265
-164.84372 116.18676 1.8783282 11.0505
-164.84933 118.52018 1.8848773 9.0120001
-164.86804 92.932716 2.3111525 10.780001
-164.91623 93.513351 2.343442 11.044
-164.85336 93.735092 2.3666687 11.04825
-164.8105 96.464035 2.2535214 11.051
-164.80325 96.903091 2.2371202 11.0505
-164.98109 98.169174 2.2394071 11.051499
-164.82278 99.983002 2.1624928 11.0495
-165.02199 100.25575 2.2325892 10.874667
-165.09149 100.49474 2.1997025 10.706334
-164.98022 108.79819 2.3683748 11
-164.97585 108.922 2.3175118 11.008875
-164.90475 109.2593 2.3590367 11
-165.17079 110.2393 2.1962299 11
-165.02412 111.01009 2.2624314 11.03425
-165.10318 93.533997 2.7987063 11.0615
-164.99242 95.148247 2.5850492 10.024
-165.04327 95.456566 2.5668781 10.01225
-165.07262 95.828804 2.6124008 10.0235
-165.03242 97.275169 2.4244955 11.0385
-164.9679 98.144753 2.6458066 10.023
-165.12675 100.40104 2.4601066 10.021
-164.99039 104.01096 2.6606553 11.0315
-165.13518 109.84064 2.4324307 11.0315
-165.13542 110.35488 2.4506454 11
-164.97923 111.05347 2.5764167 10.523001
-165.07866 111.40314 2.4966314 11.03
-165.02444 112.92245 2.5445063 11.028999
-164.8502 117.65589 2.6583481 11.089
-164.94228 92.513649 2.8387659 11.0615
-165.01233 95.463684 3.0574822 11.034
-164.96033 97.757889 3.1076882 12.0495
-164.90485 98.579109 3.1486971 11.065
-165.18414 103.71222 3.034183 12.0425
-165.03027 105.8924 3.0627434 12.0505
-165.04987 106.16483 3.1060145 11.532249
-165.19121 106.52385 2.9649265 12.0485
-164.88536 108.62188 3.199734 10.0155
-164.81874 109.08134 3.028939 11.026
-165.16008 109.46661 2.8941803 12.045
-164.9864 109.91991 2.9802334 11.535
-165.04108 110.16434 2.9933167 11.6123
-165.10736 110.83291 2.9001002 12.042
-165.08319 115.32196 2.9264181 11.091499
-165.17262 115.6422 3.0872359 11.099
-165.01315 116.58648 2.9145343 12.039
-164.91399 117.02746 2.8868103 10.0165
-164.94417 117.2333 2.9905529 11.0245
-165.02274 118.64443 2.9602695 11.024167
-164.96353 119.17216 2.9859579 12.036
-164.97672 90.28965 3.3464959 9.099699
-164.97244 90.742813 3.3499651 9.1665001
-165.07927 90.907066 3.3790772 9.163167
-164.91389 93.532921 3.2803955 12.051167
-164.86105 93.755928 3.3044469 11
-165.07387 95.106812 3.3256185 11.032001
-164.95383 95.458336 3.3225842 11.6377
-164.86977 95.748955 3.3384273 10.092501
-164.83525 97.265373 3.3570337 11.0255
-164.9465 101.1187 3.2848291 12.0375
-165.09059 101.59909 3.4074583 12.036
-165.04189 101.62756 3.4362137 12.035
-164.98744 102.06538 3.4312155 12.035
-164.991 106.1198 3.3278739 9.7781668
-165.07085 108.66233 3.2656946 12
-165.14534 109.14552 3.3268666 12
-165.07977 109.31205 3.3527036 12
-165.04936 110.26537 3.3569186 11.759501
-164.96317 113.3324 3.5305111 12.029
-165.12004 113.85567 3.4546053 11.52575
-165.10524 116.30877 3.3732643 11.0235
-164.99431 118.566 3.2470322 9.0004997
-164.91264 119.91276 3.2597685 12.0775
-164.84984 90.261429 3.8467093 12.0335
-165.12354 90.706146 3.8150101 9.0127506
-165.08073 90.814102 3.7863886 9.0129995
-164.81488 91.297691 3.841768 9.0129995
-165.05853 98.590385 3.9095578 12.55525
-165.02177 98.840996 3.9539561 13.0495
-165.16522 100.79864 3.9978805 11.02
-164.94023 101.07543 3.9066036 11.694333
-164.9325 101.42468 3.8679967 13.047832
-165.01923 101.86196 3.8808491 13.04675
-165.026 102.11258 3.880667 13.042
-165.1678 104.62112 3.8750248 13.044
-165.04431 104.98112 3.8074107 12.0295
-165.07712 107.84358 3.9595735 13.053
-164.948 109.46947 3.943347 13.037
-165.1609 109.79339 3.7688985 13.0495
-165.08827 110.10619 3.7681484 13.024
-164.98732 90.137123 4.1035295 12.032
-165.0782 90.669556 4.0686722 11.020167
-164.89932 91.299461 4.0756178 10.514
-165.05278 92.276314 4.2083349 13.05
-165.00381 97.028297 4.152832 12.534
-164.97261 98.639381 4.051806 13.0535
-165.03128 101.13952 4.2553163 13.037001
-165.13647 101.5489 4.0399466 11.0195
-164.82489 101.79798 4.0034804 11.019
-164.92175 107.39828 4.3194237 12.025
-164.8297 107.69936 4.1085901 13.0345
-165.19165 108.72625 4.2298751 13
-165.16876 108.85684 4.2335048 13
-164.91013 109.39935 4.2488747 11
-165.06456 109.66697 4.1987414 13.01675
-165.13437 110.31161 4.197238 13.022334
-165.08745 110.4112 4.2873139 13
-164.8707 102.96045 4.5765553 13.06
-165.03036 103.41636 4.5541735 13.0595
-165.0959 103.61221 4.7005076 14.0465
-164.82104 104.20744 4.5973043 13.549749
-164.85396 104.55891 4.6921339 13.789249
-164.89342 109.08974 4.6346002 14.048
-164.90697 109.28785 4.6221919 12.0225
-164.88237 90.055061 4.903893 10.0935
-164.8511 90.608612 4.913394 10.002
-164.93942 91.017311 4.9372988 10.093
-165.11906 91.750969 4.9813313 10.0015
-165.11815 102.89356 5.1617055 14.056499
-164.96429 103.51055 5.0742178 14.0565
-164.88655 104.26683 5.0719519 14.05575
-165.17006 106.73808 4.8377743 14.053
-165.16725 107.39883 4.9726725 13.532249
-165.093 110.4221 5.1365123 14
-165.13037 103.1059 5.3686314 14.0345
-164.99464 103.56676 5.4220376 13.026
-164.97162 103.62728 5.2550006 14.0575
-165.07863 104.31866 5.5284581 15.0485
-164.99423 104.42033 5.4436426 14.04575
-165.05618 110.12585 5.551887 15.04675
-164.7756 116.54107 -3.3303783 5
-164.57034 118.87846 -3.2002382 6
-164.79416 119.44603 -3.2028987 6
-164.41179 106.22288 -3.0234079 5
-164.42839 106.93751 -2.9197958 5
-164.46765 107.54184 -3.0492244 5
-164.49074 108.35886 -3.0427454 5
-164.69365 109.08025 -2.9303486 5
-164.59923 109.74804 -3.0658419 5
-164.57457 110.25326 -2.9908624 5
-164.61052 111.32736 -3.1645758 5
-164.78909 91.391884 -2.2656734 6
-164.51714 97.324318 -2.2396576 6
-164.71266 101.79955 -2.1640797 6
-164.54318 102.71493 -2.155874 6
-164.66542 102.94115 -2.1496282 6
-164.74202 103.2188 -2.0934651 6
-164.79984 95.966866 0.34913924 8.0229998
-164.759 90.123528 0.492944 8.0299997
-164.64664 90.690964 0.50538629 8.3719997
-164.61568 90.868149 0.43779969 8
-164.72577 91.883919 0.79172522 9.0629997
-164.4391 93.674973 0.57328838 8.1674995
-164.62466 95.477722 0.59355587 8.3492498
-164.65454 95.837898 0.46542224 8.2659998
-164.59586 96.070946 0.40043116 8.0229998
-164.57211 102.30331 0.78154945 9.0629997
-164.7807 101.81204 1.1786071 8.1584997
-164.50847 104.28179 1.1159697 8.1575003
-164.43741 119.49905 0.9717595 10.0445
-164.70305 91.244011 1.4885365 8.1615
-164.76292 92.378448 1.4725122 10.0465
-164.6902 92.751198 1.4743775 10.05
-164.69939 92.942917 1.4691941 10.0145
-164.61673 93.339668 1.4136016 9.75
-164.45866 93.983604 1.4016005 10.055
-164.56493 94.415848 1.4454253 10.043
-164.56107 95.395409 1.4778732 9
-164.698 95.973625 1.4642671 9
-164.71133 96.707199 1.3768057 10.0495
-164.75687 97.301689 1.48765 9
-164.45865 97.954277 1.3251519 10.0545
-164.60158 98.556107 1.3274477 10.055
-164.66635 99.141663 1.2689101 10.0455
-164.4016 99.304443 1.2889948 10.0465
-164.40196 103.92965 1.2076309 10.0435
-164.74432 105.09206 1.4291773 10.053
-164.71838 105.41055 1.2796141 10.039333
-164.65834 115.52724 1.4791608 10.0295
-164.62448 115.75385 1.4410713 9.5408335
-164.59851 119.84335 1.3905162 10.089499
-164.60771 92.158958 1.7411311 10.061501
-164.57977 92.754311 1.7697668 10.0615
-164.56857 99.435951 1.8522462 10.063499
-164.7298 100.11272 1.7425735 10.047501
-164.51942 105.35124 1.6396524 10.032
-164.40053 114.17251 1.9642999 11.043
-164.78676 115.47594 1.7148957 9.8221245
-164.70226 115.79617 1.8746816 11.051
-164.77437 119.52457 1.8216569 11.0445
-164.68878 90.3097 2.1975644 10.0315
-164.60498 92.774231 2.3415086 11.0495
