# .PCD v0.7 - Point Cloud Data file format
VERSION 0.7
FIELDS x y z intensity
SIZE 4 4 4 4
TYPE F F F F
COUNT 1 1 1 1
WIDTH 109
HEIGHT 1
VIEWPOINT 0 0 0 1 0 0 0
POINTS 109
DATA ascii
-174.80455 180.15596 -3.3877678 7
-174.07387 203.36989 -0.11890507 8.0144997
-173.86787 204.09706 -3.120059 7
-173.72403 199.1123 2.2680871 9.0129995
-172.93498 197.69901 -0.22380792 8.0150003
-172.8627 197.95331 1.047683 9.0205002
-173.09146 198.44968 0.84085411 9.0235004
-172.92805 197.74576 2.3387845 9.0150003
-172.92337 197.76715 4.9117985 10.015
-172.97607 197.73514 5.2413316 10.011
-172.49496 197.91721 -1.4209759 8.0629997
-172.60152 198.02881 -0.6359871 8.0109997
-172.57372 197.94502 2.1350946 9.0112495
-172.55717 198.08115 2.0501812 9.0109997
-172.57497 198.63516 2.0300293 9.0109997
-172.4796 197.93326 4.6987767 10.011
-172.39706 198.57339 2.0381882 9.0109997
-172.29942 200.67799 5.0416412 10.011
-171.63509 200.73895 -3.0204754 7
-171.93428 198.14426 1.9226797 9.0109997
-171.32719 201.38358 -3.3708236 7
-171.53062 201.06668 -0.26986372 8.0130005
-171.23169 197.04768 2.2667921 9.0144997
-171.44424 198.82547 4.7165489 10.0105
-171.33319 200.23766 4.9177232 10.012
-171.3206 200.47626 5.0731578 10.014
-171.12587 201.31062 -3.4114308 7
-170.97261 200.7345 -3.0558155 7
-170.87219 201.13098 -0.37657905 8.0105
-170.91849 197.45355 1.9686352 9.0105
-171.02841 197.55875 2.1681106 9.0109997
-170.40279 200.71353 -3.4826708 7
-170.41032 199.83281 4.7445292 10.01
-170.11275 197.09579 2.2752988 9.0100002
-170.1678 197.72322 2.2770224 9.0139999
-170.09535 198.79692 4.8037853 10.0105
-169.94135 197.56158 2.2597234 9.0100002
-169.69362 198.85745 4.6662169 10.01
-169.63918 199.81369 4.9615269 10.0135
-169.69714 200.36029 5.3370504 10.0095
-169.44862 200.51308 -3.3742542 7
-169.28537 200.76447 -1.3222455 8.0690002
-169.21373 201.53525 -1.432819 8.0684996
-169.47954 200.66537 -0.66222185 8.0094995
-169.54573 197.18481 1.9271692 9.0100002
-169.48178 197.34738 1.9230285 9.0100002
-169.49161 196.4624 2.0528767 9.0120001
-169.57629 198.15369 2.1483059 9.0100002
-169.02675 201.87895 -1.4203669 8.0679998
-168.86412 202.92952 -1.4702199 8.0670004
-169.14856 200.91078 -0.73410648 8.0094995
-168.82637 204.17065 -0.72035736 8.0089998
-169.06067 197.36682 1.8939922 9.0100002
-169.15524 196.37299 2.0603273 9.0105
-168.80264 200.3058 5.0701537 10.009
-168.45985 200.07095 -1.5319548 8.0699997
-168.73331 197.45168 2.2487969 9.0094995
-168.16376 197.49254 1.8917122 9.0094995
-168.39041 197.78735 1.917363 9.0094995
-168.38016 197.00558 2.0550096 9.0115004
-167.89995 197.67949 1.8684821 9.0094995
-167.90483 197.54999 2.0863426 9.0094995
-167.23331 202.32207 -1.7954078 8.0664997
-167.39267 197.71725 1.790104 9.0094995
-167.27744 198.56323 1.9165808 9.0089998
-167.17087 198.54593 1.9060726 9.0089998
-166.95804 199.03181 1.940838 9.00875
-166.78258 201.717 -4.0377536 7
-166.62753 199.37949 1.8572878 9.0089998
-166.12335 195.47198 -0.73738599 8.0089998
-165.97604 195.49686 -3.9070969 7
-165.98772 201.16101 1.2088569 9.0664997
-165.96045 200.1264 1.9149935 9.0085001
-165.66885 200.6485 1.9276381 9.0085001
-165.84265 200.24158 2.1429205 9.0085001
-165.4147 202.54367 -4.1476202 7
-165.45657 201.53389 1.2291774 9.0629997
-165.48576 200.56845 1.8496453 9.0085001
-165.56786 201.58911 2.3173928 9.0080004
-165.00011 202.90897 -1.6601083 8.0649996
-164.82608 202.79022 1.3072537 9.0649996
-164.78423 202.55505 1.2431548 9.0620003
-163.85764 203.41838 1.1310685 9.0600004
-163.80809 203.8208 1.1307197 9.0605001
-163.62125 203.75679 1.2303665 9.0609999
-162.85963 204.52805 -1.8116171 8.0644999
-162.25186 191.25627 1.7942902 9.0077496
-161.60016 191.24547 -1.3604741 8.0705004
-161.86539 191.25105 0.93357527 9.0644999
-161.77728 191.32445 1.5930316 9.0074997
-161.80888 191.38817 1.7182534 9.0080004
-161.31075 191.45999 -0.73212922 8.0074997
-161.45177 191.35587 1.2432867 9.0690002
-161.24429 191.44785 1.8260924 9.0074997
-161.01605 192.14394 -1.6245021 8.0705004
-161.09927 191.47806 -1.3513132 8.0704994
-161.03749 191.43794 0.78203076 9.0640001
-160.99179 191.54738 1.7717524 9.0072498
-161.16388 191.43303 2.0142624 9.007
-160.77556 191.5508 -0.89248806 8.007
-160.53407 191.67268 1.572275 9.007
-160.5842 191.66582 1.7044593 9.0074997
-153.29797 208.84373 -1.5680511 8.0555
-151.89349 207.72205 -1.6196591 8.0539999
-151.54358 208.07227 -1.6258875 8.0555
-151.34329 209.38899 -1.835344 8.0600004
-150.76239 209.30008 -2.6806579 8.0690002
-150.151 186.31038 -3.4512115 7
-150.36024 209.23355 -1.5809275 8.0524998
