# .PCD v0.7 - Point Cloud Data file format
VERSION 0.7
FIELDS x y z intensity
SIZE 4 4 4 4
TYPE F F F F
COUNT 1 1 1 1
WIDTH 1250
HEIGHT 1
VIEWPOINT 0 0 0 1 0 0 0
POINTS 1250
DATA ascii
-88.9179 138.64186 0.44979149 15.096
-88.934868 139.38699 0.49245861 11.67825
-89.061737 139.82491 0.55618215 13.245562
-89.045296 140.17072 0.58738488 10.087584
-88.994705 140.46313 0.57139367 9.1569996
-89.00589 129.59062 1.005304 14.218959
-88.949074 139.87325 0.87519622 12.5895
-89.031738 140.1937 0.84164238 12.5
-88.963356 129.57719 1.3605235 15.03825
-89.10894 129.62993 1.5281484 15.155
-88.820175 133.93681 1.4573512 10.1755
-88.977318 137.07179 1.3776357 12.175875
-88.905083 137.29572 1.3759811 11.976199
-89.175606 137.97287 1.3418279 10.1785
-89.059723 139.90947 1.58991 11.5895
-89.035538 140.19606 1.440156 12.051214
-88.97068 133.4474 1.9451258 11.673625
-88.915741 133.67885 1.904446 12.17275
-89.137604 138.33829 1.9899056 13.177
-89.142609 139.73289 1.7218251 14.1785
-89.083855 140.1346 1.9130226 11.271399
-88.914024 140.4185 1.8638399 10
-88.866585 132.70343 2.3797925 12.1725
-88.88694 133.02701 2.2275777 11.5735
-88.866211 133.31734 2.1454673 13.66975
-89.04586 136.31976 2.1998825 15.1725
-89.021744 138.33894 2.0595057 14.1765
-88.909828 138.7231 2.0581009 14.177125
-89.164825 139.17763 2.0140722 15.1775
-88.975334 139.68826 2.0430148 14.6785
-89.027115 140.30707 2.3098292 12.393333
-89.051498 140.4543 2.1245615 11.796625
-88.880241 132.73546 2.614701 12.672
-89.065063 133.0865 2.5530534 12.92175
-89.009201 133.66353 2.4029825 11.1755
-88.970337 134.34283 2.7291787 15.17
-88.870323 140.34694 2.4272647 15.1795
-88.852295 129.59033 2.8144913 13.167
-89.112617 129.60703 3.0087712 15.1625
-88.815018 132.71271 3.1714139 13.172
-89.047531 133.04118 2.9658034 13.671499
-89.058731 133.52415 3.0865495 15.1695
-88.978531 133.79562 3.0763931 12.507833
-88.844513 134.15436 3.0338297 12.1755
-89.188911 135.72224 3.1836593 13.1755
-88.976173 138.57732 3.0280271 13.844666
-89.008675 140.55258 3.0294938 12.3615
-89.038925 129.62943 3.4427981 15.164
-89.108582 133.1044 3.3231733 12.175
-89.184792 138.36713 3.2920454 14.1775
-89.109695 138.77602 3.2993457 14.178
-89.027779 140.33334 3.3673935 12
-89.015488 140.62212 3.3852384 12.086499
-88.851311 140.33148 3.6059725 14
-88.815598 129.7478 4.3737888 11.0105
-88.984955 133.89156 4.3707204 13.1755
-88.942345 129.71417 4.6868806 13.449166
-88.836594 133.80392 4.4741259 11.137
-89.022629 134.18404 4.6449218 14.67375
-89.044289 129.9221 4.9860773 11.0115
-88.954712 137.7755 5.2438965 11.114
-88.970238 129.63589 5.7340379 15.1695
-89.171661 134.50191 5.8327918 15.175
-89.086166 134.96735 5.7799764 14.676001
-88.835358 137.49876 5.7935953 11.0475
-89.001457 134.55972 6.1630177 15.1755
-89.001762 135.10724 6.1351027 15.176
-89.113228 136.46912 6.4791903 13.0095
-88.88681 129.80653 7.5227308 13.011
-89.062508 130.11897 7.4733195 15.032
-89.033257 129.53816 7.7472858 13.105
-89.103104 129.83025 7.9483876 14.0155
-88.89035 129.8194 8.0356894 13.0105
-88.820549 129.57762 8.6636934 13.1045
-89.114189 129.92493 8.690855 13.011
-88.816254 130.01299 8.5614166 15.0245
-89.178207 129.89714 9.1034174 15.0185
-89.0093 129.77942 9.4970217 14.802875
-89.06813 129.56506 9.704958 14.105
-88.920357 129.86905 11.509299 15.107
-89.133759 129.58904 11.750942 15.105
-89.087105 129.94127 12.530088 15.1045
-89.031929 129.62158 13.115421 15.1045
-88.9515 130.08849 13.163147 15.012
-88.541725 143.69089 -4.8355889 6
-88.450691 144.84952 -4.8400216 6
-88.528862 145.50096 -5.0591145 6.6666665
-88.747307 133.35464 -4.7573891 6
-88.523125 133.92705 -4.7065711 7
-88.769119 136.85983 -4.4988246 6
-88.76889 137.451 -4.4106655 4
-88.717949 138.98003 -4.6369681 6
-88.760727 139.34875 -4.4849839 6
-88.508682 142.30116 -4.5579386 6
-88.564873 143.92708 -4.4526644 2.3333333
-88.562737 144.22464 -4.4233384 2
-88.626068 144.58209 -4.4126968 2.6666667
-88.603264 144.96919 -4.4174862 3.2
-88.597496 145.86171 -4.4136629 4.5
-88.431221 146.10931 -4.4115911 5
-88.623055 146.75793 -4.4563742 5
-88.424896 147.02452 -4.4116292 5
-88.782158 147.21649 -4.4153862 0
-88.399879 147.94473 -4.4115949 5
-88.665619 129.51891 -4.0558615 6
-88.533684 129.71541 -4.0955849 5.1428571
-88.645569 130.1217 -4.1161261 4
-88.597176 130.59502 -4.1427722 4.5
-88.709305 130.98531 -4.1474142 3.5
-88.600258 131.4146 -4.1675348 3.5
-88.506577 131.86874 -4.2017517 4.6666665
-88.540024 132.21658 -4.2219882 4.5
-88.67231 132.60416 -4.2518029 3
-88.61776 132.9897 -4.3208899 4.25
-88.53788 133.35402 -4.2894216 3.5
-88.645378 133.84203 -4.1475301 4.352941
-88.620193 134.18303 -4.1408544 5.4444447
-88.619095 134.50412 -4.2594376 2.5999999
-88.787582 135.40201 -4.3220425 3
-88.557472 135.90506 -4.3361287 3.5
-88.572243 136.22821 -4.3307452 5
-88.678062 136.62331 -4.3377666 2.25
-88.56678 136.94878 -4.3546305 2.5
-88.653618 137.41631 -4.3719177 2
-88.655334 137.79544 -4.3353105 3
-88.47348 138.13762 -4.3416972 3
-88.510727 138.50208 -4.3374906 3
-88.664215 138.8838 -4.325089 3.5
-88.698967 139.35016 -4.3175616 3.6666667
-88.56382 139.73265 -4.3265042 3
-88.663963 140.07875 -4.3173418 3.5
-88.660324 140.47795 -4.3183489 3.5
-88.724022 140.92969 -4.3253217 1
-88.630753 141.37115 -4.3469906 3
-88.642105 141.72813 -4.3564906 3
-88.636169 142.08372 -4.3651185 3
-88.617821 142.43948 -4.373703 3
-88.574982 142.93027 -4.3860517 3
-88.462822 143.42741 -4.3963342 2
-88.731926 143.72693 -4.3711514 5
-88.639977 144.37466 -4.382566 2
-88.636513 144.75923 -4.3994637 3
-88.437263 145.33839 -4.3870196 5
-88.686501 145.9619 -4.3710589 3.5
-88.447227 146.30656 -4.3877025 3
-88.690865 146.59207 -4.3770733 3
-88.584953 147.08139 -4.3866644 1.3333334
-88.619621 147.42781 -4.37395 1.8333334
-88.653374 147.77762 -4.34657 1.8571428
-88.610367 148.22183 -4.3498688 3.75
-88.584381 148.56627 -4.328691 2.3333333
-88.655525 149.01619 -4.3000584 3
-88.564026 149.5403 -4.3009267 3.5
-88.504745 149.81248 -4.2816687 4
-88.624069 129.51175 -3.7895379 5.0999999
-88.582001 129.67842 -3.8531482 6
-88.668854 133.81342 -3.8307695 5.3125
-88.603294 134.18208 -3.6779778 5.8000002
-88.558968 134.69759 -3.6470006 7
-88.587692 129.51277 -3.4870648 5.5384617
-88.719826 130.11531 -3.5546417 7
-88.484604 133.50131 -3.2946253 5
-88.563927 133.75822 -3.2685306 7
-88.63327 134.29723 -3.3984118 5.5333333
-88.586983 134.48079 -3.4485719 6.4000001
-88.589134 135.18733 -3.2504966 4
-88.59388 135.4174 -3.3123806 3.5
-88.618195 135.76511 -3.3506105 3.3166668
-88.799751 149.12578 -3.5420895 6
-88.50164 149.41798 -3.2938871 6.6666665
-88.600555 129.50581 -2.992698 6.304348
-88.407356 129.74738 -3.0969832 7
-88.582497 133.38449 -3.1538737 5
-88.683647 133.80153 -3.094429 5.4000001
-88.67662 134.14061 -3.1577466 5.75
-88.6381 135.88773 -3.1842582 4
-88.493706 149.42812 -3.130959 7
-88.483681 125.14948 -2.6593227 7
-88.626717 125.40513 -2.7633893 7
-88.59391 126.68655 -2.7383251 7
-88.581505 129.43839 -2.6016107 7
-88.436035 146.23346 -2.6287546 8.0775003
-88.535019 146.51558 -2.6299312 8.0769997
-88.568985 123.54881 -2.1033907 8.1269999
-88.585205 129.41551 -2.2069156 8.0110884
-88.504372 129.68768 -2.2422175 8.0349998
-88.448196 130.0199 -2.0972576 8
-88.610306 129.44858 -1.7696912 8.9125004
-88.701675 129.63336 -1.7114384 8.3949995
-88.547783 129.4135 -1.3771778 9.6583576
-88.636902 129.66972 -1.4792613 9
-88.466629 137.96867 -1.2517382 10.093
-88.508987 138.03191 -1.3374348 15.162
-88.601517 129.40723 -1.0049752 10.846989
-88.498856 129.63393 -0.84572375 10
-88.436501 137.93442 -1.1392664 11.629625
-88.422272 138.1918 -1.149262 11.167875
-88.453026 138.58102 -0.91102809 9.541501
-88.514 129.48302 -0.63367975 11.3895
-88.660103 129.67223 -0.66320074 10
-88.435471 130.13014 -0.7682851 9
-88.432442 137.86801 -0.41825092 9.1529999
-88.419769 138.26707 -0.74116957 12.905876
-88.507599 138.54678 -0.74117053 12.138286
-88.619804 129.55627 -0.21566963 11.896736
-88.549355 129.65456 -0.11035299 10.640715
-88.758026 138.11526 -0.062984206 11.176
-88.454742 139.15324 -0.035912581 10.1785
-88.570282 139.86966 -0.16172509 11.4025
-88.582825 140.08549 -0.10061788 10.073
-88.65358 140.73552 -0.087646089 10.0325
-88.631226 129.56499 0.19167386 12.330418
-88.575043 129.63603 0.22847418 12.196312
-88.718155 137.80415 0.34893534 9.6777496
-88.618477 138.31958 0.17126676 13.456
-88.775505 139.3568 0.16830599 11.678249
-88.631638 139.87782 0.17335817 12.139786
-88.571411 140.18654 0.23189235 11.7168
-88.547089 140.46982 0.17953402 9.5004997
-88.644302 129.58488 0.5702914 14.3885
-88.586754 129.63014 0.66555095 12.29095
-88.475067 130.13826 0.57137454 10
-88.632355 137.79578 0.5518114 11.118
-88.781258 139.46938 0.57563245 14.1775
-88.734306 139.96455 0.46557146 10
-88.532738 140.1664 0.51184851 11.88985
-88.448647 140.44937 0.64484704 11.363584
-88.455215 140.80841 0.58872932 13.0885
-88.697739 129.58006 1.0329496 14.267599
-88.552223 129.62776 0.90847707 13.916142
-88.417694 136.16917 1.1126091 13.1725
-88.706787 137.50192 1.1140039 10.1785
-88.717941 139.358 0.82350546 14.1775
-88.714096 139.88283 1.1291277 11.393001
-88.478043 140.27808 0.97255284 13.1195
-88.418198 140.53105 0.93590903 10
-88.742455 129.58125 1.4639258 15
-88.429298 129.62627 1.3675654 15
-88.578079 133.82616 1.5964731 10.1755
-88.408691 136.00113 1.2761629 15.17
-88.765648 137.14128 1.2258432 14.1735
-88.401588 140.12589 1.4018719 15.179
-88.598297 133.91249 1.6775599 10.09725
-88.466972 136.82217 1.9856585 14.174
-88.773865 137.23433 1.611706 11.178
-88.484962 138.48763 1.9267193 11.1795
-88.785103 139.87212 1.8435351 10.666667
-88.63871 140.34891 1.8296453 14.1795
-88.742149 132.74796 2.2424281 15.166
-88.705544 132.9989 2.1641922 13.8355
-88.723274 133.39729 2.2523372 13.170876
-88.498245 136.93456 2.0666196 12.1765
-88.695251 138.29703 2.1729476 15.176
-88.758865 138.54692 2.0544534 12.678249
-88.69899 139.06097 2.0584357 13.178
-88.647003 132.67421 2.7401614 14.169
-88.794678 132.89035 2.5876298 10.137
-88.582764 133.35886 2.4729993 14.1695
-88.565117 139.31708 2.7440817 10.141
-88.702599 140.44626 2.5855935 12.5005
-88.420387 129.64598 3.1597183 15.163
-88.661636 132.61304 3.0078397 13.1715
-88.657669 132.84911 2.9676936 15.168
-88.735413 134.14188 3.1081095 15.1705
-88.541458 136.61504 2.9672062 15.174
-88.683609 137.6523 2.873796 15.1755
-88.440422 138.76646 2.9406157 11.179
-88.621147 139.18982 2.940089 12
-88.462944 129.6581 3.5024877 14.66525
-88.745766 139.32867 3.5906758 12
-88.755318 129.69446 3.9859338 13.088249
-88.617752 139.86897 3.6881008 12.096
-88.421333 138.45103 5.1080012 14.079
-88.638596 129.78804 5.5626612 12.578038
-88.774361 129.98779 5.6502771 13.0245
-88.791107 135.62689 6.1663523 15.1765
-88.670525 135.36186 6.7653909 14.0175
-88.700287 138.08981 6.4640474 15.179
-88.76194 129.81042 7.537416 13.107
-88.568169 129.82513 8.1914835 13.405666
-88.746429 129.87234 9.4769526 14.18925
-88.412003 129.59784 9.8180084 14.105
-88.479782 129.61784 11.90642 15.105
-88.431152 129.59723 12.212091 15.105
-88.70755 129.93214 12.197338 15.05775
-88.494545 130.04037 12.838188 15.0115
-88.18631 133.30928 -4.7247128 6
-88.320015 133.8446 -4.5912867 6
-88.066048 134.37364 -4.4066267 5
-88.023849 134.82677 -4.4086876 5
-88.04055 142.64099 -4.6022792 3.5
-88.065018 143.47862 -4.4212756 3.2
-88.091026 143.97316 -4.4482355 2
-88.219917 144.15416 -4.4311004 3.75
-88.235603 145.03941 -4.4300642 4
-88.299332 145.38243 -4.4206538 3
-88.207855 145.76924 -4.4138165 4
-88.176971 146.2146 -4.4374347 4.5
-88.139847 147.00731 -4.4064817 2.25
-88.216621 147.32121 -4.5547233 6
-88.152725 149.81024 -4.6267948 7
-88.247467 129.50969 -4.0369768 5.5
-88.183868 129.78915 -4.0893531 5
-88.24086 130.22313 -4.1308761 4.5
-88.376312 130.78589 -4.1776204 5
-88.298233 130.91614 -4.1418028 4
-88.226822 131.38121 -4.1703806 3.6666667
-88.234879 131.76883 -4.1860547 4.3333335
-88.106781 132.07658 -4.2049313 3.5
-88.216972 132.65477 -4.2644358 4.1428571
-88.213287 132.97246 -4.305275 2
-88.280907 133.37704 -4.3361526 2.5
-88.324188 133.77922 -4.3258033 0.66666669
-88.13813 134.23688 -4.3279533 1.25
-88.166115 134.45041 -4.3137717 3
-88.135696 135.47853 -4.2740531 3
-88.111755 135.81947 -4.2530632 5.1999998
-88.084686 136.19002 -4.2419729 4.4000001
-88.209602 136.72203 -4.355875 1.5
-88.338509 137.02809 -4.35572 2
-88.188843 137.34178 -4.3668675 1
-88.137871 137.97002 -4.3375831 1
-88.055702 138.3174 -4.3380399 1
-88.004417 138.70497 -4.3337598 1
-88.002464 139.49644 -4.3291893 2
-88.04567 139.80061 -4.3417826 1.5
-88.063339 140.14082 -4.3394656 1.5
-88.08744 140.58597 -4.3391056 1.6666666
-88.144897 141.13664 -4.3571982 1.5
-88.108704 141.49796 -4.3675084 1
-88.145477 141.92714 -4.3764563 1.5
-88.091042 142.28729 -4.3845963 1.3333334
-88.078262 142.5963 -4.3852067 2.25
-88.166992 143.04134 -4.3927164 3
-88.08947 143.25508 -4.3981533 5
-88.354958 143.65552 -4.3860765 3
-88.085808 144.50008 -4.3954611 3
-88.331024 145.19795 -4.3973346 4
-88.170715 145.37935 -4.3875523 4
-88.126205 145.83139 -4.3893695 2.3333333
-88.384163 146.20393 -4.3345575 4
-88.230347 146.64951 -4.0027833 6
-88.148811 146.98773 -4.3701138 2.4000001
-88.226913 147.25053 -4.3965726 3
-88.196709 147.83974 -4.3490496 1.7777778
-88.215302 148.14349 -4.3284059 3.2
-88.169884 148.68314 -4.3411555 3.5
-88.286964 148.95641 -4.3140421 2.75
-88.068695 149.4986 -4.2545495 4
-88.099197 149.67456 -4.2331767 5.25
-88.178368 129.54971 -3.7670522 4.9333334
-88.282494 129.65768 -3.818886 6.8000002
-88.184959 130.17525 -3.6720867 7
-88.374245 133.34416 -3.6883743 7
-88.143997 133.63889 -3.6933975 7
-88.213905 135.76724 -3.8240342 5
-88.144379 136.08015 -3.751636 5
-88.048424 146.2876 -3.6189172 3.3333333
-88.013863 146.57733 -3.8420591 4.5
-88.001785 146.81847 -3.8509011 3
-88.103745 149.44736 -3.7599623 5.3000002
-88.148849 149.79836 -3.7302825 5.125
-88.229362 129.54945 -3.346668 5.7777777
-88.336525 133.83046 -3.4515569 5.8333335
-88.388008 134.15007 -3.3131824 4.75
-88.323494 135.19434 -3.2077417 4
-88.296623 135.47017 -3.2438877 4.5999999
-88.148712 135.8532 -3.3131254 4.3684211
-88.145523 136.13319 -3.4609001 4.1999998
-88.076958 146.26872 -3.4454145 4.1666665
-88.142952 146.63979 -3.2710881 5.4000001
-88.238487 149.19261 -3.2512522 7
-88.17688 149.45047 -3.3627739 6.4000001
-88.209999 149.76706 -3.2646959 6.8000002
-88.213188 129.54761 -3.044827 6.1875
-88.23954 129.65407 -3.053962 6.4000001
-88.049706 135.17848 -3.1714251 4.5
-88.260986 135.28821 -3.1736097 4.5
-88.246307 135.67203 -3.16869 4
-88.053375 145.88069 -3.0085366 6
-88.098442 146.18521 -3.0550413 5.5625
-88.140312 146.59145 -3.0312512 6
-88.078468 146.90848 -3.1969008 7
-88.186844 149.44984 -3.1238711 6.75
-88.286804 149.73692 -3.1185813 6.5
-88.30069 125.16385 -2.7200618 7
-88.357666 125.42067 -2.7730234 7
-88.219833 129.50395 -2.6102629 7
-88.100754 129.60454 -2.6405904 7
-88.134064 146.33101 -2.7065172 7.27
-88.048836 146.48717 -2.7403622 7
-88.118835 123.22628 -2.0412769 8.1339998
-88.206848 129.5239 -2.2444916 8.009881
-88.357475 129.63918 -2.3151281 8.0445004
-88.180191 129.49313 -1.7812935 8.7322931
-88.19149 129.4687 -1.3917755 9.5027838
-88.337715 129.81964 -1.2622203 8.0214996
-88.26004 137.92953 -1.2936436 11.460999
-88.181984 138.11749 -1.3431706 10.538767
-88.080826 138.5722 -1.2491255 10.4985
-88.047859 139.1653 -1.288026 9.0295
-88.177406 129.46838 -1.0158116 10.290541
-88.261406 129.65126 -1.0771912 8.0151253
-88.112923 137.55513 -1.1361886 9.0745001
-88.117592 137.83774 -1.0524567 11.631916
-88.164452 138.134 -0.95358855 10.942572
-88.184685 138.61191 -0.98455799 11.320967
-88.177917 129.50729 -0.61691487 11.059512
-88.214195 130.08337 -0.77733254 9
-88.031326 136.93434 -0.45317364 14.103
-88.149094 137.9287 -0.72359139 11.6575
-88.23172 138.20016 -0.62567425 12.583233
-88.288467 138.60599 -0.64582729 11.900511
-88.108192 138.87152 -0.69868433 8.1400003
-88.127098 140.04958 -0.41561806 12.092
-88.200874 129.54271 -0.27134615 11.615579
-88.185638 129.62267 -0.17934632 11.079357
-88.117035 136.31519 -0.33972165 12.946556
-88.054153 136.58897 -0.24391213 9.1780005
-88.049492 136.89307 -0.24606404 12.17175
-88.216156 137.55429 -0.11277307 9.1785002
-88.233902 137.78409 -0.26222667 12.507084
-88.133942 138.1871 -0.29871908 13.149501
-88.136986 138.57367 -0.27038831 11.9609
-88.069199 138.88968 -0.15113366 12.1765
-88.167374 139.41391 -0.072244965 11.573818
-88.07415 139.77971 -0.16155306 11.507063
-88.166351 140.25853 -0.10664115 13.5125
-88.047539 140.54613 -0.087708443 10.795875
-88.177391 129.58646 0.20399196 12.916324
-88.175812 129.64076 0.23125772 11.844139
-88.023193 135.09206 0.14842629 15.1625
-88.017799 135.26144 0.17610623 10.1745
-88.108551 135.83743 0.15231949 9.8424997
-88.069489 136.1432 0.22843918 9.9759998
-88.137245 136.56677 0.23537154 11.522272
-88.100815 137.45924 0.15468827 10.177
-88.170189 137.85657 0.21188745 11.980923
-88.321175 138.01945 0.086724147 10.1775
-88.068275 138.83273 0.023688262 14.17525
-88.223946 139.35564 0.10661513 13.177292
-88.183525 140.35973 0.29097751 13.632
-88.210739 140.5779 0.29473829 11.044407
-88.211899 129.59366 0.56219095 14.666667
-88.219582 129.62726 0.57395673 12.687858
-88.027344 136.3055 0.49697971 10.84175
-88.050728 136.72954 0.58629566 9.658
-88.084816 139.4335 0.58564639 10.0875
-88.279274 139.90849 0.62042803 12.081
-88.275558 140.25612 0.61584604 14.816833
-88.240128 140.60109 0.61313993 11.782406
-88.123108 140.82597 0.57117212 12.696834
-88.051643 129.59503 0.99511236 13.108999
-88.216675 129.64935 0.95903659 13.8
-88.077477 136.69641 0.99186832 12.1057
-88.069847 136.93883 1.1310508 12.175
-88.048172 139.24986 1.1216838 11.179
-88.050011 139.69505 0.94840187 14.092
-88.197205 140.54539 1.0525435 12.363251
-88.115715 129.58194 1.4610282 14.1105
-88.173462 129.64456 1.4059014 15
-88.136467 136.77211 1.2767347 15.17175
-88.123444 136.88802 1.5932862 12
-88.076714 140.31233 1.5153526 13.1795
-88.132393 140.48206 1.2574705 11.0005
-88.062073 136.79584 1.754534 14
-88.219559 137.03951 1.9242985 11.59075
-88.331993 137.2393 1.6453065 10.178
-88.072617 140.25764 1.9588908 10.179
-88.261398 137.08513 2.2828388 14.174749
-88.239044 138.95572 2.2197664 14.1775
-88.075424 139.29501 2.2489319 14.178
-88.20314 140.31335 2.2028487 14.1795
-88.057869 129.63551 2.5616026 15.161
-88.147743 132.94975 2.6446648 13.171166
-88.293747 129.65811 2.8685758 14.6635
-88.075577 138.8759 3.3191867 14.67775
-88.285149 129.65649 3.7490742 15.165
-88.04834 135.70901 3.6592467 14.1745
-88.209595 129.66212 4.0889673 14.168
-88.300941 133.61136 4.7595253 14.174
-88.129715 139.3606 4.5939708 14.1795
-88.212685 129.66679 5.0709019 15.168
-88.113312 133.77686 5.0021572 14.1745
-88.090714 139.30614 5.1287203 14.137751
-88.036476 133.84528 5.2625561 14.175
-88.225296 134.0804 5.5366683 14.674749
-88.194016 139.06265 5.5102758 14.393001
-88.003868 134.25578 5.6234393 13.014
-88.266945 129.79523 6.0463219 13.017
-88.103157 137.20837 6.0696726 15.06
-88.223938 129.72754 6.5152335 13.01475
-88.397194 134.0979 6.702723 15.1755
-88.104774 129.45476 7.0686684 15.063
-88.381805 138.46481 6.8943419 14.097
-88.167694 129.49918 7.2066383 15.0815
-88.099571 129.76184 7.3536983 14.065666
-88.276779 129.57315 7.8795733 13.105
-88.124374 129.77936 7.9222221 14.075624
-88.00341 129.25163 8.4062862 14.1005
-88.101158 129.81694 8.9263783 15.065666
-88.163269 129.79681 9.5665674 15.056
-88.15567 129.81471 9.7531099 15.0145
-88.062408 129.78548 10.933182 15.1075
-88.357315 129.87866 12.082831 15.1055
-87.957794 145.48183 -4.8173537 6
-87.868126 146.00288 -4.8190064 6
-87.95343 135.55135 -4.6649055 7
-87.851036 135.7704 -4.6312838 6.7142859
-87.64267 138.73164 -4.4044561 4
-87.701828 139.17853 -4.4012065 4
-87.894615 141.12347 -4.4109497 4
-87.921219 141.45265 -4.479393 5
-87.886726 142.1425 -4.4283161 4
-87.907288 142.63129 -4.4879069 3.4000001
-87.923294 143.08849 -4.4172182 2.8
-87.921333 143.364 -4.446599 2.5
-87.812996 143.76764 -4.4457669 3.5
-87.766121 144.2058 -4.5098233 3
-87.874695 144.44873 -4.4027171 5
-87.868393 144.91489 -4.5020776 3
-87.608711 146.29347 -4.4335432 4
-87.735512 146.54016 -4.4342527 4
-87.725769 146.9812 -4.4105396 1.3333334
-87.724564 148.55339 -4.4674659 6
-87.837845 149.90244 -4.4908395 7
-87.818459 129.5249 -4.0342903 5.5
-87.881844 129.7104 -4.0863204 5.25
-87.799606 130.20006 -4.1210661 4.25
-87.919724 130.6851 -4.1290913 4.5
-87.973518 131.08731 -4.204423 5
-87.701355 131.2536 -4.1715426 6
-87.793785 131.88068 -4.2046003 3.5
-87.857872 132.3614 -4.2444835 3.75
-87.754448 132.74217 -4.2630935 2.5
-87.746719 133.03239 -4.2917218 2.5
-87.794914 133.31332 -4.314579 3.5
-87.856392 133.80954 -4.3342514 2.5
-87.779732 134.31248 -4.3328462 3
-87.655853 134.82187 -4.3421192 1
-87.774765 135.49077 -4.1081409 6
-87.852539 135.74466 -4.2084169 5
-87.85331 136.14517 -4.3839469 4
-87.772514 136.62355 -4.3633165 3
-87.771881 137.02574 -4.3737669 3
-87.759117 137.3707 -4.3802557 2.6666667
-87.757912 137.81798 -4.3602934 2.6666667
-87.769814 138.20222 -4.3594699 3
-87.7724 138.61276 -4.3549066 2.5555556
-87.818619 139.06081 -4.3464556 2
-87.798996 139.45932 -4.3457227 2.0999999
-87.757645 139.82584 -4.3502979 2.1428571
-87.806892 140.13112 -4.3435912 3
-87.825638 140.66867 -4.3514643 2.7142856
-87.828072 141.01077 -4.3530421 2.5
-87.815361 141.43153 -4.3652177 3
-87.879158 141.82169 -4.3757186 2.5
-87.873901 142.22942 -4.3850636 2.5
-87.888138 142.76216 -4.3997822 2
-87.651695 143.7688 -4.3760924 2.6666667
-87.619812 144.70856 -4.3855233 5
-87.768608 144.98663 -4.389163 3
-87.849236 145.37579 -4.3851418 2.3333333
-87.683342 146.12129 -4.2741227 5.7777777
-87.680557 146.49339 -4.2781549 5
-87.831596 147.06969 -4.373507 1
-87.722092 147.38258 -4.3751845 3
-87.859238 147.82411 -4.3583512 2.2857144
-87.754616 148.25784 -4.3427148 2.875
-87.826698 148.51183 -4.3194466 3
-87.77813 149.00322 -4.3156524 2.5999999
-87.973549 149.51187 -4.102653 4
-87.791748 149.80537 -4.2189641 3.5
-87.797668 129.55336 -3.7483375 5.1666665
-87.788483 129.73087 -3.9195158 6.5
-87.84343 135.51486 -3.8558884 5.4285712
-87.851936 135.80284 -3.7912219 5.5
-87.953712 136.10631 -3.8756447 7
-87.642448 145.93544 -3.7233942 3.5416667
-87.712814 146.17685 -3.7675581 3.4000001
-87.858261 146.62003 -3.7860026 4.4444447
-87.891968 149.42137 -3.741993 5.375
-87.904877 149.73619 -3.8650501 7
-87.760757 129.15755 -3.445322 7
-87.812645 129.53926 -3.3830373 6.125
-87.845642 129.73524 -3.4721153 7
-87.847466 130.16878 -3.5411429 7
-87.670982 131.92514 -3.2441633 5
-87.755318 132.55457 -3.2226763 5
-87.819801 135.43553 -3.2220318 5
-87.807365 135.83871 -3.3589468 4.4603171
-87.868393 136.11623 -3.4592752 5.2142859
-87.778702 145.93625 -3.3052526 6
-87.807976 146.13525 -3.3471258 5.1764708
-87.848549 146.58183 -3.2984931 6
-87.819283 149.40271 -3.2905536 6.4285712
-87.779747 149.7576 -3.380003 6
-87.820015 129.56354 -3.07862 6
-87.806351 129.66319 -3.0139985 6.181818
-87.599968 131.92749 -2.9905496 6
-87.78904 132.34032 -3.0962358 5.75
-87.670853 132.51974 -3.1155667 5.5
-87.955498 135.26964 -3.0773606 5.5
-87.941605 135.75264 -3.1300404 6
-87.653824 145.54817 -3.0886409 7
-87.716736 145.79456 -3.0552373 6.3846154
-87.893677 146.22476 -3.0371387 5.791667
-87.886009 146.49477 -3.0568411 6.375
-87.892471 146.91972 -3.0621657 6
-87.906487 149.42111 -3.1440206 6
-87.884346 149.82503 -3.1390722 6.5
-87.771507 129.42236 -2.575357 7
-87.705544 129.65538 -2.5733035 7
-87.862503 146.24907 -2.7426305 7
-87.868797 146.65253 -2.7475004 7
-87.829079 146.96729 -2.7640932 7
-87.813179 123.18652 -2.0416119 8.1344995
-87.750809 128.69325 -2.1737964 8.1427498
-87.724731 128.93028 -2.2143917 8.1355
-87.780289 129.43665 -2.2025714 8.0366602
-87.617424 129.60527 -2.397958 8.1049995
-87.688904 130.08714 -2.3073258 8.05375
-87.966667 137.96021 -2.2496998 8.1365004
-87.849472 138.64793 -2.3406634 8.1389999
-87.743454 129.10463 -1.7866439 8.1005001
-87.780296 129.49051 -1.7889258 8.9912043
-87.807083 129.38298 -1.453434 9.7952223
-87.899422 137.82938 -1.2757189 8.4596672
-87.837402 138.26038 -1.287869 10.393086
-87.802116 138.51555 -1.2963383 9.657692
-87.765114 139.06335 -1.2979413 8.5840006
-87.808258 129.40503 -0.98008305 11.069551
-87.667816 135.76833 -0.97352952 13.146251
-87.95002 137.82022 -1.0120479 11.797749
-87.783485 138.28596 -1.0751005 11.399465
-87.840378 138.52002 -1.0480479 12.00575
-87.696098 139.04939 -0.95720267 12.025701
-87.608299 139.22256 -0.95336002 10.082
-87.716148 140.36598 -0.99044162 8.0080004
-87.838173 129.45871 -0.65714806 10.572
-87.731956 135.79303 -0.69812119 14.035438
-87.830849 136.23091 -0.51892227 9.9792509
-87.729683 136.46669 -0.48053417 12.0562
-87.824501 137.05272 -0.50219619 12.365417
-87.869453 137.75542 -0.77800465 12.63425
-87.737091 138.09506 -0.59893024 10.5625
-87.876122 138.60272 -0.62069291 13.343545
-87.772301 139.02762 -0.52886635 10.2502
-87.623619 139.22617 -0.47068831 10.075
-87.756859 139.86078 -0.49857795 10.552384
-87.81237 140.22833 -0.59655601 9.5062714
-87.779327 140.49388 -0.58853954 9.0950003
-87.870903 129.56955 -0.11913694 11.745334
-87.835129 129.62508 -0.21413261 11.889194
-87.831802 134.94084 -0.040444665 13.90125
-87.852074 135.33022 -0.11660404 11.371051
-87.708481 135.75212 -0.19402643 13.167333
-87.765808 136.22583 -0.25507253 11.791561
-87.823036 136.62051 -0.14863288 12.289001
-87.765816 136.97717 -0.29881355 13.138501
-87.854103 137.94693 -0.17378809 15.171
-87.792023 138.16212 -0.23202398 13.020715
-87.955811 138.72769 -0.3922998 12.0945
-87.793037 139.03145 -0.30539098 11.783916
-87.761429 139.42668 -0.25425848 12.92725
-87.725029 139.80887 -0.24398802 12.008268
-87.811035 140.19164 -0.24641258 11.871648
-87.87648 140.47758 -0.15362225 10.812125
-87.828712 140.94028 -0.16451328 9.7786245
-87.73912 141.48283 -0.18342912 10.032
-87.849045 129.55577 0.16830309 12.4601
-87.806877 129.62285 0.1763131 12.755094
-87.868782 135.06418 0.11864889 11.836792
-87.885117 135.37823 0.13592936 11.837444
-87.878723 135.77837 0.25172758 12.518728
-87.823662 136.24684 0.22696914 12.085625
-87.85601 136.64421 0.16637008 11.687546
-87.7995 137.01749 0.21927552 14.67025
-87.821999 137.4395 0.20299625 11.026722
-87.805168 137.69504 0.11096547 12.674062
-87.675179 138.94151 0.24285659 12.67675
-87.850616 139.52747 0.19770733 11.480334
-87.797966 139.8007 0.16600005 13.654188
-87.850647 140.31146 0.12723398 11.937113
-87.842598 140.59216 0.17127785 12.54322
-87.788818 140.85883 0.21368562 11.168642
-87.712479 129.59639 0.7597217 13.111
-87.790367 129.63536 0.60846323 13.323658
-87.62204 130.03584 0.45525125 10.0325
-87.680084 135.12199 0.49634048 15.165
-87.729088 135.37701 0.45333225 13.834666
-87.687149 135.86911 0.54870075 12.335125
-87.809349 136.22775 0.50671256 10.88125
-87.814827 136.6118 0.5882538 11.759221
-87.813126 137.17699 0.44996646 10.1775
-87.721764 137.32042 0.55341661 12.923812
-87.779358 137.79033 0.72969484 9.1438332
-87.607132 138.89153 0.44841486 14.176
-87.804962 139.91815 0.62792742 12.752334
-87.804512 140.3819 0.55575424 10.0865
-87.802299 140.64972 0.41288963 12.791437
-87.787262 140.90335 0.67186779 9.8530998
-87.949448 129.56609 0.87222862 12
-87.801826 129.65063 0.94869769 13.783
-87.618835 134.00862 1.1143706 10.176
-87.750954 136.21814 1.0795295 13.1033
-87.777054 136.73245 0.88768035 13.056999
-87.715393 137.04189 0.81876343 12.0575
-87.843636 137.3 0.99387527 11.377001
-87.770241 138.1252 0.98949295 13.175751
-87.774284 139.39163 0.88349611 11.073
-87.617485 139.86861 1.1385822 15.0925
-87.88575 140.33455 1.01747 11.039
-87.806 140.63477 1.0102023 12.8002
-87.605026 140.85226 0.86199719 10.0015
-87.904411 129.5737 1.2412592 14.112
-87.845131 129.64777 1.3293598 14.8314
-87.658455 132.77776 1.2546551 10.175
-87.669029 132.98866 1.3959908 12.17
-87.893944 136.70125 1.4272374 14
-87.765259 137.31827 1.5928886 10.178
-87.736588 140.28014 1.3876051 12.6795
-87.844414 140.52779 1.3590419 13.044875
-87.835243 129.66095 1.6825294 14.16
-87.750381 133.3721 1.734978 11.672666
-87.938789 136.99467 1.8196157 12.176
-87.825554 138.84799 1.984493 12.0735
-87.981934 140.04359 1.9854698 14.179
-87.674141 132.48602 2.2469573 11.838834
-87.673172 132.83092 2.0240602 11.1735
-87.698425 132.85898 2.5788546 10.136
-87.602676 138.15198 3.3345244 12.0895
-87.797485 129.65558 3.7453504 13.834834
-87.86969 129.67831 4.2318578 13.836166
-87.672783 139.79013 4.159534 13.839875
-87.631355 132.7778 4.4941859 13.1745
-87.66011 139.67116 4.4567637 13.0005
-87.856041 129.75392 4.9472218 13.341875
-87.619644 133.12041 5.1492057 14.174
-87.743111 133.81921 5.0105987 11.0115
-87.756012 129.75517 5.2964826 13.09225
-87.809608 130.18709 5.4916949 13.840399
-87.688988 132.62628 5.4074626 14.174
-87.703987 133.44949 5.4051514 15.173
-87.612053 133.93611 5.3952088 15.1735
-87.986229 134.08968 5.4212885 14.0295
-87.828064 136.07498 5.3192391 15.076
-87.818581 138.44183 5.3622909 11.014
-87.670067 129.86266 5.6559858 12.106
-87.787971 133.45894 5.6765652 14.67425
-87.819099 134.05544 5.9614134 15.1745
-87.602257 138.59413 6.0952067 15.179
-87.62059 129.76546 6.7806869 13.0135
-87.604317 130.20642 6.75701 15.05
-87.911247 133.82634 6.4882116 15.175
-87.823837 130.16582 6.8614349 15.04925
-87.896225 129.67253 7.3825388 14.58325
-87.846817 130.13803 7.3147845 15.0285
-87.85054 129.81688 7.7237825 14.09525
-87.861992 129.8681 8.2045298 13.710999
-87.773323 137.04448 8.1088371 14.104001
-87.807625 130.03392 8.4809713 15.0215
-87.913635 129.84322 9.0615959 14.196909
-87.694588 129.65105 9.4923983 14.1055
-87.839386 129.92178 9.6609297 14.106
-87.92514 129.95811 11.716273 15.106
-87.643349 129.99129 12.459387 15.1045
-87.259453 136.16695 -4.6733761 6
-87.456657 137.00606 -4.4249358 4
-87.473244 137.38336 -4.4477267 2.6666667
-87.533516 137.94891 -4.4143338 4
-87.249603 138.14844 -4.5171957 6
-87.375938 138.60242 -4.5576591 5.3333335
-87.285706 139.27824 -4.6298552 6
-87.337868 139.83888 -4.6309547 6
-87.449173 140.36768 -4.5116453 6
-87.278603 140.43103 -4.7505202 6
-87.273216 141.0612 -4.5759816 5
-87.367386 141.54239 -4.5917587 5
-87.240532 141.99043 -4.4285674 4
-87.358772 142.30321 -4.5388141 3.3333333
-87.381363 142.72588 -4.4331069 2
-87.314621 143.14598 -4.5864906 5
-87.373528 143.43661 -4.4614811 4
-87.441589 144.25269 -4.4908795 3.3333333
-87.399719 144.58293 -4.4774041 2.6666667
-87.239922 145.02087 -4.4073052 3
-87.441994 145.47118 -4.405127 4
-87.407356 145.77376 -4.4229388 3.5
-87.348137 146.18781 -4.413187 3.75
-87.419693 146.57104 -4.4522047 5.5555553
-87.561745 147.33073 -4.451715 5
-87.367294 148.06763 -4.4439411 6
-87.404938 129.54761 -4.0378342 5.1999998
-87.447968 129.74028 -4.1116858 4.6666665
-87.244347 130.02216 -4.1398153 4
-87.478043 130.60881 -4.1615734 4.5
-87.458908 130.95659 -4.1711831 5
-87.345131 131.28528 -4.1605759 5
-87.470207 131.72281 -4.2129693 4
-87.431915 132.19418 -4.1785955 3.4000001
-87.426987 132.60025 -4.2530003 3.8333333
-87.365746 132.93347 -4.2438297 5.5
-87.522476 133.89787 -4.3148322 1
-87.590485 134.01614 -4.3021045 1
-87.345833 134.72478 -4.3224006 0.5
-87.376358 134.90521 -4.3399038 3
-87.345818 135.74973 -4.3025017 4
-87.351234 136.27109 -4.3572621 4.3333335
-87.468018 136.49214 -4.3597336 4
-87.330208 137.08893 -4.2879124 3.6666667
-87.564316 137.73878 -4.3720384 2
-87.569733 138.29291 -4.3614826 3
-87.57254 138.72801 -4.3578863 3
-87.209572 139.64131 -4.3302498 3
-87.392426 140.1436 -4.3406763 1.5
-87.237793 140.61565 -4.3418336 1.5
-87.262215 140.93422 -4.3654571 2.3333333
-87.284142 141.45087 -4.363616 1.5
-87.327736 141.85593 -4.371139 2
-87.301277 142.25575 -4.3714199 3
-87.289841 142.65318 -4.3827696 3
-87.257355 142.91235 -4.3875775 3
-87.214104 143.26357 -4.395844 3
-87.455482 144.70255 -4.3878746 2.5
-87.57589 145.00346 -4.389092 5
-87.50071 145.32793 -4.3841305 4
-87.460747 145.74826 -4.3997884 5
-87.438255 146.21014 -4.1939292 4.3703704
-87.346886 146.51714 -4.2912621 6.1111112
-87.425858 146.9754 -4.3503308 4.6666665
-87.378319 147.42595 -4.382865 2.2222223
-87.395035 147.79756 -4.3620791 2.6666667
-87.319641 148.21304 -4.3391271 3
-87.444138 148.56464 -4.3231349 2
-87.424934 148.97504 -4.324748 3.8
-87.398674 149.8334 -4.2796078 3.3333333
-87.39389 129.56509 -3.7888136 5.2631578
-87.416626 129.73947 -3.794116 6.5999999
-87.304329 132.2823 -3.9220212 3.5999999
-87.353584 132.51799 -3.8272316 6.3333335
-87.250908 133.30573 -3.6466961 7
-87.499107 135.49707 -3.6486216 7
-87.557739 135.78029 -3.8350019 7
-87.419212 145.94009 -3.7115707 3
-87.40744 146.16432 -3.8359339 3.470046
-87.369873 146.47371 -3.8562148 4.8000002
-87.238869 147.03127 -3.6023688 6
-87.292068 147.46791 -3.877075 7
-87.343826 147.97273 -3.8354445 7
-87.414658 129.56541 -3.4167325 5.6999998
-87.416832 129.60442 -3.4580362 5
-87.426132 130.16794 -3.54742 7
-87.345016 131.96225 -3.5379033 4
-87.397911 132.38017 -3.5783284 4
-87.393593 132.64333 -3.3645608 5.625
-87.523041 135.06635 -3.5183573 7
-87.505783 135.46719 -3.3766952 4.8333335
-87.507812 135.74298 -3.4030437 4.8571429
-87.242531 137.18301 -3.5435166 4.5
-87.391609 137.24846 -3.4291542 2.5
-87.579185 137.96333 -3.5872607 7
-87.282745 145.19443 -3.2327895 7
-87.503281 145.54619 -3.3949461 7
-87.45488 145.8678 -3.3599758 5.2045455
-87.351158 146.19894 -3.4468546 4.837121
-87.222168 146.42508 -3.46947 5
-87.240547 149.59378 -3.2238374 7
-87.468102 149.82697 -3.2585692 6.4444447
-87.383354 129.55859 -3.0513 6.0833335
-87.381058 129.63062 -3.0662365 6.1428571
-87.431412 130.02074 -2.9173694 7
-87.359756 132.22636 -3.1067898 6
-87.337425 132.58688 -3.146621 5.6111112
-87.364861 145.59917 -3.1992729 7
-87.433311 145.84126 -3.0579784 5.8235292
-87.364197 146.17422 -3.080349 6.5625
-87.340843 149.72479 -3.1657679 6
-87.253586 126.18839 -2.6521633 7
-87.429779 129.49323 -2.6851308 7
-87.436356 129.64514 -2.6687596 7
-87.547569 146.13638 -2.7422807 7
-87.363777 123.20582 -2.0533676 8.1352501
-87.461555 129.00655 -2.2712502 8.1223211
-87.409943 129.54205 -2.2565517 8.0207224
-87.461334 129.6075 -2.2077031 8.024437
-87.402489 129.51117 -1.8081627 8.8681211
-87.416924 129.67218 -1.7773191 8.0930004
-87.395897 129.41013 -1.4179649 9.9440002
-87.459679 135.854 -1.2301131 8.1574993
-87.503242 138.92885 -1.2878565 8.6077499
-87.59359 139.28059 -1.3639935 8.0085001
-87.55352 139.7554 -1.3066484 9.0334997
-87.420929 129.43652 -0.96508545 11.042224
-87.395737 135.59299 -1.0142549 14.115
-87.441338 135.79317 -0.96964532 11.02325
-87.384735 136.16701 -0.95187902 10.65625
-87.36869 136.52983 -1.0047325 11.969913
-87.469543 139.06735 -0.91143721 10.968908
-87.329559 139.24411 -1.1268865 8.1700001
-87.209595 128.86998 -0.62978488 11.151
-87.37178 129.44484 -0.5912239 10.14425
-87.349388 135.52097 -0.60349107 11.566571
-87.391846 135.8448 -0.61127144 12.18038
-87.34774 136.14413 -0.71173412 9.5259991
-87.345688 136.49443 -0.74220425 12.8745
-87.436806 136.96883 -0.55184591 11.17275
-87.582359 137.64423 -0.57549638 9.0959997
-87.357109 139.0518 -0.61094499 11.620501
-87.454147 139.29262 -0.62850535 10.725651
-87.515236 139.7832 -0.64511544 9.1025
-87.483864 129.54515 -0.089875847 10.102125
-87.410774 129.65823 -0.18096158 11.577812
-87.361771 134.87338 -0.017071838 10.173
-87.448448 135.49104 -0.039450511 9.177
-87.376633 135.77299 -0.23250288 12.1425
-87.422852 136.19891 -0.16745901 12.259458
-87.404358 136.50012 -0.25847751 12.15915
-87.391464 136.94353 -0.16498366 12.982457
-87.498604 137.95879 -0.083776914 12.507668
-87.258018 138.57608 -0.069834694 15.1735
-87.495522 139.08073 -0.1361191 12.176917
-87.421089 139.41463 -0.26661229 13.271501
-87.485954 139.7774 -0.24114214 12.030116
-87.483383 140.14499 -0.14148399 11.766145
-87.597206 129.51442 0.28194553 10.0655
-87.407455 129.65663 0.18862681 12.532642
-87.406548 135.34282 0.12114156 13.41725
-87.371841 135.74333 0.10834295 12.0693
-87.418228 136.21967 0.16243874 11.8686
-87.476273 136.41914 0.2223172 14.136499
-87.390869 136.88844 0.19382398 12.162928
-87.54377 137.27516 0.2603125 11.175501
-87.528984 137.97375 0.049639616 12.175
-87.370537 138.68651 0.33440793 13.176
-87.429512 138.98988 0.23339264 12.6305
-87.401443 139.44514 0.19987662 9.1210003
-87.545753 139.99725 0.059034716 9.0054998
-87.475548 140.13664 0.068639316 11.588125
-87.416374 129.65877 0.57440591 13.17086
-87.415909 135.12248 0.44620556 13.16875
-87.510597 135.46132 0.48932666 15.166
-87.511162 137.22543 0.58747715 12.1745
-87.206573 139.45686 0.68744594 11.073
-87.310684 139.65875 0.64417917 11.085
-87.238808 140.34137 0.56227165 13.087
-87.506241 140.78435 0.51373929 15.0005
-87.506439 140.92984 0.63656163 11.057332
-87.477295 129.59293 1.1703932 14.1125
-87.40329 129.69945 0.97541898 13.36525
-87.44162 133.32771 1.1234565 9.5955
-87.260925 136.80533 1.1341293 15.1715
-87.506958 137.32961 1.0282331 15.1725
-87.30706 139.78258 0.80619115 15.093
-87.340004 140.98566 0.96030271 11.366833
-87.408897 129.71899 1.40381 13.581666
-87.512436 132.918 1.5244833 12.1705
-87.426117 133.37984 1.3916774 11.5723
-87.506363 134.16557 1.2967557 9.1020002
-87.312904 134.49895 1.3704286 9.0272503
-87.346565 136.88803 1.2780036 13.174
-87.558128 139.21008 1.4106311 14.1775
-87.207336 140.65468 1.2676126 12.0735
-87.221855 141.0229 1.2521614 10.001
-87.458992 132.95377 1.7626115 10.592501
-87.468399 137.70528 1.7586751 11.1785
-87.495567 140.32161 1.9110134 13.1795
-87.371956 140.4657 1.8407723 12
-87.244308 132.35023 2.3243723 15.1655
-87.52771 132.67128 2.1643894 12.671
-87.447929 132.91969 2.2415321 13.669001
-87.293762 140.64215 2.0931597 13.030251
-87.242844 140.86391 2.0456059 11.0015
-87.519562 137.03777 3.1914573 14.1755
-87.502701 133.39642 3.3780277 13.173
-87.250282 136.82607 3.2740536 13.1765
-87.202347 137.9599 3.4801486 13.0765
-87.472412 138.54688 3.5112209 14.075
-87.557137 129.68861 3.8021061 13.6685
-87.315102 132.9987 3.8531919 13.62525
-87.242203 136.14763 3.7096095 15.174
-87.255997 138.07169 3.6104031 15.1765
-87.273117 132.68282 4.201457 13.448667
-87.33712 133.05345 4.2216682 13
-87.414207 129.69868 4.6587439 14.169374
-87.494644 132.77925 4.6492562 15.171
-87.423653 132.95419 4.6639795 12.5592
-87.577034 129.77455 5.0135937 13.092
-87.377625 132.86118 5.0835724 14.33625
-87.349617 134.03476 5.032342 11.012
-87.429001 136.62682 4.9477787 12.102
-87.37719 129.72516 5.5636959 13.127
-87.466354 130.25906 5.3811116 14.05
-87.425606 132.52463 5.2279463 14.1735
-87.502426 132.85283 5.3613534 15.17225
-87.421463 139.19687 5.5464802 14
-87.389 129.75601 5.7202744 14.084666
-87.42701 129.64964 6.1219416 15.17
-87.418655 133.65266 6.3401022 15.1745
-87.595161 133.69652 6.6648521 12.138
-87.392784 134.64154 7.911222 12.1315
-87.236061 134.82983 7.9322462 12.1315
-87.273308 137.01984 7.6943111 12.14
-87.449234 129.79155 8.2140999 14.057751
-87.328491 134.33966 8.1395206 12.052
-87.333839 134.71004 8.1812325 12.022
-87.396805 136.54114 8.2949648 12.0445
-87.24559 129.73399 9.1374722 15.0945
-87.388565 129.75606 9.325181 14.5007
-87.4263 129.7666 9.7946444 15.102
-87.392006 129.86064 10.680621 14.104
-87.357849 129.6515 12.250225 15.105
-87.301048 130.01308 12.830736 15.104
-87.134377 133.04349 -4.6733503 6
-86.927544 136.55052 -4.4434342 3
-86.952904 137.7795 -4.4085155 4
-87.017715 138.38007 -4.4005218 4
-86.845383 141.3026 -4.7459459 6
-87.12796 141.80231 -4.7623167 6
-86.93084 142.27719 -4.5128379 2.3333333
-86.881294 142.63208 -4.4073319 3
-86.800606 142.83159 -4.4177518 1
-86.933289 143.47682 -4.4198251 3
-87.003387 143.91325 -4.503489 3.5
-87.047699 144.15851 -4.4439564 3.4000001
-86.891914 144.62679 -4.427175 4
-87.195328 144.8815 -4.4190779 4
-86.973778 145.32475 -4.4820104 3.5
-86.873375 145.86372 -4.4283261 3.5
-87.071404 146.16646 -4.432838 4
-86.927765 146.65956 -4.4096379 3
-86.972084 147.01427 -4.4504123 4.5
-87.07869 147.21365 -4.4138904 4
-87.037529 147.79826 -4.4473877 5.3333335
-87.116737 148.43048 -4.5057173 6
-86.812134 149.03313 -4.6336946 7
-87.041336 149.54576 -4.4451575 6
-87.090256 129.57785 -4.0631981 4.5
-86.951012 129.7019 -4.0942717 4.6666665
-86.919197 130.1563 -4.1537724 4.3333335
-86.994507 130.53844 -4.1539683 4.5999999
-87.020668 130.8866 -4.1569586 4.3333335
-86.995209 131.30777 -4.2005672 4
-87.03447 131.81714 -4.1442566 5
-86.988235 132.23735 -4.1287041 4.9583335
-87.014908 132.5768 -4.1736126 4.1999998
-86.987633 133.05774 -4.3104215 2.75
-87.016785 133.3672 -4.3069677 3.2857144
-87.028061 133.93822 -4.3328915 3
-87.010201 134.25204 -4.3008552 2
-86.98658 134.45995 -4.3712378 5
-86.994804 134.87675 -4.2155018 0.5
-86.892578 135.55544 -4.193584 5.5
-87.000603 135.75513 -4.2955198 4.2857141
-87.104576 136.18068 -4.3300219 3.2
-86.941956 136.44621 -4.3464561 2
-86.983192 137.09004 -4.3169751 3.5
-87.107094 137.26685 -4.2819052 3
-86.973648 137.68913 -4.3526812 4
-87.036156 138.05023 -4.3386474 3
-87.105484 138.53911 -4.3343577 3
-87.113152 138.97849 -4.3555231 3.4000001
-87.159973 139.4442 -4.3596544 3.5
-86.82476 139.71535 -4.354959 2
-86.824913 140.17441 -4.3544769 1.3333334
-86.837921 140.58737 -4.3603158 1
-86.864952 141.00227 -4.359426 2
-86.896523 141.42783 -4.3691545 2
-86.898315 141.83438 -4.3823633 2.5999999
-86.922096 142.19098 -4.3863878 3.25
-86.851013 142.5152 -4.3990541 2
-87.161285 142.96117 -4.3827295 5
-87.17704 143.41992 -4.3908668 5
-87.034454 143.73744 -4.3850241 3.6666667
-87.041451 144.16884 -4.3916712 5
-86.811661 144.7426 -4.3826847 5
-87.039963 146.26112 -4.0619073 0.79166669
-87.045212 146.71901 -4.3941231 5
-86.933311 147.09839 -4.3848214 3
-86.919662 147.36801 -4.3789415 3
-87.016731 147.74274 -4.3447614 2.5
-86.995277 148.23689 -4.3252726 2.5999999
-86.98542 148.62955 -4.3345051 3.5714285
-87.030746 148.95705 -4.2960892 2.5714285
-86.965622 149.42873 -4.3028598 4
-86.990341 149.78491 -4.2825022 3.3333333
-86.982559 129.5498 -3.8764141 5.8333335
-86.983971 129.66888 -3.8758087 5.2857141
-87.187943 131.53319 -3.7530112 7
-86.961853 131.8653 -3.8601267 6.1999998
-86.987801 132.21165 -3.7966735 6.3684211
-86.945633 132.61606 -3.8119135 6.9285712
-87.118851 137.06734 -3.71947 2.7142856
-86.967621 137.3027 -3.6193185 6
-87.099121 146.30901 -3.8788712 2.4444444
-87.114738 146.40303 -3.6828101 2.5
-86.962784 147.28545 -3.6066189 7
-87.015724 129.57938 -3.4768817 6
-87.063202 129.64977 -3.3913071 5.8000002
-87.087875 131.5336 -3.2180691 6
-87.019371 131.88866 -3.4552875 5.75
-86.990265 132.25607 -3.5766094 6.5
-87.02066 132.61667 -3.353955 5.4545455
-87.033852 132.81032 -3.2979541 5.5
-86.876549 137.09906 -3.5468388 7
-87.081505 137.26129 -3.4842496 4.4000001
-87.049767 145.97511 -3.4448698 3.625
-86.985291 146.23074 -3.3432205 5.2638888
-86.98542 146.6425 -3.3821244 7
-86.984314 146.92879 -3.446876 5.5
-86.987534 129.55814 -3.0316443 6
-86.888397 129.66528 -3.1279681 6.2727275
-87.060875 131.53938 -3.1617231 6
-86.930405 131.74054 -3.0918329 6
-86.998703 132.29681 -3.0887165 6
-87.02446 132.62408 -3.1302078 5.75
-87.00473 145.91225 -2.9712005 6.2692308
-86.966095 146.1559 -2.9886453 6.2857141
-86.907837 146.50449 -2.9555118 7
-86.971764 147.04085 -3.0336137 7
-87.126816 149.68378 -3.1803482 6
-86.932205 126.25114 -2.6544845 7
-86.897949 129.56369 -2.6038744 7
-86.935623 129.66431 -2.4086807 8.0341673
-87.130272 146.10895 -2.7667463 7
-87.010368 123.20572 -2.0553062 8.1335001
-86.946419 129.56462 -2.1405582 8
-86.920906 129.69643 -2.2793906 8.0262499
-86.989174 129.52812 -1.7726762 8.9494619
-86.969345 129.65842 -1.6978266 9
-86.990685 129.46671 -1.4467254 9.5754099
-86.920937 129.6819 -1.450581 9.333333
-86.85614 135.53355 -1.3638158 12.00525
-86.896347 135.65625 -1.3079453 10.392333
-87.009857 129.48611 -0.99109715 10.888273
-86.877647 129.6528 -1.0204422 10
-86.900314 135.47662 -0.99637741 12.38625
-86.986443 135.77299 -0.98461622 13.191401
-87.095268 136.35249 -0.90876639 12.604
-87.112007 136.5386 -0.90866643 12.304501
-86.904358 136.91454 -1.1106396 8.0129995
-87.177689 139.19171 -0.80579722 12.0945
-87.008896 129.00252 -0.63114595 11.1515
-86.908699 129.53192 -0.62602079 11.264375
-86.885841 129.66937 -0.68615347 10.5
-86.932709 135.14517 -0.55649775 10.1715
-86.984978 135.47472 -0.75954282 9.5872498
-87.057175 135.88782 -0.56988293 12.938074
-87.005989 136.18526 -0.62120539 12.722429
-87.122307 136.59904 -0.66933161 12.377862
-87.197784 138.75237 -0.51942432 13.096
-87.190948 139.0656 -0.7352131 13.148251
-86.880272 129.5607 -0.2954118 10.55275
-86.977112 129.66528 -0.19323669 11.830571
-86.937042 135.18333 -0.11725502 12.168625
-86.98674 135.38525 -0.28501907 12.168626
-87.042412 135.84758 -0.085776754 12.086
-87.178703 136.02449 -0.024896264 13.169
-87.139206 136.40224 -0.39837891 14.60575
-87.139351 138.72672 -0.30072182 14.09675
-87.075317 139.03075 -0.3316462 13.953111
-87.14283 139.30803 -0.20467813 13.17675
-87.052734 129.59358 0.17650323 10.0815
-87.001511 129.6738 0.23101938 12.524223
-87.184845 134.72215 0.33848393 10.1745
-87.148117 134.92181 0.31144884 9.177
-87.157944 135.41348 0.11521617 12.17025
-87.052124 135.82214 0.012983125 12.1705
-87.108772 136.88651 0.11277299 14.170083
-86.872963 140.32246 0.19009688 14.092
-87.046463 140.49968 0.093149148 9.3438339
-87.017235 129.6731 0.60139805 13.61675
-87.019096 134.93074 0.61220127 11.0795
-86.800018 135.53082 0.56638849 11
-87.118477 137.70705 0.69171697 9.1385002
-87.16198 138.34058 0.63368475 9.0065002
-86.934601 140.31589 0.57073253 12.079
-86.889366 140.58202 0.6647613 14.591
-87.014671 129.6701 0.93200052 14.156091
-86.956512 133.00914 1.0850321 9.0124998
-86.828827 134.00575 0.81017238 9.1370001
-86.830322 136.98491 1.1995164 11.1765
-87.165207 139.86621 0.8592695 12.077
-86.877037 140.4696 0.84305406 10.017
-87.176521 141.59431 0.90590823 11.032
-87.056252 129.68382 1.4067723 14.519214
-87.134346 140.61824 1.4296299 12.5365
-87.115334 140.91063 1.3963088 13.014999
-86.930084 129.70432 1.6097674 15
-87.043762 132.63142 1.9865559 13.169
-87.103226 132.95946 1.738709 13.667749
-86.943909 133.20287 1.7618943 10.012
-87.002586 137.27431 1.6500698 13.0815
-87.03968 140.6011 1.8332719 12.200874
-86.965294 140.92789 1.7807813 12.286249
-86.844353 141.33481 1.9237546 13.001
-87.190933 133.3911 2.3132312 11.1755
-86.975342 139.70581 2.2217431 11.4565
-86.960358 140.11208 2.3179009 13.0735
-87.069038 140.67216 2.2736256 13.5
-87.048065 140.97853 2.1263509 12.041667
-86.846321 141.42157 2.1610916 12.440857
-86.806114 139.64014 2.7551069 11.008
-86.949699 140.37393 2.6148112 15.0805
-87.001541 140.67534 2.4838843 12.5005
-86.928192 140.98952 2.5545988 13.000448
-86.952393 129.87263 3.5154555 11.00325
-86.976639 135.3998 3.4256241 12.177
-86.842697 137.77458 3.5261104 12.179
-86.821083 140.31267 3.5211482 13.0785
-86.918625 129.79384 3.8083529 13.087999
-87.182823 135.35851 3.777154 15.173
-86.970413 129.71301 4.2881289 14.500999
-86.994041 132.82964 4.0924325 13
-86.862053 139.80342 4.362021 12.0075
-87.175476 135.68098 4.4591107 13.177
-86.85421 129.77878 5.1302638 13.5905
-86.992256 130.03435 5.0678134 11.0135
-86.915047 132.24063 4.8978829 14.1725
-87.05336 139.46579 5.0284028 15.179
-87.046806 139.76353 5.0490131 12.555375
-86.841293 140.0318 5.1324306 11.1295
-86.873383 129.86572 5.3880649 12.436632
-86.915161 130.06433 5.2711425 13.025
-87.069427 133.08438 5.4214678 14.390834
-87.187454 135.20766 5.2927394 14.025
-87.173302 139.39555 5.2844677 14
-86.953201 139.76564 5.4803271 12.563125
-86.950356 140.05424 5.2697687 11.1295
-86.994125 129.72948 5.7546377 13.5825
-86.901428 132.80388 5.8156447 14.0935
-86.925865 137.23946 5.7689204 15.0765
-86.94516 138.28345 5.757628 15.035
-87.046715 139.49913 5.7401896 14.4495
-86.950493 139.85219 5.7155614 13.884817
-86.803841 129.88155 6.1329217 13
-87.150032 132.84641 6.2153974 15.1735
-87.065147 139.08537 6.1483426 14.58975
-87.185837 132.76082 6.4088945 15
-87.076675 133.01407 6.4691978 15.174
-86.873047 138.94585 6.5751872 15.1795
-86.860466 133.05829 6.8077121 15.1745
-86.918549 129.87285 7.4232049 14.016
-86.958351 134.13232 7.5318055 12.016
-86.899033 137.44313 7.4260583 13.0065
-86.963455 129.75954 7.6523776 15.08525
-86.818581 136.25873 7.8233666 12.1225
-86.929359 136.92726 7.973947 15.0935
-87.047806 129.76323 8.2475624 13.559
-86.987885 130.07225 8.0631199 15.025
