# .PCD v0.7 - Point Cloud Data file format
VERSION 0.7
FIELDS x y z intensity
SIZE 4 4 4 4
TYPE F F F F
COUNT 1 1 1 1
WIDTH 1248
HEIGHT 1
VIEWPOINT 0 0 0 1 0 0 0
POINTS 1248
DATA ascii
-107.24673 158.16611 7.0867057 11.454166
-107.33054 158.89674 7.1551614 15.012
-107.34427 159.37387 7.0172601 13.5631
-107.47285 156.82401 7.48493 12.179
-107.50384 157.47806 7.2926817 14.584249
-107.5491 158.20648 7.5238566 14.723332
-107.48531 158.66945 7.2196269 12.1795
-107.52267 158.90918 7.4863253 15.0065
-107.37864 159.20644 7.2074032 13.157
-107.49818 158.6205 7.7208505 13.693166
-107.44103 156.12889 8.1121511 14.153749
-107.43729 155.50839 8.7638474 14.027
-107.13769 156.07782 -4.8358674 7
-107.10528 154.75993 -4.4167175 5
-107.05593 155.91943 -4.5091391 7
-107.02506 158.25099 -4.4897013 5.5
-107.04047 158.77577 -4.5788083 6
-107.09435 158.90109 -4.4236183 5
-106.82156 160.5045 -4.4048953 5
-107.1272 173.19582 -4.6201134 6
-106.99195 174.36719 -4.6214442 6
-107.00353 174.56505 -4.6058502 6
-107.19392 176.4102 -4.6413865 6
-106.98965 177.87721 -4.7853136 6
-106.97214 150.98296 -4.2177763 4.5
-106.97224 151.53339 -4.2765388 5
-106.80348 152.04178 -4.2968507 5
-107.04549 152.5827 -4.210516 5
-107.09211 153.364 -4.2185445 5
-107.01981 153.7153 -4.2336459 4.6666665
-107.05856 154.00957 -4.2547894 4
-106.99697 154.53076 -4.3143268 5
-107.06758 155.45509 -4.3220439 5.25
-106.96697 155.77846 -4.14012 5.5999999
-107.11618 156.21442 -4.1282568 7
-107.17417 157.52605 -4.3317542 5
-107.0315 158.94624 -4.3874941 5
-107.00134 159.70999 -4.3490796 5
-106.98167 160.20872 -4.391829 5
-106.84297 162.09492 -4.3527985 6
-107.09613 155.8974 -3.8271759 5.5999999
-106.99493 156.06728 -3.718854 6
-107.15604 156.60112 -3.8860445 6
-106.84206 163.423 -3.9265041 6
-106.93335 163.61369 -3.9565692 6
-107.0903 155.94507 -3.411859 6
-107.12531 156.11885 -3.296133 7.5324998
-107.08049 179.52594 -3.5624812 7
-107.12044 155.89201 -2.922601 7
-107.04274 156.08763 -2.9414549 7.0454373
-107.18164 156.50508 -2.8688428 8.1247501
-107.10814 155.97134 -2.7538519 7
-107.13689 156.3302 -2.6057422 7.9354997
-107.15234 156.43784 -2.5538504 8.0843458
-107.14946 178.62347 -2.7637749 7
-107.12391 155.92554 -2.1984758 8
-107.04754 156.10367 -2.2555003 8.002779
-107.05938 156.74536 -2.1684597 8.0105
-106.98798 168.98076 -2.053808 8.0182495
-106.88876 171.85675 -2.0354667 8.0380001
-107.05548 175.11522 -2.0845835 8.0395002
-107.08114 175.33055 -2.1585772 8.0424995
-106.9967 175.78334 -2.1600375 8.052
-106.81314 177.51927 -2.151216 8.0570002
-107.14807 178.63144 -2.1902626 8.0465002
-107.11866 155.89983 -1.6893011 8.1457853
-107.03524 156.07393 -1.6717495 9.0029736
-106.98821 169.08615 -1.9277537 8.0047503
-107.15674 169.3434 -1.9768628 8
-106.81854 171.85938 -1.9053758 8.0334997
-107.03423 177.77602 -1.807479 8.1715002
-107.06923 178.31721 -1.7546366 8.0214996
-107.16209 155.99445 -1.5459741 9
-107.05409 156.12328 -1.4559712 9.0024509
-107.11781 156.43056 -1.2261781 8.1774998
-107.15439 155.84074 -0.93201458 9
-107.06283 156.08778 -1.0191916 9.9209995
-107.09817 156.54431 -0.97992903 8.219286
-107.00424 156.9575 -1.0467322 8.007
-106.82628 168.76588 -1.0937775 9.0395002
-106.95461 168.91252 -0.92015398 9
-106.94118 169.45978 -1.0015199 9.0248747
-107.14102 170.26141 -1.0482948 9
-106.95514 171.63725 -0.96590489 9.0395002
-107.11526 175.8537 -0.89009672 9.0415001
-107.13954 155.86086 -0.63835567 9.0074377
-107.05505 156.12009 -0.56583411 10.15213
-106.94839 156.55705 -0.71181154 8.0465002
-106.93556 156.82417 -0.44303215 8.0270004
-106.90572 163.86665 -0.55733585 9.6690998
-106.84655 164.09425 -0.43910345 9.0194998
-106.91409 169.46965 -0.76998615 9
-106.93857 169.88316 -0.47884417 8.1634998
-107.11566 171.57434 -0.74427688 9.0349998
-106.99088 175.90375 -0.76965332 9.0387497
-107.09166 155.88916 -0.31643254 9
-107.07514 156.1053 -0.27753752 10.669481
-106.99559 156.77768 -0.25973675 9.0105
-106.94226 163.83563 -0.26761532 10.035
-106.8423 164.25801 -0.28334153 9.0094995
-107.03967 169.84856 -0.093807086 10.0425
-107.13792 170.52 -0.10944501 10
-107.03502 156.10896 0.17524816 11.716429
-107.11543 156.43401 0.2842263 10
-106.99499 169.82045 0.29636648 10.008625
-106.83472 170.0386 0.20751667 10
-107.07773 170.54828 0.24827155 10.0365
-107.07853 171.36852 0.16413037 10.039
-107.09775 155.81281 0.62680095 10
-107.05733 156.09732 0.61697817 12.230602
-107.0778 156.47096 0.5279296 10.09775
-107.02051 169.46831 0.4716239 10.01525
-107.06084 169.75677 0.44567865 10.032249
-107.17184 154.87982 0.91918308 9.0080004
-107.0576 155.9128 0.95475161 10
-107.0346 156.11075 1.0212028 12.227156
-107.06226 156.65092 1.0211754 9
-106.99358 156.9203 0.95522434 9.0035
-106.80358 166.81757 1.1102791 11.034
-107.02659 169.8596 0.89646649 11
-107.02854 170.62929 1.0506599 11.0425
-107.15572 153.50449 1.2431515 10.028
-107.06036 154.71101 1.3072813 12.690999
-107.12359 155.99217 1.2198101 10.0595
-107.01338 156.12456 1.3599836 13.3374
-106.9745 156.41847 1.4599224 12.0705
-106.84914 165.82269 1.2476339 11.0305
-106.83678 173.08168 1.4390564 11.04
-107.1402 154.67184 1.7884699 13.193071
-107.03038 154.97528 1.9375789 9.0059996
-107.1043 155.77905 1.8892471 11
-107.01652 156.11249 1.8245512 14.030715
-107.04942 156.5118 1.7194297 11
-107.03342 154.53174 2.2756269 14.044167
-107.10933 155.79752 2.1815336 11
-107.01855 156.1559 2.2081094 13.506571
-106.81925 163.46947 2.2685699 11.5285
-107.07417 164.90509 2.3932211 13.039
-106.86759 165.60777 2.351963 13.0415
-107.14819 169.90819 2.1006901 12.041
-107.11314 171.87973 2.2814605 12.0445
-107.17805 154.21812 2.6734364 15.026
-107.08231 154.60268 2.6171758 13.6281
-107.07946 155.91357 2.5363686 11
-107.00059 156.16516 2.5637009 13.73913
-106.93614 156.69115 2.5035491 9.0270004
-106.91702 156.89195 2.7373621 9.0270004
-106.92915 163.45616 2.7226996 13.299875
-106.81869 165.11891 2.6813638 12.0265
-106.99868 165.29877 2.6692839 12.002
-106.86581 169.77109 2.7206018 12.0335
-107.01577 170.03171 2.4621453 12.036
-106.92904 172.37886 2.5353382 12.04
-107.06429 156.12169 2.9424436 13.75
-107.07962 156.57036 3.0345361 12
-106.95583 156.82333 3.118186 12
-106.89227 163.41902 3.0669825 14.01925
-106.91624 164.9491 3.0756602 12.02375
-107.09897 165.22478 2.8850977 12.025
-106.9239 168.69579 2.8834639 12.537251
-106.93983 168.93559 3.0706489 12.5405
-107.0214 169.38663 3.0322344 12.0295
-106.8988 169.71022 3.0258639 12.0305
-107.17348 154.64288 3.2490473 12.5765
-107.02802 155.83485 3.4462707 11.5055
-106.9417 156.23839 3.4389503 14.166667
-107.02402 156.48537 3.3700631 13.53525
-107.13289 161.92833 3.5461984 14.05425
-106.87872 163.46036 3.3180943 14.038501
-106.93113 164.92622 3.4250696 11.593
-107.17195 165.2997 3.3081596 14.0405
-107.1535 169.57164 3.5220735 13.036
-106.94197 169.83131 3.2913544 13.0535
-106.82994 171.1051 3.20628 12.031
-107.00294 154.96858 3.871757 15.071
-106.81528 155.29494 3.9904451 14.075
-107.06901 155.86372 3.6933503 12
-107.06184 156.17024 3.7920117 14.166667
-107.14013 162.13937 3.8515308 15.051499
-106.89924 163.51462 3.6808572 15.047001
-106.89107 164.65906 3.9640267 13.750333
-106.95599 164.85014 3.6910751 13.0385
-107.06936 155.00537 4.2346997 13.0785
-107.04455 155.23514 4.1922174 14.076
-107.02607 155.91554 4.3510303 12
-107.11454 156.11771 4.1648808 13
-107.11298 156.45726 4.1016064 10.17775
-107.02699 161.82402 4.1979928 13.021
-107.08628 162.26808 4.29773 13.717834
-106.99603 162.60567 4.0476356 14.562
-106.87115 163.50369 4.115582 13.686168
-107.01743 164.30078 4.1088724 15.054
-106.87529 164.58801 4.0217938 13.0245
-106.94624 170.49452 4.359972 14.0495
-106.84561 170.89287 4.1409197 10.1635
-107.00301 156.26591 4.6298804 15
-107.02184 156.72513 4.4452329 10
-107.12854 162.16833 4.4609933 14.068
-107.01445 162.56952 4.5779109 13.417333
-107.0611 170.59106 4.4356599 13.367333
-106.96702 156.09575 4.9299307 15
-106.91001 156.52451 4.9744463 11
-107.01135 156.9381 4.815053 11.007
-107.05555 155.62297 5.5193877 15.0765
-106.97841 156.02158 5.2119555 15
-106.98019 156.44023 5.4103065 13.067249
-107.00652 157.04028 5.4689479 14.013
-106.81615 157.96584 5.4839411 13.171
-106.94949 158.73267 5.5303078 13.1715
-107.00729 158.82922 5.3782954 13.1745
-106.90221 159.78633 5.5552559 12.1555
-106.86228 164.11975 5.4042368 13
-106.94498 154.73909 5.6073937 15.0775
-107.09397 155.43169 5.7101345 15.077
-107.05477 156.15712 5.810185 13
-106.83659 156.60562 5.6506844 13.065
-106.88714 158.659 5.6708369 14.014
-106.87646 163.02585 5.9417152 11.6665
-106.8556 163.7225 5.8729076 12.5885
-107.12404 164.26111 5.6886039 13.29575
-106.95872 164.53844 5.9446073 13.1775
-106.88044 158.38493 6.1417532 15.0185
-106.89838 162.56645 6.1481881 14.0165
-106.83269 162.8297 6.3761692 13.1655
-106.91822 163.40117 6.2549033 14.017
-107.00764 163.73885 6.197969 14.09775
-107.14344 158.2207 6.5834699 14.177
-106.90475 163.19374 6.5877447 15.0225
-106.86036 156.19765 6.9611788 12.0905
-107.02781 158.62881 6.9537215 14.592751
-106.82751 155.88795 7.3806505 12.091
-106.8374 156.02203 7.3223286 15.0765
-107.01096 158.52533 7.3500652 11.0025
-106.83257 163.4758 7.4876575 15.019
-106.93728 154.93864 7.8550034 13.0835
-107.1699 158.31819 7.9149776 15.073
-106.83932 163.47423 7.7396169 14.087749
-106.92194 163.7917 8.1330051 14.166
-106.82043 155.42471 8.709053 15.1615
-106.67205 154.55896 -4.433651 5
-106.64842 157.9577 -4.4047384 5
-106.42815 160.5041 -4.4133821 5
-106.61344 169.15164 -4.4363723 6
-106.4248 169.74524 -4.441895 6
-106.62187 173.94281 -4.505775 7
-106.46993 174.34691 -4.5938549 6
-106.52701 174.70001 -4.6573443 6
-106.577 174.92192 -4.6516981 6
-106.72864 175.43799 -4.5829077 6
-106.59571 150.6344 -4.2358141 3
-106.47173 151.06958 -4.2273436 3
-106.55711 152.69731 -4.2775288 5
-106.49789 153.03375 -4.1885562 4.5
-106.6481 153.61963 -4.2821293 4.5
-106.60391 154.22864 -4.3010449 4.5
-106.55991 154.68884 -4.3061271 5
-106.72864 155.02065 -4.3338881 5.5
-106.53947 155.3949 -4.3366122 5
-106.65757 156.26393 -4.2794042 5
-106.55899 156.71785 -4.3132529 5
-106.70241 157.89006 -4.361527 5.5
-106.70236 159.8526 -4.3626723 6
-106.56171 160.27527 -4.3841333 5.25
-106.70421 163.13814 -4.1125913 6
-106.45299 175.13925 -4.2864637 7
-106.52094 179.06285 -4.1022696 7
-106.59897 163.11415 -3.9014699 6
-106.57359 163.61424 -3.9161222 6
-106.45267 174.91614 -3.9362187 7
-106.40653 178.65344 -3.6065738 7
-106.45598 163.49345 -3.518959 7
-106.40294 179.35397 -3.4432464 7
-106.56047 163.16801 -2.9509995 7
-106.59573 163.28152 -2.9823313 7
-106.51489 163.1254 -2.7367606 8.0869999
-106.43985 163.27034 -2.452424 8.0574999
-106.55958 163.18988 -2.0662897 8
-106.52769 163.24806 -2.1435323 8
-106.54953 176.3286 -2.0163333 8.0377502
-106.54483 176.4821 -2.2062941 8.0419998
-106.54507 178.27725 -2.1820035 8.0605001
-106.54706 163.27579 -1.8601002 8
-106.61528 168.93604 -1.9242145 8.0314999
-106.7831 171.8373 -1.9654447 8.0354996
-106.72936 177.56911 -1.8446949 8.0629997
-106.78484 178.22569 -1.7786294 8.0155001
-106.50518 163.19923 -1.282837 8
-106.50181 163.26048 -1.3459588 8.3999996
-106.62582 168.54097 -1.2123967 9.0460005
-106.54889 163.19203 -1.1577238 9
-106.60589 163.26591 -1.0126325 9
-106.40832 164.61455 -0.88993323 8.5787506
-106.60654 168.55322 -0.98000461 9.0362997
-106.78324 168.98828 -0.95440823 9.0354996
-106.67769 169.45613 -0.81700486 9.0340004
-106.6632 171.25391 -0.87052083 9.0360003
-106.43727 175.08983 -0.85441184 9.04
-106.47143 163.32796 -0.56324863 9.1963129
-106.76002 163.81587 -0.52488917 9.2767506
-106.48608 168.35881 -0.76707488 9.0305004
-106.41622 168.50963 -0.77874976 9.0319996
-106.62511 168.96303 -0.79948258 9.033
-106.62531 169.70381 -0.60945553 8.2989998
-106.65236 171.12791 -0.75398493 9.0345001
-106.51139 173.91273 -0.77134043 9.0365
-106.64796 174.21385 -0.68044841 9.0360003
-106.41519 177.13933 -0.67130202 9.0384998
-106.56312 163.18785 -0.31306583 10
-106.62506 163.27711 -0.18117361 10.002708
-106.71278 164.07204 -0.18623295 9.5235004
-106.74036 164.45775 -0.23550487 9.092
-106.61939 169.94833 -0.034928765 10.0405
-106.78228 174.78267 -0.1924594 9.0275002
-106.55106 163.29285 0.16113994 10.003111
-106.41521 163.95247 0.24517316 10.027
-106.55042 164.07253 0.12024236 10.257125
-106.71452 169.96339 0.25119069 10
-106.67973 170.0966 0.10933919 10.038
-106.65553 170.92979 0.38000274 10.068
-106.5287 163.30727 0.63301498 10.268833
-106.42857 163.83888 0.69805694 10
-106.41172 164.07602 0.4144097 11
-106.51708 163.31418 0.95460457 11.005611
-106.42229 163.74866 0.93322551 10.666667
-106.50573 165.84335 0.97038484 10.2537
-106.52009 166.15027 0.83823603 10.0235
-106.47104 166.6554 1.001214 11.0345
-106.49902 170.95953 1.1466732 11.0405
-106.56628 163.34302 1.5219265 11.6067
-106.46656 163.65503 1.346259 11.675167
-106.49786 165.73491 1.4927013 11.8329
-106.58549 166.82028 1.5388862 11.029
-106.60468 170.8284 1.2037122 11.0395
-106.54903 163.38921 1.8619845 11.873099
-106.64988 163.62308 1.9079983 11
-106.45921 165.73102 1.609484 12.0385
-106.53419 170.77693 1.6945025 11.03325
-106.42738 170.91058 1.8227906 11.0315
-106.74698 171.62245 1.741846 11.034
-106.55153 173.32404 1.6131245 11.038
-106.66537 175.23378 1.8144705 10.179
-106.57467 163.41974 2.1649547 11.160551
-106.64616 163.6279 2.111155 11
-106.74667 164.98256 2.3840556 10.159
-106.72799 165.22649 2.3729644 13.04
-106.5464 170.52798 2.2012136 12.0405
-106.78731 172.29974 2.3717422 12.042
-106.58566 163.40543 2.6220622 12.011723
-106.6349 165.04483 2.4625599 13.023375
-106.5186 169.75757 2.4476926 12.0355
-106.54478 170.13945 2.6055799 12.01825
-106.57923 163.42715 3.0012469 12.72575
-106.79432 163.69615 3.19695 12.022
-106.43082 164.56462 3.1458766 12.023
-106.51084 165.02313 2.9207621 12.0245
-106.75661 168.66643 2.9660592 12.029
-106.77432 169.35168 3.0052049 13.04825
-106.57927 170.83888 2.9556878 12.033
-106.75925 174.65163 3.1519482 11.02
-106.57977 163.47995 3.3808177 12.229556
-106.62882 164.65665 3.3775899 13.02425
-106.66319 164.90042 3.3757384 12.882833
-106.62926 170.65607 3.2196248 13.048
-106.65762 171.22244 3.2848399 12.03
-106.56535 163.39597 3.8147659 13.677083
-106.51411 164.55247 3.743068 13.03875
-106.46889 169.84354 3.9488208 13
-106.55612 162.61424 4.2844472 14.0665
-106.61113 163.4373 4.2262683 12.6119
-106.65399 164.31676 4.1540031 12.2106
-106.68037 164.43025 4.3208761 11.1575
-106.60271 166.84172 4.2128334 14.059
-106.70094 163.47664 4.4377728 14.533
-106.62658 164.21674 4.4536653 13.0225
-106.70355 164.61203 4.4838467 13
-106.64161 166.41927 4.4702449 15.050751
-106.50732 170.40276 4.4207063 13.0305
-106.64537 173.25517 4.7142987 12.096251
-106.51167 159.39328 5.1596379 13.0035
-106.72889 160.24004 5.052844 13.007
-106.45982 170.43172 4.9518366 12
-106.46897 157.8849 5.3394494 14.0765
-106.47021 159.04247 5.5433965 12.15575
-106.67831 159.27283 5.2239494 13.0005
-106.58858 160.12036 5.3891821 13.119
-106.63379 159.2395 5.7590213 13.169
-106.48373 162.73523 5.9770379 13.1735
-106.61528 163.03004 5.885232 12.558917
-106.56767 163.48029 5.9314618 12
-106.61777 163.86165 5.7894983 13
-106.63673 164.83232 5.8887401 13.0005
-106.43912 168.7713 5.6911674 14
-106.57297 162.25035 6.3748412 13.5895
-106.70354 162.74002 6.048099 14.0185
-106.69255 163.15453 6.1288538 13.171
-106.49424 165.38629 6.3904805 13.172
-106.66897 161.95355 6.6466923 14.008
-106.58133 162.10907 6.568902 13.1625
-106.6144 166.26514 6.7700205 13.167
-106.63736 173.52126 6.7054019 11.662
-106.48887 161.88824 6.9667606 15.02
-106.43711 162.7509 7.1172714 15.0205
-106.52943 163.35283 6.9434409 15.021749
-106.63248 163.69676 7.1795139 14.003
-106.59889 163.51187 7.4059372 13.778167
-106.75357 163.73308 7.4608788 14.177
-106.59414 156.23315 7.7473598 14.065
-106.57807 163.4082 7.73734 13.402899
-106.54202 155.19704 8.296279 14.153
-106.62937 155.58601 8.3856592 14.154
-106.52934 155.74597 8.3535643 13.540071
-106.45336 156.10457 8.1401358 13.091501
-106.41229 155.75 8.5175657 13.092001
-106.6593 163.67674 8.711277 15.003
-106.13052 154.43687 -4.4643035 5
-106.00948 155.237 -4.4152756 5
-106.29207 158.46121 -4.5424743 5.6666665
-106.36284 162.9095 -4.5281906 7
-106.05817 167.90373 -4.6109285 7
-106.33354 173.88365 -4.5867925 6
-106.31756 174.00024 -4.5330472 6
-106.36621 174.69838 -4.6629767 7
-106.17999 175.00009 -4.606298 6
-106.12984 150.29495 -4.2191424 3
-106.18028 151.08372 -4.229279 3
-106.11166 152.81421 -4.3028898 5
-106.38091 154.32121 -4.3341727 5
-106.159 154.63597 -4.3210378 4.4000001
-106.14866 155.17804 -4.3706579 5
-106.38234 155.24803 -4.2959085 5
-106.37164 157.05867 -4.3340597 5
-106.19732 157.43359 -4.3588796 5
-106.34921 158.12611 -4.3601465 5.5
-106.31767 159.8398 -4.3569651 5
-106.32427 160.1974 -4.3838019 5
-106.30612 162.29974 -4.344265 6
-106.29739 163.0871 -4.1659341 6.4285712
-106.18501 163.435 -4.0482054 6.5
-106.08128 170.10728 -4.3891354 6
-106.1012 174.71921 -4.2070274 7
-106.18281 175.07193 -4.3095231 7
-106.25456 178.2813 -4.3768444 7
-106.10503 178.71405 -4.1450796 7
-106.29211 163.1295 -3.8790584 6.2222223
-106.09752 163.4028 -3.8634074 6.1999998
-106.02287 163.70914 -3.8027129 6.5
-106.05258 175.31201 -3.6045218 7
-106.09362 179.2989 -3.9441152 7
-106.28885 163.29253 -3.2133877 7
-106.01419 175.15034 -3.2383401 7
-106.15147 175.41603 -3.3492067 7
-106.33063 163.17334 -3.0059361 7
-106.28746 163.26608 -3.0763905 7.098886
-106.33635 179.93292 -2.8167882 8.059
-106.16119 162.9937 -2.4843669 7
-106.38953 163.20505 -2.7551816 8.0874996
-106.07383 174.614 -2.6630402 8.0734997
-106.2878 163.2632 -2.2297306 8.0036774
-106.12832 175.008 -2.0873399 8.0384998
-106.26295 163.10037 -1.7194487 8
-106.3806 163.21988 -1.7668216 8
-106.38644 169.92108 -1.9102392 8.0325003
-106.26871 163.1125 -1.4007531 8
-106.29256 163.25705 -1.3506528 8.9701719
-106.09305 165.48802 -1.2767038 8.158
-106.02235 165.74477 -1.3185146 9.0442505
-106.39218 168.54843 -1.2247219 9.0480003
-106.27216 163.13808 -0.85164499 8.5
-106.32803 163.23608 -0.84436911 8.5
-106.16993 165.41585 -0.93432432 9.0198336
-106.04439 165.60094 -0.94650728 9.0319996
-106.39752 168.23549 -1.1082045 9.0389996
-106.21273 169.0376 -1.1303898 9.04
-106.17894 169.42467 -1.179489 9.0489998
-106.22868 161.94669 -0.67279834 10.044333
-106.20512 162.07002 -0.63316488 9.8766661
-106.2812 163.16866 -0.64735699 8.666667
-106.30709 163.25352 -0.52080053 9.6499996
-106.07882 164.10217 -0.78132033 9.0334997
-106.03492 164.46613 -0.79490227 9.0264997
-106.30434 164.82979 -0.40251198 9.0194998
-106.07185 165.52127 -0.43923974 9.0229998
-106.11571 165.79393 -0.54237813 8.8458004
-106.19296 177.49983 -0.63533688 9.0369997
-106.0223 161.39349 -0.24192043 9.1328754
-106.21268 163.0952 -0.22334759 9
-106.3131 163.26598 -0.27356711 9.6000004
-106.3252 164.32057 -0.013503145 10.07
-106.23415 164.72807 -0.1706744 10.01725
-106.05807 165.76784 -0.3514584 9.0179996
-106.19599 163.12239 0.096191026 9
-106.28699 163.27081 0.27175936 10.634237
-106.09389 163.95372 0.31371313 11.0455
-106.16111 164.28273 0.243966 10.02775
-106.08747 170.30576 0.11888535 10.038
-106.01768 171.3595 0.31836972 10.0355
-106.30111 163.25217 0.53811318 10.444445
-106.38162 163.77805 0.72926408 10
-106.13063 164.16095 0.43521762 9
-106.04318 164.75284 0.44249195 9.1564999
-106.23734 165.68913 0.76640445 10.0235
-106.05792 166.59103 0.40132812 10.0285
-106.11771 166.91496 0.59680724 9.6028748
-106.12667 170.06618 0.42738932 10.033
-106.09802 170.62877 0.49098215 10.016251
-106.06815 170.98428 0.44219807 10.034
-106.22865 163.1368 1.0162296 9.75
-106.25551 163.31291 1.0305248 11.1
-106.28785 163.70596 0.91375279 9.666667
-106.28844 164.6479 0.8096869 11
-106.09354 165.51762 1.1425173 10.0155
-106.31077 165.77792 1.0331101 11.0625
-106.03399 166.38487 0.99216181 11.034
-106.13787 166.57722 0.86255151 10.530001
-106.39698 166.84413 0.84076554 11.0375
-106.34084 170.95409 1.0770291 11.0415
-106.19803 163.1087 1.3605449 10
-106.30571 163.31572 1.3481941 10.941176
-106.08829 165.14516 1.3204808 12.0435
-106.04091 165.36826 1.4959564 11.027
-106.02271 165.90991 1.4174247 11.708333
-106.08992 166.16289 1.4598187 11.707166
-106.08156 170.64388 1.2497554 11.038
-106.20964 171.64987 1.456828 11.0365
-106.24382 163.28369 1.8580941 11.933143
-106.02113 165.6187 1.8139275 11.0245
-106.16474 166.00905 1.6597313 11.0265
-106.11678 169.82671 1.8261434 10
-106.25406 170.24329 1.7524545 10.376083
-106.34855 170.70624 1.912841 11.0305
-106.19875 172.75171 1.6372055 11.036
-106.25845 163.25398 2.137851 12.4
-106.24182 169.67812 2.1723216 12.039
-106.07518 170.45268 2.0553086 11.0285
-106.16255 163.14064 2.5739603 10.5
-106.24145 163.28482 2.6848917 12.932615
-106.25687 169.76247 2.5842826 12.0345
-106.35271 170.12056 2.7994924 12
-106.13423 163.12451 2.9029448 11
-106.279 163.2899 2.9725916 13.133333
-106.18127 169.92406 3.0337491 13.045
-106.02685 170.12862 3.1118772 13.0455
-106.18954 163.18535 3.200433 11
-106.27193 163.31557 3.4565175 12.875
-106.24556 163.33728 3.7448621 14.740999
-106.37537 164.36363 3.861275 12.015
-106.34878 164.40556 3.9125779 11.1565
-106.24647 163.38254 4.1196947 13.25
-106.36391 164.33351 4.1792135 14.012
-106.12209 166.28387 4.3311782 14.371166
-106.01662 169.52676 4.0811577 14.0435
-106.30545 169.72577 4.0602589 10
-106.36099 170.38655 4.0473008 13
-106.38269 170.90387 4.1301417 13.0335
-106.10429 160.11812 4.5740919 14.06975
-106.04689 162.49593 4.6857295 13
-106.23123 163.38982 4.5264645 15
-106.15029 166.33961 4.4207668 15.0495
-106.16003 169.40384 4.5597272 13.008834
-106.30392 169.70134 4.4046617 13
-106.23698 170.22215 4.7178407 12.009
-106.36169 170.49037 4.5209169 13.0295
-106.0621 156.85852 4.8986483 13.0715
-106.14033 158.72173 5.0350676 14.075
-106.19056 159.33142 5.1925697 15.0705
-106.13994 164.07619 4.8058701 15.061
-106.02618 169.05022 4.904459 13.0255
-106.22925 170.56573 4.887681 12.003
-106.09886 175.34688 5.1489758 11.162
-106.05076 158.25288 5.5865202 15.074
-106.31078 158.52931 5.3993468 13.625
-106.00938 159.07195 5.5561943 15.0725
-106.10441 159.22128 5.4269714 15.0715
-106.04882 162.33675 5.5933962 10.022
-106.3065 163.12422 5.5526686 13.0055
-106.26498 154.80756 5.7910748 15.0775
-106.33217 159.04015 5.8450294 15.07375
-106.35751 160.06511 5.6676059 12.157
-106.32585 163.11784 5.7749577 12.840375
-106.25404 170.65742 5.8834085 14.0295
-106.37698 162.14484 6.3969073 14
-106.32864 165.27298 6.3532119 14.021
-106.14555 170.54704 6.0503674 14.0285
-106.3582 175.55763 6.212759 13.0265
-106.32009 161.36491 6.6392999 14.0075
-106.38942 163.31743 6.7239714 13.163
-106.14749 165.56198 6.7584805 13.1665
-106.16382 165.67641 6.7278395 14.52125
-106.0247 166.90306 6.619585 13.1725
-106.14906 170.43181 6.4307089 15.0595
-106.36221 173.53752 6.7879987 12.16
-106.07874 163.30684 7.1007299 14.0055
-106.14458 162.83925 7.3838539 15.0195
-106.16138 163.36555 7.4241157 14.388875
-106.00452 165.94121 7.2522821 15.0235
-106.0987 166.07265 7.27104 14.01
-106.04713 162.78456 7.6532707 11.059
-106.29962 163.36267 7.7234497 13.0631
-106.20516 154.483 8.3583612 15.166
-106.05768 154.68071 8.4916134 13.0925
-106.10618 154.91083 8.6461592 13.092
-106.24291 155.36644 8.5814981 14.62125
-106.24742 155.67247 8.7482405 13.0915
-106.14995 154.0649 9.1402979 14.0755
-106.09035 154.96783 8.8739576 14.620251
-106.14334 155.31438 8.8730764 13.091
-106.36061 155.81863 8.9383945 14.079
-105.77543 153.62349 -4.4370995 5
-105.64812 154.99434 -4.4233222 5
-105.84698 160.79367 -4.6800475 6
-105.72594 162.88213 -4.7390203 7
-105.81561 169.56265 -4.4350891 6
-105.83747 169.89436 -4.4221678 6
-105.85713 174.5959 -4.632154 6
-105.82674 174.98724 -4.6421061 6
-105.90761 150.17949 -4.2490826 3
-105.62731 150.40886 -4.1944842 3
-105.77586 151.05495 -4.2254896 3
-105.71961 152.93224 -4.2866879 5
-105.67623 153.34135 -4.3119493 5
-105.83744 154.07402 -4.286922 4
-105.69354 154.56706 -4.2637467 5.5
-105.7885 154.95302 -4.3468256 5
-105.93775 155.37134 -4.3016586 5
-105.63232 155.61273 -4.2849793 5
-105.7764 157.74095 -4.3684063 5
-105.82505 158.29674 -4.3033662 5.5
-105.79439 159.69749 -4.3394728 5
-105.78622 160.26825 -4.379951 5
-105.83469 162.54814 -4.3405232 6
-105.9026 163.64754 -4.1084385 6
-105.84037 169.84763 -4.388618 6
-105.9223 174.94478 -4.0898247 7
-105.77648 175.35634 -4.1508131 7
-105.8466 175.72987 -4.01648 7
-105.82982 175.0208 -3.9520972 7
-105.80135 175.43605 -3.8630416 7.3643336
-105.85564 179.32178 -3.6200826 7
-105.97345 175.05031 -3.2403877 7
-105.7005 175.41357 -3.3318839 8.0825005
-105.60545 175.70471 -3.5469215 7
-105.89305 179.13039 -3.3481514 8.0810003
-105.82176 179.29498 -3.5505068 7
-105.75484 179.86971 -3.3781927 7
-105.69276 179.43288 -3.0250578 8.0802498
-105.85464 167.26991 -2.5644495 8.0679998
-105.78638 179.58138 -2.6930273 8.0640001
-105.71432 167.34628 -2.2213693 8.0492001
-105.81047 167.64854 -2.1278632 8.0389996
-105.78362 171.53145 -2.0596833 8.0375004
-105.74545 174.5519 -2.0993898 8.0429993
-105.83946 174.98367 -2.1025395 8.0395002
-105.82431 179.12743 -2.1543958 8.0559998
-105.63643 179.6349 -2.2006886 8.0415001
-105.65609 167.52571 -1.9225731 8.0302505
-105.78149 167.71834 -1.9265282 8.0307503
-105.61859 168.00255 -1.8927652 8.0279999
-105.87557 172.75795 -1.9455894 8.0333338
-105.92137 174.9575 -1.9184191 8.0349998
-105.97836 165.5096 -1.2109414 9.059
-105.65282 163.11008 -0.83188009 8.1564999
-105.77191 164.90111 -0.97403854 8.0872498
-105.89576 165.31972 -0.92242479 9.0304995
-105.89401 169.4369 -1.1904039 9.0447502
-105.90456 169.70876 -1.0591818 9.0579996
-105.88157 176.56638 -0.8130374 9.0605001
-105.77533 161.95375 -0.47197446 10.0355
-105.79559 162.25377 -0.57304645 9.4607849
-105.75236 162.69295 -0.54269832 9.3636665
-105.80641 162.98882 -0.65219301 9.8417997
-105.93047 164.45232 -0.71830052 9.0255003
-105.82741 164.85982 -0.77450889 8.1785002
-105.81487 165.4801 -0.63279462 9.0234442
-105.92268 165.88922 -0.59160942 9
-105.76287 169.35387 -0.65530068 8.6652012
-105.73592 170.5114 -0.52526432 8
-105.88338 161.12386 -0.010294186 11.045
-105.93476 161.29732 -0.28074118 9.0633326
-105.65536 161.83783 -0.098967493 10.029
-105.74313 162.1768 -0.19497155 10.05925
-105.81831 162.72041 -0.34304264 10.0345
-105.76701 163.82829 -0.020000119 9
-105.95177 164.5558 -0.25737143 9.0960007
-105.77226 165.62389 -0.35732552 9.0209999
-105.81053 166.14888 -0.28797412 9.0150003
-105.80058 161.12982 0.11134311 11.0555
-105.87592 161.24248 0.11439159 11.05
-105.91363 163.91322 0.27003118 11.04575
-105.9389 164.78535 0.039004028 10.0685
-105.63094 166.97237 0.2755506 10.030499
-105.71956 167.49944 0.21280216 10.0325
-105.87729 167.66402 0.31002501 10.031
-105.82057 169.16338 0.11085758 10.0365
-105.81324 169.31342 0.20362571 10.045667
-105.99249 169.62312 0.34981191 10.0335
-105.98051 170.41925 0.19949211 10.036
-105.69872 156.83899 0.79021001 13.0405
-105.89945 164.06914 0.43131649 9
-105.76539 164.69354 0.62257594 10.698833
-105.7416 164.91167 0.52922827 11.05525
-105.7414 165.34065 0.53467208 10
-105.82722 166.22989 0.59818763 9.6732998
-105.9972 166.61299 0.65870917 10.025
-105.70101 167.76866 0.56205451 10.0275
-105.81006 169.42838 0.4564746 10.015625
-105.77039 169.91702 0.66198057 10
-105.81921 170.66904 0.67090517 10.029833
-105.9151 171.01491 0.69870186 10.0295
-105.64874 156.56056 1.0186507 12.544374
-105.6767 157.01762 0.99972391 12.796875
-105.87975 161.44389 1.132478 10.0764
-105.63915 161.93068 0.97062451 11.2335
-105.74344 162.14879 0.9653914 11.28125
-105.77736 165.88513 1.0564767 10.425
-105.76263 166.16116 0.97617471 10.072
-105.98676 166.45282 0.81234872 11.037
-105.74963 156.36284 1.3085244 14.0405
-105.73827 156.58914 1.3763479 14.052999
-105.67251 156.84784 1.3764424 14.043875
-105.77383 160.8873 1.4603294 12.54125
-105.8137 165.79311 1.4658395 11.574375
-105.79554 169.10754 1.207364 11.0355
-105.70932 156.90762 1.6098332 14.0365
-105.8861 165.93269 1.8459749 11
-105.74127 166.3976 1.8945508 11
-105.65604 169.1244 1.6239432 11.031
-105.75401 169.41255 1.8128105 11
-105.939 169.66347 1.8645552 11
-105.70044 171.29295 1.6151972 11.0345
-105.67423 156.10928 3.1018496 15.027
-105.87692 169.7863 3.140672 12
-105.84152 170.38919 3.148056 13.046
-105.66225 153.2527 3.4176478 10.152
-105.67552 152.93942 3.8238342 15.0185
-105.62628 156.37402 3.9642844 12.0625
-105.6201 162.78636 3.6216421 15.053
-105.62746 152.59184 4.3303432 12.0615
-105.63517 153.27701 4.355762 15.017
-105.63734 162.55626 4.2828708 12.089
-105.63422 163.07133 4.2666631 15.047251
-105.60575 164.56758 4.1613469 12.009
-105.79794 168.73134 4.0022674 14.0515
-105.75726 169.09531 4.0303755 14.042
-105.84084 169.32903 4.0317979 14.048
-105.97402 169.6062 4.0648017 10
-105.82646 152.60654 4.5591903 14.07975
-105.67489 156.84995 4.5427585 13.0735
-105.88544 159.24965 4.729794 15.0685
-105.93048 159.88689 4.6845312 15.067
-105.81318 161.70404 4.6818647 12.450665
-105.91284 162.07988 4.7119484 13.009501
-105.78114 162.45233 4.5885582 12.724334
-105.90331 163.18231 4.51472 12.1735
-105.80708 163.24867 4.7453213 15.062
-105.66678 164.0108 4.5688782 15.0595
-105.91335 166.16605 4.5211906 13.024
-105.89337 168.77328 4.7173834 13.026
-105.89286 170.40569 4.6426687 12.012
-105.88573 170.96855 4.7939696 13.0285
-105.75436 153.14571 4.8550024 11.002
-105.86996 159.06544 4.8827024 15.0695
-105.82176 159.77412 4.991847 15.069
-105.80101 161.62099 4.8670459 13.0155
-105.80414 162.53717 4.9884858 13.009
-105.75528 163.35796 5.0446134 15.0635
-105.64458 163.76913 4.9629264 15.0625
-105.87166 165.27109 5.1753578 15.061
-105.78259 168.55951 4.9751043 15.042
-105.9765 153.44753 5.5987062 15.0785
-105.68118 153.73706 5.2446613 14.074501
-105.81008 154.17378 5.5319257 14.0775
-105.61851 159.53477 5.3662076 15.071
-105.91635 162.7567 5.3326631 15.066
-105.93579 154.04063 5.6410389 15.078
-105.67065 173.47734 5.8024855 12.1695
-105.66411 160.28804 6.0846558 14.0145
-105.96474 163.76448 6.6196404 11.122
-105.72562 166.81685 6.6755767 14.0215
-105.72845 170.91435 6.6235871 13.005251
-105.83473 163.47916 6.9823442 14.0085
-105.97724 165.83737 6.9648561 14.0155
-105.95013 166.11467 7.1042509 15.024
-105.60963 170.62047 6.8684869 12.1595
-105.82891 171.00519 6.8948398 13.0885
-105.77269 150.87057 7.5494785 14.1495
-105.99236 163.01512 7.5454736 13.1565
-105.8349 163.52214 7.4838481 12.101
-105.71466 151.11607 7.7687016 15.169
-105.75075 163.29984 7.7422829 12.720834
-105.96505 163.75737 7.9425306 14.171
-105.60973 150.95874 8.1464891 15.1635
-105.84671 155.36372 8.3401918 14.660999
-105.82151 155.66452 8.193573 15.172
-105.95926 154.53242 8.7082014 13.09075
-105.72954 155.28735 8.5009928 14.1535
-105.99625 154.66861 8.9272938 13.091
-105.96172 155.0462 9.0903139 15.1585
-105.68715 154.62729 9.243988 14.085
-105.54154 168.2007 -5.0182199 7
-105.39543 169.46652 -4.8809824 7
-105.24447 164.40335 -4.404542 6
-105.30012 169.88774 -4.4279518 6
-105.24609 174.32799 -4.5956197 6
-105.49205 174.61668 -4.6920614 6.5
-105.44363 175.03017 -4.6053095 6
-105.51173 150.29303 -4.2135534 5
-105.27286 150.62216 -4.2067337 4
-105.4558 150.93947 -4.221828 3
-105.33054 151.51901 -4.2980828 5
-105.32068 153.48122 -4.3004756 5
-105.24193 153.94975 -4.3322144 4.5
-105.2162 154.69681 -4.3334122 4
-105.29461 155.18919 -4.3376412 5
-105.47723 155.5016 -4.3053904 5
-105.32329 155.80235 -4.3026061 5
-105.26564 156.23338 -4.317729 5
-105.34515 157.68767 -4.2813592 5
-105.35351 158.51939 -4.3574924 5
-105.37654 158.96031 -4.3784995 5
-105.28314 159.76775 -4.3450823 5
-105.25893 160.1841 -4.3725529 5
-105.47707 162.92384 -4.3472486 6
-105.27065 163.53505 -4.3648229 6
-105.35828 169.19238 -4.3615456 7
-105.2924 169.95201 -4.3492665 6
-105.44188 170.12022 -4.3109398 6
-105.29722 170.91278 -4.1763039 7
-105.43901 175.01274 -4.1476207 7
-105.35199 169.67665 -3.9058981 7
-105.46217 170.3251 -3.7277453 7
-105.2832 178.85345 -3.6811678 7
-105.29548 170.127 -3.431499 7
-105.28483 170.42264 -3.5698714 7
-105.38034 178.8681 -3.3596253 8.0600004
-105.24879 179.3642 -3.455467 7
-105.54506 179.89615 -3.4973834 7.5262499
-105.44897 167.32028 -2.5280592 7.3566666
-105.28434 174.69743 -2.4002964 8.0655003
-105.32272 166.58627 -2.0792575 8.0354996
-105.26923 166.97768 -2.19521 8.0430002
-105.46719 167.28934 -2.2291305 8.0536995
-105.5848 167.60078 -2.0374372 8.0340004
-105.37717 169.97144 -2.0437536 8.0177498
-105.58013 174.54884 -2.0681641 8.0550003
-105.4075 174.87877 -2.1513128 8.04
-105.3831 166.67758 -1.8973805 8.0297499
-105.28597 166.89925 -1.9302238 8.0290003
-105.38045 167.76048 -1.7833848 8.0158997
-105.25275 169.5316 -1.9048276 8.0314999
-105.2984 169.79097 -1.926581 8.0205832
-105.29935 170.23474 -1.9201987 8.0325003
-105.3437 170.66771 -1.932317 8.033
-105.24905 171.2072 -1.939901 8.0314999
-105.38003 175.10054 -1.8974206 8.0340004
-105.24464 179.0576 -1.8954902 8.0354996
-105.58561 169.60519 -1.2172006 9.0445004
-105.51546 162.54128 -0.84004235 9.0254993
-105.25058 169.34001 -0.87953424 8.5995007
-105.38274 170.6642 -1.0018896 9.03825
-105.37183 171.53191 -1.1096739 9.0430002
-105.49198 177.67252 -1.0304978 9.0644999
-105.39321 160.28183 -0.45268258 10.0645
-105.36535 160.74054 -0.57050997 9.0895004
-105.59412 161.99144 -0.60037816 9.0214996
-105.46838 162.19199 -0.54431814 9.7937498
-105.41518 162.6946 -0.55639172 10.04225
-105.4297 163.04115 -0.6278677 9.6290712
-105.33074 163.34334 -0.6288507 9.5352497
-105.58784 165.53615 -0.4101133 10.0415
-105.20695 168.32603 -0.50195569 8.1625004
-105.34583 169.43755 -0.62486362 9
-105.20213 169.62737 -0.71360308 9.0314999
-105.42002 170.55559 -0.60202754 9
-105.36095 160.62827 -0.071071327 10.8444
-105.26385 161.01538 -0.11880664 10.042167
-105.28265 161.8091 -0.10037372 9.4146662
-105.43015 162.17532 -0.27886823 10.0445
-105.4587 162.51842 -0.10858552 10.03
-105.3325 162.9147 -0.2646752 9.5357504
-105.38627 165.02675 -0.00067193608 10.032
-105.37154 165.54318 -0.12702638 10.0345
-105.4051 165.86404 -0.17415656 9.6953335
-105.39275 167.35016 -0.29873547 9.0185003
-105.28411 160.3688 0.29028648 10.5425
-105.30802 160.99078 0.15004012 10.789875
-105.5744 162.27361 0.39967698 9.1560001
-105.58765 164.92493 0.36472455 11.0445
-105.47292 169.30724 0.24565542 10.026125
-105.40872 156.73796 0.765365 11
-105.27746 157.0856 0.76336908 12.012334
-105.30737 159.93906 0.63637328 11.0675
-105.22443 160.12018 0.43894637 11.0645
-105.49457 160.75606 0.69684446 11.0665
-105.37762 160.88109 0.56191188 11.032499
-105.5566 161.87309 0.77406901 10.0195
-105.43092 162.20351 0.48375505 9.5885
-105.50732 165.03886 0.46242404 11.04
-105.48942 165.29936 0.53598565 10.526
-105.42509 165.60106 0.73476124 10.0235
-105.41296 166.2717 0.59505397 9.4466667
-105.28169 166.41156 0.45598727 10.027
-105.59926 168.13187 0.76268041 10.0255
-105.42106 169.33173 0.46520668 10.030875
-105.42861 169.84312 0.66643298 10.007375
-105.54773 156.37158 1.1245317 11.0385
-105.37395 156.65434 0.99565983 11.651285
-105.31697 157.04048 0.91928697 11.578221
-105.24236 157.40662 0.92860371 13.0275
-105.49892 160.59628 0.9108848 11.362834
-105.50524 160.94432 1.0542842 10.0035
-105.31245 161.54594 1.0487256 11.026
-105.44987 161.86591 0.91991365 10.887834
-105.50213 162.09489 0.84579134 9.1560001
-105.28612 168.27037 0.88137573 10
-105.22651 169.67909 0.8678807 10.026
-105.40704 170.54982 1.1375097 10.025
-105.34149 156.35117 1.4679496 13.24375
-105.38404 156.59065 1.3742776 13.086833
-105.28137 156.88591 1.3311815 13.140438
-105.23892 161.23425 1.2189738 11.024
-105.52019 161.62427 1.3199084 12.0325
-105.51727 165.87459 1.4217826 12.0445
-105.53254 168.58975 1.385021 10.011
-105.45406 174.48146 1.5396348 11.04
-105.44278 156.33125 1.8381674 14.441701
-105.35808 156.59898 1.8364712 13.197854
-105.32088 156.9733 1.7371336 14.037
-105.46992 165.59267 1.8506786 11
-105.38491 165.6743 1.7084191 11.6217
-105.43617 169.3821 1.8854781 11.0285
-105.58768 172.66866 1.650545 11.0355
-105.24482 156.29199 2.2619166 12.830701
-105.30335 156.52678 2.222801 13.183583
-105.2048 157.05472 2.2164199 14.0295
-105.2111 167.58992 2.0349958 11.025
-105.23752 169.35825 2.0102828 11
-105.23933 169.65448 2.2046123 11.026
-105.37605 156.26973 2.6506624 14.357501
-105.2578 156.58501 2.6953838 12
-105.25984 162.60387 2.6002302 14.051
-105.2578 162.86938 2.7361233 11.0035
-105.39729 151.90088 2.933306 11.0245
-105.44278 156.24989 3.0482461 14.2488
-105.28903 156.67232 2.9809046 14
-105.28519 156.97029 2.8621588 15.030251
-105.382 162.99451 3.0627892 11.1705
-105.44084 168.35252 2.8199217 13.04225
-105.5355 168.45721 2.8819816 13.0405
-105.54811 169.565 2.8917146 12
-105.25941 153.03911 3.3470526 10.179
-105.52468 153.40042 3.307606 10.506001
-105.41601 156.31076 3.3713653 12.689834
-105.25622 156.58441 3.384917 13.030643
-105.27769 162.66728 3.436764 14.718166
-105.38937 162.94093 3.4934297 12.885201
-105.28334 168.73779 3.231982 12
-105.5899 168.84009 3.2169805 12
-105.55202 169.78574 3.3311696 12
-105.59637 171.66864 3.4267695 13.042
-105.37925 153.12682 3.7728181 12.098101
-105.37817 156.7021 3.8559866 13.5
-105.23318 156.91136 3.7732806 12.532249
-105.50986 162.77356 3.7580895 14.7245
-105.37563 162.88751 3.7690709 12.7365
-105.22593 167.75935 3.8814642 14.047501
-105.29727 168.59972 3.9315519 14.0415
-105.30104 153.04041 4.2262659 13.6496
-105.43841 156.99829 4.1461473 13.025167
-105.30897 157.2906 4.2798071 13
-105.25819 160.97105 4.2709088 15.063499
-105.29862 162.91318 4.1090226 14.718999
-105.5217 164.55405 4.386641 15.036
-105.51456 169.25534 4.0257888 14.043
-105.51208 152.38715 4.787353 14.0125
-105.41386 152.74834 4.5686684 12.153749
-105.4714 153.06223 4.533772 13.744166
-105.50196 162.2636 4.6222415 13.532
-105.46911 163.92873 4.672658 15.0605
-105.4387 164.19664 4.4262495 15.058
-105.20564 166.8951 4.6765909 14.062
-105.40635 167.36084 4.6805491 15.0415
-105.20647 151.5892 5.0036144 13.172
-105.31079 152.21443 5.1003079 14.512
-105.30052 152.4427 5.1128173 12.1525
-105.46745 152.99297 4.9232683 13.878099
-105.41328 153.49306 4.9254851 14.075
-105.37388 153.68567 4.8982716 12.61075
-105.33958 154.22772 5.1928816 14.0785
-105.28149 161.24272 5.120677 15.0675
-105.54453 161.74637 5.0719161 12.5875
-105.28694 162.0377 4.9470787 15.065
-105.36671 166.82976 4.8462286 15.0555
-105.23943 151.42731 5.2649231 14.51025
-105.25486 151.61057 5.2757502 13.1665
-105.40391 152.19794 5.3735156 14.09
-105.51514 153.16092 5.2403193 13.067
-105.4362 153.38988 5.2217779 13.0655
-105.42983 161.45949 5.3641772 15.0685
-105.27457 163.53041 5.3452454 13.014
-105.56251 163.69067 5.5669961 13.0085
-105.43876 164.12016 5.2248149 12.163
-105.55843 166.90683 5.201766 15.058
-105.31534 151.9014 5.8674903 13.1565
-105.2044 152.06294 5.7208343 13.159
-105.37826 173.72044 6.1790657 13.0245
-105.51079 150.80893 6.7841845 11.126
-105.20437 150.57899 6.9923687 11.1265
-105.56577 170.87428 7.1312137 13.174
-105.25044 150.35759 7.2494674 14.1555
-105.46391 151.12389 7.3757958 14.665251
-105.43793 150.69212 7.7627773 14.302167
-105.24133 150.37985 8.1838503 15.163
-105.37614 163.84999 8.6308584 15.0085
-105.42047 164.02975 8.4187756 14.1655
-104.94602 170.4576 -5.0773191 7
-105.12122 159.58078 -4.4612522 7
-104.90991 160.67288 -4.7728729 7
-105.16366 169.97464 -4.4594307 6
-104.85231 170.07478 -4.4480991 6
-104.96706 170.70699 -4.452364 6
-104.86974 173.9734 -4.658258 6
-105.05952 174.17555 -4.6628036 6
-105.00396 174.9391 -4.6081848 6
-105.11917 150.21646 -4.186697 3
-105.05052 150.67697 -4.2041507 3
-104.99319 150.93922 -4.2143722 3
-104.8568 151.42889 -4.2373586 5
-104.94444 153.85417 -4.3355618 4
-105.08787 154.28412 -4.3441138 5
-105.04739 155.42625 -4.3426538 5
-105.07885 157.53929 -4.3232656 5
-104.94225 158.27138 -4.2991204 5
-104.99631 158.53458 -4.3372073 5
-105.06091 158.88097 -4.3840947 5
-104.82287 159.35228 -4.3309331 5
-105.11765 159.6364 -4.3507981 5
-104.90588 160.21602 -4.3773923 5
-104.96151 169.88145 -4.3305073 6
-104.96124 170.16019 -4.1905637 6.5999999
-105.07553 178.64532 -4.227684 7
-105.09708 179.02805 -4.182909 7
-104.8798 170.39214 -3.6201813 7
-104.979 178.19398 -3.8422182 7
-105.08501 170.26373 -3.3397796 7
-105.07355 170.63075 -3.4078376 7
-104.97822 179.34784 -3.557147 7
-104.96747 167.38484 -2.9502459 8.0462494
-104.97224 170.2359 -3.1405714 7
-104.89091 170.47031 -3.1730514 8.0640001
-105.0014 171.34975 -2.9273646 8.0415001
-104.98653 179.15633 -3.0428348 8.0810003
-104.99953 167.37669 -2.5137076 8.0554991
-105.16137 169.27014 -2.6706746 8.0640001
-104.85439 171.32324 -2.4075172 8.0625
-104.91883 178.09291 -2.5542762 8.0635004
-105.04978 178.67085 -2.7043836 8.0684996
-105.10931 167.0475 -2.2382717 8.0516672
-104.97791 167.33086 -2.2732162 8.0507994
-105.09767 168.69479 -2.1917329 8.0550003
-105.06437 169.4269 -2.2321606 8.05725
-104.96672 170.33813 -2.1674283 8.033
-105.19922 174.75365 -2.228693 8.0530005
-104.97353 161.55281 -1.7008749 8.0190001
-105.0454 161.61128 -1.7101648 8.0187502
-104.85275 164.06679 -1.7281178 8.1359997
-105.13116 166.69505 -1.9122362 8.0290003
-105.02845 167.47838 -1.7615082 8.023572
-105.17419 168.85284 -1.8739803 8.0290003
-105.08373 169.4579 -1.8512741 8.0099993
-105.15032 169.62164 -1.8357111 8
-105.07039 170.1933 -1.8705608 8.0295
-105.12751 170.74927 -1.8777449 8.0292501
-105.0069 171.01508 -1.8686814 8
-105.17282 178.9987 -1.9276291 8.0360003
-105.0065 161.5415 -1.4841031 9.0473747
-104.96861 161.60562 -1.4944855 9.0531664
-104.81965 163.87057 -1.3647183 9.0389996
-105.00683 168.19731 -1.2313977 9.0418749
-104.93483 169.59712 -1.3105643 9.0644999
-104.87793 160.30447 -0.83501107 9.1040001
-105.05826 162.51469 -0.87065399 8.5912495
-104.88239 163.12061 -0.91931534 9.0411253
-104.80617 165.72983 -0.83486468 9.0295
-104.82499 166.70555 -1.0010597 9.033
-104.90261 167.99675 -1.0961361 9.0375004
-104.8911 168.09021 -1.1030546 9.0375004
-105.00229 169.12936 -0.91984826 9.0340004
-105.05743 169.95937 -0.85061169 9.0167503
-105.16994 170.64265 -1.1242473 9.0415001
-104.96583 159.87375 -0.62149 9.0625
-104.95045 160.2657 -0.59736377 9.611167
-104.96214 160.5331 -0.52034914 9.8756666
-105.0393 162.1769 -0.59550059 9.9123125
-104.91889 162.51204 -0.69566292 9.420166
-104.81565 162.95985 -0.64649135 10.047
-104.89825 163.30121 -0.53738534 9.5415001
-105.07674 163.69997 -0.60075206 10.044
-104.87946 164.78505 -0.55960286 9.0539999
-104.81841 164.91667 -0.6718722 9.0249996
-104.80576 166.78966 -0.80006152 9.0299997
-104.88869 167.43123 -0.78022671 8.158
-104.94054 168.12645 -0.58037663 9.0170002
-104.96481 169.15529 -0.79726863 9.0325003
-105.09515 169.35785 -0.59496826 8.8058748
-105.05975 169.6185 -0.6947602 9.0299997
-105.08743 178.41791 -0.64925307 9.0495005
-104.82621 159.95271 -0.14531071 10.722
-104.9328 160.21173 -0.29346827 10.0618
-104.81864 160.69821 -0.35486394 10.0655
-105.08377 161.01013 -0.13823168 9.7708082
-104.90904 161.33234 -0.23898803 9.0565004
-105.12312 161.75774 -0.075803019 10.05675
-105.03281 162.26857 -0.17818682 10.05
-105.19757 163.01146 -0.31492001 10.0625
-104.82461 165.42719 -0.048975542 10.0325
-105.1334 165.61353 -0.20097159 10.036
-105.02145 167.89359 -0.31951913 9.0220003
-105.06409 168.16133 -0.36276934 9.0237503
-105.07761 169.29353 -0.36598885 9
-104.89906 159.61877 0.27467424 10.0735
-105.09418 160.3002 0.22282225 11.034
-105.0284 160.54396 0.30847174 10.731999
-105.03629 160.94446 0.069637276 10.700334
-105.15534 161.34126 0.21048747 10.04875
-104.99074 161.85681 0.11338321 10.53125
-104.99253 162.16011 0.2665652 9.1584997
-104.8782 163.14349 0.10004506 10.0275
-104.81614 165.09058 0.15352093 10.019
-104.92475 165.34492 0.12832239 10.01475
-105.18775 169.43242 0.30443805 10.0335
-104.98848 170.19704 0.3155424 10.067
-104.98451 171.20956 0.36384818 10.0665
-105.05255 160.11731 0.58871686 12.0515
-105.04307 160.78462 0.50203216 11.032
-105.09092 160.89471 0.54975075 11.06425
-105.01011 161.52831 0.79486364 10.019
-104.90279 161.77847 0.69915408 11.53825
-105.13161 165.48932 0.4970305 11.041
-104.98283 166.48213 0.59711808 10.53275
-105.19363 167.5569 0.52564019 10.0275
-105.02261 169.32474 0.69130647 10.009666
-104.82162 169.96474 0.7773754 10
-104.98108 170.09404 0.68369955 10.0285
-105.16614 172.76566 0.53560084 10.0345
-105.18591 156.78035 1.0601479 12.5135
-105.05986 157.02762 1.022938 11.959275
-105.07188 157.31714 0.99772114 12.63675
-104.86349 159.95638 1.147632 12.031
-104.88878 160.09712 1.1092293 11.07325
-105.04053 160.6133 1.0417966 12.034
-105.1937 161.01517 1.0321876 10.00625
-105.01337 161.50681 0.92105001 10.367001
-105.08079 161.81241 0.94938117 11.750895
-104.98071 169.16177 1.0156095 10
-105.00158 169.44423 0.92850053 10
-105.11656 156.35962 1.4952147 13.333333
-105.12267 156.6815 1.4456117 12.405001
-105.00999 157.02602 1.4429352 12.976796
-104.95399 157.29436 1.3707006 13.025643
-104.81039 160.20197 1.3099608 13.0455
-105.1802 165.91551 1.4352844 12.0425
-105.05283 156.29765 1.7503879 13.023142
-105.04916 156.60303 1.8517261 13.920557
-104.96319 156.98869 1.8295147 12.785411
-104.96432 157.43282 1.9125085 13
-104.8688 162.59869 1.8305155 12.0295
-104.95965 163.2036 1.8264546 10.1625
-105.07474 167.7431 1.7157077 12.051
-105.17309 169.00931 1.9841447 11
-105.04968 173.5385 1.6914543 11.036
-105.11505 175.37187 1.7653058 11.0555
-104.99312 156.25955 2.171946 13.75
-105.01242 156.60085 2.1931295 13.736742
-104.93124 156.95845 2.1903064 13.393594
-105.05414 157.26938 2.1075344 13.0255
-104.83797 162.63951 2.189961 12.026751
-104.87538 163.05798 2.2033615 11.3015
-104.89212 169.51598 2.2743578 11
-104.86974 169.76003 2.2963362 11
-105.0616 156.22487 2.5043352 13.79375
-105.02134 156.56607 2.6107137 14.199682
-104.98405 156.86044 2.5997553 13.890344
-104.99973 157.278 2.6418574 14.697001
-104.9459 162.65045 2.6506588 14.037313
-105.01719 162.82736 2.4994004 11.0135
-105.04308 163.26009 2.6775825 10.583
-105.14297 168.57991 2.7918572 13.044
-104.90267 169.08382 2.5738277 11.52825
-105.05902 169.37099 2.468179 11.344501
-105.06097 156.27225 2.9091678 13.333333
-105.06552 156.57683 2.9713051 13.502749
-104.95156 156.91661 2.9446976 13.393562
-104.98571 162.65285 2.9621215 14.037875
-105.1412 162.82706 2.9400094 11.1745
-104.97318 168.12985 3.0470786 13.0375
-105.10737 168.62302 2.9217441 13.04
-105.03807 168.81624 2.8864717 13.0425
-105.08108 152.85675 3.4845796 13.0135
-105.02012 156.20305 3.2323194 15
-105.04986 156.58339 3.3804042 14.4051
-104.9998 156.9725 3.4244227 13.237778
-105.06982 162.73209 3.4950197 14.279375
-105.01413 162.84447 3.4754734 13.278
-104.89848 164.11465 3.3714571 14.0575
-104.87223 168.39296 3.5925355 12.0245
-105.09724 168.72478 3.3548381 12.012751
-104.90953 170.65262 3.2947886 12.0295
-105.05276 153.02832 3.8774137 13.049333
-105.03687 156.31699 3.6779475 14.265875
-104.94561 156.48622 3.6375825 12.066
-105.0565 157.01501 3.8111885 14.153214
-104.97507 160.94496 3.9203598 14.0675
-105.02741 162.75029 3.7067888 14.0474
-104.98457 162.84479 3.8115931 13.5
-104.91062 163.79144 3.6857514 14.061
-105.01508 164.27745 3.8186872 14.801875
-104.89429 167.47015 3.7012379 13.370667
-105.09058 167.71786 3.7348783 13.037251
-104.93359 168.1617 3.6779907 12.024
-105.1405 153.261 4.1104188 14.04775
-105.04431 157.24695 4.0628772 15.0685
-104.85221 160.92667 4.0438633 14.0685
-104.99342 164.20294 4.2005363 15.0555
-105.02251 166.96605 4.2180166 11.157
-105.02331 153.1438 4.4015384 14.014
-105.09075 153.44301 4.601687 13.0725
-105.05455 153.68468 4.6932631 15.0765
-104.97501 161.01682 4.5621791 14.568001
-105.00993 163.94629 4.5358195 15.0595
-105.14742 166.78661 4.5074453 11.159
-104.87754 167.10063 4.6208081 15.051
-105.06281 151.04887 4.9827437 14.0105
-104.92857 151.38435 5.0412974 12.844124
-104.98836 151.66631 5.0450959 14.011
-105.07294 152.19527 5.00561 13.45925
-105.06873 152.45033 4.9677458 13.1755
-105.04934 153.14307 4.9381833 13.58325
-105.11129 154.06027 4.9024243 15.077
-105.03738 161.15126 4.8812394 15.0665
-105.0414 166.71655 4.965302 15.0565
-104.8912 166.94673 4.8276391 15.055
-104.81655 168.29236 5.0137072 15.052
-104.83632 151.04607 5.3148694 13.166
-104.83822 151.42259 5.3946276 13.00625
-105.03415 151.89873 5.3732529 14.299874
-105.0536 152.18436 5.4112177 14.0085
-105.17005 151.31638 5.6397715 15.012
-105.09885 151.86664 5.6772804 14.50925
