# .PCD v0.7 - Point Cloud Data file format
VERSION 0.7
FIELDS x y z intensity
SIZE 4 4 4 4
TYPE F F F F
COUNT 1 1 1 1
WIDTH 1076
HEIGHT 1
VIEWPOINT 0 0 0 1 0 0 0
POINTS 1076
DATA ascii
-179.68559 -117.00037 12.238128 9.1094999
-179.98683 -116.51066 12.185967 9.1195002
-179.78851 -117.45751 14.829498 10.107
-179.82179 -116.77712 17.705156 11.1095
-179.91299 -115.95272 17.674305 11.13
-179.47519 -116.69431 12.289487 9.1420002
-179.58347 -116.66232 14.531289 10.116
-179.21269 -116.63017 14.8781 10.1095
-179.43837 -115.80955 14.814284 10.097
-179.39928 -117.26133 17.790136 11.1005
-178.95364 -117.09187 12.422831 9.1304998
-179.17549 -116.14233 14.880257 10.1125
-178.61497 -92.56147 10.335902 9.0900002
-178.76625 -116.78253 14.911945 10.1045
-175.95107 -117.59733 12.39747 9.1400003
-175.76013 -117.70652 14.822519 10.138
-173.86652 -119.37148 12.175599 9.1455002
-173.81316 -118.94471 12.176763 9.1444998
-173.93373 -118.78844 12.353288 9.1450005
-173.4093 -119.00178 12.339987 9.1450005
-171.97763 -119.96954 11.585595 9.1534996
-171.67622 -98.252647 14.222794 10.0915
-171.43451 -97.246338 9.9898415 9.0909996
-171.3372 -97.283646 10.15021 9.0882502
-171.52748 -97.147224 10.041692 9.0895004
-171.48784 -96.467361 10.348275 9.1376257
-171.38326 -96.381569 10.326123 9.1359997
-171.21678 -99.99752 10.782526 9.0915003
-171.33711 -96.740944 12.281911 10.117
-171.43929 -98.490234 14.605613 11.101
-171.06625 -97.386292 10.151065 9.0890007
-171.12898 -99.901627 10.692856 9.0915003
-171.04448 -97.397079 10.407106 9.1389999
-171.05965 -97.272415 12.376819 10.0925
-170.70872 -93.598145 9.8510256 9.0865002
-170.54539 -99.239159 10.209923 9.092
-170.48488 -98.351051 11.241003 9.092
-170.44597 -91.859482 11.920788 10.1215
-170.49173 -100.65096 12.409932 10.102
-170.58165 -92.896339 12.512111 10.0885
-170.62383 -102.16407 13.007718 10.0915
-170.48064 -97.734619 13.026143 10.092
-170.76559 -96.432236 13.195155 10.092
-170.17754 -99.528534 10.161452 9.0897503
-170.23251 -101.29173 12.676546 10.131
-169.64362 -98.969589 10.043681 9.0889997
-169.9398 -96.972321 10.274107 9.1289997
-169.82948 -96.768555 10.274856 9.092
-169.85535 -102.23888 13.116657 10.0925
-169.64316 -103.75898 13.256055 10.0925
-169.73109 -98.487183 14.304451 11
-169.84888 -98.059235 14.385787 11.1315
-169.70882 -97.780334 14.346397 11
-169.71973 -103.31021 14.90138 11.1545
-169.55547 -100.20973 10.116348 9.0895004
-169.50362 -99.988503 10.141625 9.0924997
-169.37135 -98.10688 10.128804 9.1000004
-169.35384 -95.663437 10.268278 9.0904999
-169.55128 -100.18777 10.522508 9.1339998
-169.30461 -97.049416 10.568056 9.092
-169.42278 -109.56035 11.129624 9.1429996
-169.56653 -108.97044 11.235963 9.1435003
-169.3945 -103.15018 12.307315 10.1125
-169.25124 -97.37973 12.150661 10.056749
-169.22137 -97.199654 12.078135 10.1175
-169.54033 -98.53215 14.179708 11.072001
-169.23909 -98.139763 14.242959 11
-169.29065 -97.743446 14.316127 11.133
-169.43549 -98.216766 14.411103 11.107
-169.20018 -104.1498 14.983729 11.1425
-168.9227 -93.850296 8.0331373 8.1370001
-169.10326 -96.750854 9.9580278 9.0904999
-168.99323 -95.785645 9.8690786 9.0874996
-168.90543 -93.774399 9.9196997 9.1370001
-168.8566 -90.77668 9.6849718 9.1350002
-169.09862 -99.656387 10.230634 9.0909996
-169.02422 -99.308151 10.181259 9.0992498
-168.88454 -98.485817 10.214654 9.046833
-168.99957 -98.203827 10.256211 9
-169.04036 -97.849525 10.297047 9.0265999
-169.00975 -97.3992 10.2012 9.1014004
-169.00098 -97.111969 10.19636 9.0993328
-169.033 -96.7817 10.238162 9.1324997
-169.02782 -96.029999 10.187293 9.1142502
-169.08296 -95.878342 10.231935 9.1112499
-169.07599 -108.93489 10.697833 9.0935001
-169.19255 -96.291656 10.598072 9.0909996
-169.11243 -108.57378 10.882285 9.1114998
-168.83163 -107.85437 10.806892 9.0939999
-169.00772 -104.65781 11.002116 9.0930004
-169.0309 -110.00068 11.286706 9.1440001
-168.81277 -109.13666 11.205493 9.1435003
-169.08029 -97.2211 11.817187 10.142
-168.87906 -98.697113 12.191934 10.104
-168.88321 -98.104591 12.146629 10
-169.00923 -97.802048 12.247833 10.078501
-168.90683 -97.410934 12.092629 10.1035
-168.88478 -96.92453 12.298556 10.059001
-168.90703 -104.18769 12.542272 10
-169.02682 -102.49061 12.479154 10.12
-168.81703 -97.681824 12.473143 10.09
-168.93562 -96.892113 12.594981 10.0915
-168.87099 -96.545044 12.566557 10.0905
-169.03618 -93.940605 12.427989 10.089
-169.01366 -98.420097 13.15077 10.093
-168.95471 -98.914459 13.226327 10.093
-168.98001 -91.277481 13.419507 11.107
-168.81171 -98.47464 13.963913 11.1105
-168.88446 -98.520966 14.19315 11
-168.93939 -98.169945 14.243478 11.027201
-169.01558 -97.899353 14.295398 11
-168.80835 -92.802361 14.259874 11.0895
-168.87753 -102.24807 14.643887 11.1235
-169.01332 -104.77631 14.944128 11.1405
-168.87234 -98.929657 15.065506 11.089
-169.0988 -103.86646 15.295285 11.093
-168.90274 -103.49792 15.7851 11.0935
-168.64119 -90.277832 9.4027681 9.0889997
-168.58398 -99.125366 9.9358654 9.1014996
-168.6241 -90.167114 9.6773653 9.0900002
-168.63408 -101.395 10.315219 9.1420002
-168.67142 -100.57787 10.105065 9.0913324
-168.50467 -99.400093 10.25027 9
-168.60605 -98.969452 10.344254 9.0465002
-168.60565 -98.555481 10.174089 9
-168.63293 -97.521355 10.161681 9.0306664
-168.54346 -109.54181 10.68576 9.1059999
-168.46594 -104.17378 10.65379 9.1402493
-168.52214 -103.91908 10.421617 9.0930004
-168.73982 -97.212769 11.593401 10.147
-168.47462 -92.673492 11.3327 10.1405
-168.56306 -98.857407 11.927656 10.15
-168.59019 -98.545639 11.951326 10.142
-168.48561 -97.113632 11.870476 10.143
-168.46034 -95.717613 11.816922 10.1
-168.60814 -95.388107 11.600023 10.1415
-168.62643 -99.027931 12.236629 10.047833
-168.65211 -98.578728 12.141907 10.070499
-168.57591 -98.200409 12.157392 10
-168.5773 -97.825249 12.206894 10.023624
-168.65558 -97.456268 12.238933 10.0626
-168.56999 -96.949814 12.081017 10.1369
-168.71996 -96.503426 12.121814 10.13075
-168.45833 -95.483833 12.020857 10.0975
-168.49167 -107.83867 12.768979 10.149
-168.61174 -103.32486 12.650372 10.101
-168.62515 -100.97903 12.497002 10.1115
-168.4521 -97.794037 12.492466 10.089
-168.79375 -96.764297 12.61285 10.09
-168.72812 -104.17522 12.963499 10.091
-168.70183 -96.607254 12.867431 10.092
-168.45544 -96.270203 13.165556 10.092
-168.76962 -108.24168 13.275221 10.14375
-168.5334 -98.854637 13.863387 10.62
-168.59059 -98.763985 13.965465 11.1465
-168.59566 -98.257782 13.690454 10.0925
-168.73123 -93.921555 13.872181 11.1335
-168.73064 -93.462601 13.778576 11.13475
-168.67677 -102.77303 14.333403 11.1125
-168.56898 -99.967361 14.330536 11.102
-168.5392 -98.864334 14.206348 11.05075
-168.47888 -98.543091 14.252174 11.122875
-168.72824 -98.289215 14.286986 11.065001
-168.70076 -93.273041 14.127399 11.091
-168.51578 -92.43924 14.391153 11.0875
-168.49512 -102.619 14.654045 11.132
-168.40468 -102.1555 14.463392 11.12
-168.66545 -98.698151 14.486614 11.099
-168.50504 -104.89511 14.994614 11.14075
-168.51672 -104.54235 14.98406 11.146749
-168.54958 -104.36389 14.915736 11.1415
-168.68982 -103.85274 14.893091 11.155
-168.77046 -98.911522 15.15646 11.09
-168.60591 -104.11919 15.43826 11.091625
-168.65735 -103.10777 15.784861 11.093
-168.25369 -92.666542 9.5617485 9.0865002
-168.09396 -91.470406 9.4808149 9.0860004
-168.11931 -97.706245 9.9942331 9.0985003
-168.21353 -97.570099 9.9430676 9.0944996
-168.02882 -94.44931 9.7468939 9.0880003
-168.21071 -90.527687 9.6872196 9.1342497
-168.19821 -104.16574 10.257332 9
-168.16409 -103.67836 10.201134 9
-168.11957 -103.32804 10.291061 9.066
-168.23347 -99.341522 10.316048 9
-168.10033 -99.163086 10.124869 9.11625
-168.00407 -98.600182 10.184333 9
-168.32761 -108.83588 10.752815 9.1450005
-168.07057 -104.86536 10.454413 9
-168.1151 -104.41754 10.460384 9.1210003
-168.29166 -109.71747 11.094543 9.1350002
-168.19244 -108.48808 10.848764 9.1444998
-168.10313 -108.26329 10.840796 9.1424999
-168.12074 -94.09404 11.472182 10.1405
-168.06807 -97.617897 11.768886 10.1485
-168.10069 -95.392288 11.79946 10.11725
-168.19618 -95.062927 11.880894 10.103001
-168.22427 -94.622307 11.875022 10.12
-168.24113 -94.275215 11.867655 10.128
-168.015 -93.230278 11.760232 10.1275
-168.10835 -104.2104 12.281244 10
-168.1068 -98.962975 12.317674 10
-168.19131 -98.672546 12.18281 10
-168.16652 -98.325386 12.18403 10.087833
-168.09653 -97.601547 12.195254 10.1395
-168.23756 -97.452682 12.156733 10.0945
-168.01562 -108.33434 12.608087 10.115
-168.32924 -104.41924 12.711987 10.1015
-168.0506 -104.22923 12.456511 10
-168.14055 -103.55959 12.499665 10
-168.37305 -102.66789 12.545111 10.127
-168.04814 -101.62527 12.640138 10.09
-168.19243 -101.48013 12.552647 10.091
-168.0291 -99.012917 12.674256 10.0915
-168.23793 -97.695396 12.479733 10.0915
-168.11324 -93.864876 12.775212 10.0915
-168.04016 -91.688728 12.536448 10.0905
-168.32591 -107.3204 13.103439 10.1395
-168.14851 -94.17334 12.825398 10.0915
-168.27109 -102.89087 13.423784 10.09425
-168.20329 -100.08081 13.344433 10.0935
-168.38795 -98.567284 13.216299 10.093
-168.38376 -100.46889 13.961216 10.093
-168.03604 -104.06822 14.392917 11
-168.17677 -103.69252 14.352184 11.113
-168.15265 -100.63484 14.23318 10.61275
-168.21931 -100.33858 14.378681 11.131
-168.28563 -99.859314 14.326515 11.1225
-168.08505 -99.382294 14.220974 11.044666
-168.22638 -98.984413 14.227023 11.035832
-168.19699 -98.712151 14.25185 11.044833
-168.33484 -93.863655 14.265387 11.09
-168.09732 -92.904068 14.279998 11.0885
-168.18616 -104.03696 14.669155 11
-168.11115 -103.29143 14.689265 11.1095
-168.0341 -102.68615 14.590222 11.134
-168.123 -100.54314 14.403538 11.105
-168.12248 -98.948227 14.476292 11.04675
-168.11679 -98.402519 14.573359 11.092
-168.11423 -105.05794 14.983838 11.138
-168.39841 -104.7098 15.104739 11.1425
-168.1926 -103.06986 14.840767 11.099
-168.35268 -104.61821 15.256202 11.0915
-168.2923 -104.36452 15.393217 11.091
-168.36386 -103.1908 15.751108 11.0925
-167.92944 -92.497208 9.4391451 9.0895004
-167.80508 -91.939812 9.5979223 9.1149998
-167.62753 -91.529449 9.5405903 9.0889997
-167.94347 -94.473022 9.852685 9.1370001
-167.91798 -94.056602 9.6874971 9.0869999
-167.95119 -93.674187 9.8352842 9.1195002
-167.82399 -93.26403 9.8479853 9.1274996
-167.9178 -92.112595 9.6031199 9.0869999
-167.94739 -91.998428 9.6388807 9.0880003
-167.76828 -104.6068 10.299172 9.0939999
-167.82233 -104.29778 10.307401 9.0454998
-167.62561 -103.73651 10.337399 9.1064997
-167.97237 -99.250786 10.237723 9
-167.70894 -98.996552 10.062572 9.0445004
-167.95158 -98.621452 10.175179 9.1122494
-167.73964 -105.47537 10.440534 9.0915003
-167.76555 -104.9789 10.440856 9
-167.70676 -103.78557 10.531316 9.0672493
-167.92886 -103.52985 10.47369 9
-167.68364 -101.66812 10.512 9.0939999
-167.77132 -101.41742 10.662003 9.09375
-167.62863 -110.30602 10.877562 9.1455002
-167.83411 -109.67235 11.103976 9.0965004
-167.67746 -109.42998 11.137499 9.0965004
-167.66008 -108.88666 10.959162 9.1118336
-167.70178 -108.46054 11.000442 9.1379995
-167.91319 -98.616699 11.11691 9.092
-167.85379 -93.240311 11.424686 10.1395
-167.661 -93.164848 11.597486 10.1365
-167.72212 -92.437164 11.527677 10.1345
-167.78091 -92.004822 11.302228 10.1075
-167.62041 -98.719803 11.827836 10.152
-167.61403 -97.925842 11.749263 10.1445
-167.99376 -95.545609 11.83517 10.1375
-167.75499 -94.985672 11.84366 10.11875
-167.99637 -94.597069 11.733397 10.1355
-167.87706 -94.051384 11.882562 10.093
-167.77953 -93.348717 11.739501 10.1295
-167.98053 -92.256271 11.681964 10.127
-167.89708 -104.3531 12.271363 10
-167.63477 -99.953499 12.242754 10.108
-167.85225 -99.389961 12.245426 10.089334
-167.81602 -98.956146 12.150367 10.0187
-167.73322 -98.166908 12.221978 10.135
-167.90395 -97.786987 12.116826 10
-167.8748 -97.401497 12.103087 10
-167.64822 -104.31274 12.411921 10.104
-167.72998 -103.82264 12.483898 10.0355
-167.79778 -103.42378 12.519935 10.05475
-167.88942 -101.16243 12.532626 10.092
-167.71176 -99.34993 12.675508 10.0925
-167.88322 -98.005661 12.582016 10.092
-167.78294 -97.730293 12.566092 10.09075
-167.73433 -108.04059 12.999283 10.094749
-167.91231 -107.91615 12.926847 10.1115
-167.87651 -101.34589 13.086036 10.0935
-167.96599 -99.259323 13.027322 10.093
-167.6501 -99.143784 13.333711 10.093
-167.82591 -95.72847 13.789624 11.113
-167.75305 -93.344818 13.664684 11.099
-167.75299 -104.64926 14.387269 11.1135
-167.77144 -99.714958 14.30057 11.139
-167.87602 -99.319405 14.192086 11
-167.92062 -98.883858 14.296933 11.046833
-167.72661 -92.932564 14.302516 11.087
-167.83586 -104.20634 14.546944 11.034667
-167.87357 -103.72208 14.660813 11.053249
-167.74472 -103.44407 14.762286 11
-167.88269 -103.07649 14.46026 11.148
-167.93152 -101.07543 14.587726 11.0945
-167.9986 -99.624283 14.472198 11.0995
-167.80229 -99.485764 14.557305 11.094
-167.86334 -104.58512 14.929667 11.1555
-167.20258 -91.895386 9.522192 9.092
-167.32401 -98.982979 9.9711456 9.0900002
-167.40236 -94.520905 9.7720518 9.0909996
-167.59151 -94.156693 9.8930168 9.1300001
-167.58582 -91.330658 9.6592226 9.1215
-167.56544 -108.76621 10.335483 9.1505003
-167.47217 -105.01996 10.393937 9.0944996
-167.33176 -104.65436 10.200272 9.0959997
-167.40805 -104.23746 10.375531 9.0925007
-167.55658 -103.92292 10.316427 9.1094999
-167.37128 -99.848518 10.192977 9.1415005
-167.41319 -99.565094 10.326101 9.1377506
-167.58047 -108.85826 10.615369 9.0955
-167.49118 -108.68636 10.71919 9.0950003
-167.59811 -104.43224 10.458879 9.1099997
-167.5668 -104.02696 10.482865 9
-167.3347 -99.688728 10.635814 9.0930004
-167.37869 -109.38078 11.057974 9.1394997
-167.43607 -109.0352 10.950325 9.1420002
-167.58188 -108.0446 10.845296 9.1295004
-167.45088 -93.300873 11.566852 10.135
-167.40353 -99.120865 11.924096 10.14625
-167.59772 -98.732445 11.952289 10.1015
-167.35399 -94.992157 11.845827 10.118999
-167.3438 -94.254272 11.779472 10.13125
-167.42819 -93.906708 11.678769 10.1375
-167.49193 -93.402878 11.746355 10.132
-167.52866 -93.195992 11.740632 10.091
-167.45512 -92.279091 11.619818 10.129
-167.20052 -100.37347 12.147961 10.105
-167.34428 -98.920517 12.110719 10
-167.42812 -98.597633 12.189569 10.075166
-167.59839 -104.63875 12.518538 10.096
-167.59998 -99.103455 12.672328 10.091
-167.51045 -109.63441 13.007245 10.109
-167.3801 -107.78531 13.103169 10.093
-167.38397 -97.269363 13.038971 10.0925
-167.35724 -92.885117 13.149766 11.141
-167.45549 -101.1809 13.347922 10.094
-167.56334 -93.060371 13.44424 11.1365
-167.44417 -92.00975 13.485497 11.127
-167.30266 -96.597382 13.785881 11.1135
-167.31273 -103.6659 14.720949 11
-167.43457 -103.36962 14.569592 11.136749
-167.36191 -102.80715 16.454294 12.1165
-166.85718 -94.754402 9.5871811 9.0874996
-167.03146 -94.290527 9.5342941 9.1405001
-167.198 -98.852188 9.9497013 9
-166.92833 -94.938614 9.7080374 9.1389999
-167.10036 -94.207748 9.7434902 9.1075001
-167.04697 -104.66466 10.383015 9.1440001
-167.14758 -104.16508 10.309163 9.1440001
-166.91078 -100.58961 10.299546 9.1415005
-167.16206 -100.07808 10.352594 9.0935001
-166.89478 -112.213 10.776768 9.1525002
-167.05641 -108.80854 10.712688 9.1035004
-167.10463 -104.12972 10.502983 9.0944996
-166.99652 -110.06436 10.875613 9.1192503
-167.13112 -109.93035 11.020731 9.1269999
-167.00819 -109.46008 11.095131 9.1422501
-167.02937 -92.909271 11.567265 10.13575
-167.13828 -92.120979 11.56095 10.1345
-167.04329 -91.833939 11.475318 10.1355
-166.92741 -99.591133 11.900002 10.1495
-166.93219 -94.982452 11.764853 10.134501
-166.91139 -93.859825 11.947889 10.087999
-167.07161 -93.514763 11.913586 10.087749
-166.87277 -92.893982 11.853879 10.087501
-166.95215 -92.637924 11.757997 10.0895
-167.16025 -100.58206 12.287053 10.096334
-166.97707 -99.843903 12.332311 10.091
-166.96024 -98.933777 12.238187 10.11525
-166.80431 -93.740219 12.026465 10.0875
-166.94102 -104.66135 12.492681 10
-166.96619 -104.07202 12.484316 10.11
-166.95091 -97.617271 12.783316 10.0925
-166.83176 -108.87139 13.174982 10.093
-167.0356 -108.41549 13.146948 10.159
-167.12398 -100.8848 13.196726 10.094
-167.00624 -111.71826 13.364905 10.1395
-166.91705 -109.08791 13.258739 10.0935
-166.88588 -101.67091 14.251303 11.103
-167.03003 -100.8765 14.261274 11.1315
-166.84688 -99.089897 14.087173 11.1045
-167.16203 -105.1464 14.62459 11.1045
-166.80241 -104.54379 14.611323 11.107
-167.0825 -104.16206 14.617741 11.133
-167.08331 -103.76276 14.631264 11.113
-167.02652 -103.29132 14.511232 11.1345
-166.91348 -105.25999 14.950905 11.156
-166.823 -103.70287 16.301041 12
-166.53505 -95.303841 9.587678 9.092
-166.76315 -95.18615 9.7386961 9.0895004
-166.62163 -100.90739 10.392742 9.1365004
-166.74104 -100.60772 10.55662 9.092
-166.52901 -112.27359 11.316982 9.1455002
-166.70711 -99.28241 11.830025 10.1525
-166.71169 -94.053436 11.917402 10.0875
-166.65985 -104.31502 12.119327 10.1135
-166.56245 -100.12798 12.22175 10.1355
-166.55217 -99.956398 12.355294 10.0895
-166.46152 -104.88338 12.552497 10.102
-166.68127 -109.01965 13.023359 10.14
-166.69423 -108.74989 12.873592 10.112
-166.59799 -107.72426 12.86399 10.1365
-166.6317 -99.400688 13.059739 10.0935
-166.52985 -112.98819 13.387263 10.1425
-166.46138 -112.61784 13.335418 10.1385
-166.59959 -112.06186 13.330725 10.143499
-166.74533 -111.94062 13.3538 10.146
-166.76419 -101.68494 14.273048 11.1405
-166.64767 -101.45999 14.258892 11.1395
-166.77594 -100.98903 14.23105 11.1335
-166.68982 -104.85868 14.77817 11.102
-166.61501 -104.52484 14.588909 11
-166.66924 -104.23672 14.59305 11.094625
-166.5715 -103.97578 14.648849 11.117001
-166.52756 -101.39267 14.452777 11.0985
-166.73457 -103.61974 16.614614 12
-166.34126 -94.960068 9.6415958 9.0935001
-166.22581 -100.42682 10.719324 9.0924997
-166.29616 -112.9827 11.144849 9.14575
-166.33853 -109.77878 11.054819 9.1427498
-166.29822 -112.86329 11.30245 9.1415005
-166.14021 -112.34784 11.210364 9.1420002
-166.35577 -93.617035 11.555814 10.136
-166.16989 -99.842461 11.930257 10.155
-166.31612 -93.476898 11.698297 10.1105
-166.15759 -99.658844 12.367896 10.08975
-166.31631 -109.01111 12.723527 10.098
-166.35068 -104.49219 12.41285 10.107
-166.31619 -109.38961 13.084281 10.14175
-166.19757 -108.76801 13.049947 10.14
-166.29494 -107.67964 12.96279 10.0925
-166.12323 -112.83064 13.315717 10.143
-166.29913 -112.57372 13.298129 10.145624
-166.20221 -112.26543 13.38895 10.144
-166.3007 -111.96699 13.548956 10.1455
-166.20839 -104.27928 14.585814 11.1375
-165.87436 -100.08252 10.37292 9.092
-165.66144 -113.67589 11.200857 9.1455002
-165.83174 -100.18072 12.563037 10.093
-165.98183 -99.832733 12.434943 10.0925
-165.78185 -109.74613 13.104698 10.1405
-165.75818 -108.38393 12.866716 10.094
-165.9594 -113.92567 13.427346 10.143
-165.90492 -112.97565 13.368388 10.144
-165.77971 -112.52213 13.425567 10.1445
-165.99162 -112.34672 13.3595 10.145
-165.79169 -109.72864 13.252925 10.145
-165.46359 -113.70039 11.364845 9.1459999
-165.32944 -97.348244 11.780821 10.132
-165.4101 -113.39635 13.404387 10.144834
-165.52507 -113.16547 13.422344 10.1445
-164.81085 -94.598564 9.4137392 9.0882502
-165.09769 -94.63253 9.6595392 9.0904999
-164.96407 -98.20211 11.779508 10.139
-165.12169 -97.913063 11.864062 10.1405
-164.83849 -104.85865 12.134675 10.1505
-164.99431 -104.1047 12.309482 10.142
-164.82304 -103.83849 12.247266 10.125
-164.95026 -105.35465 12.555144 10.143
-164.80502 -104.25124 12.431473 10.0925
-165.07675 -116.23948 13.494359 10.151
-164.77553 -94.84655 9.4717789 9.0909996
-164.68532 -94.58535 9.4973307 9.0889997
-164.68166 -99.355095 9.8131218 9.1003571
-164.6188 -95.048164 9.7725086 9.1397495
-164.64455 -94.54718 9.6017599 9.1379995
-164.79433 -94.218704 9.6641159 9.1285
-164.6432 -99.031708 10.016593 9.13375
-164.77713 -111.62352 10.786239 9.1470003
-164.66498 -97.787071 11.527985 10.14925
-164.49678 -98.804039 11.857671 10.1345
-164.7769 -98.204643 11.847819 10.135
-164.616 -97.86515 11.767583 10.13225
-164.41754 -104.40971 12.391433 10.138
-164.59616 -104.20035 12.275785 10.138833
-164.74106 -103.72433 12.395112 10.0935
-164.54167 -105.37965 12.584845 10.14425
-164.63907 -105.04203 12.467765 10.143
-164.05666 -98.31723 7.4225087 8.0930004
-164.33875 -90.208687 9.6066418 9.0889997
-164.18665 -106.0375 10.632788 9.1440001
-164.06905 -113.52308 11.133357 9.1409998
-164.18855 -98.65461 11.511528 10.147
-164.29024 -98.229668 11.580982 10.1515
-164.19333 -98.507729 11.792501 10.12725
-164.17775 -98.222145 11.858662 10.128375
-164.2796 -104.23519 12.272558 10.0965
-164.32086 -105.44429 12.675071 10.093
-163.9691 -100.1224 7.5521264 8.0935001
-163.7997 -100.53883 8.0892868 8.1429996
-163.71332 -105.12621 10.170692 9.0950003
-163.71152 -104.92431 10.513561 9.0955
-163.99352 -98.944801 11.759224 10.1375
-163.85426 -98.571869 11.774487 10.1145
-163.78284 -105.00558 12.342221 10.1145
-163.87488 -103.93221 12.137484 10.1105
-163.73346 -105.75988 12.553634 10.133401
-163.88969 -105.17992 12.491549 10.092501
-163.59903 -105.28578 10.18917 9.0924997
-163.52689 -104.9539 10.191262 9.1110001
-163.55095 -104.0868 11.778371 10.114
-163.46664 -105.46255 12.148696 10.097
-163.33887 -105.02104 12.207958 10.128667
-163.34338 -104.53375 12.191848 10.128099
-163.26164 -104.19549 12.318245 10.092751
-163.14243 -105.47704 10.465339 9.1394997
-162.90289 -104.86152 11.779081 10.1145
-163.02512 -106.9392 12.166804 10.106
-162.83165 -105.86582 12.23991 10.129001
-162.84422 -105.4987 12.287834 10.14575
-163.02191 -104.73278 12.216742 10.1185
-163.12161 -104.24713 12.151252 10.115
-162.66071 -106.25613 12.18767 10.1085
-162.69052 -105.98937 12.270021 10.1435
-162.61002 -105.38813 12.301121 10.11675
-162.6308 -105.12148 12.233418 10.107625
-162.79248 -104.54327 12.075081 10.111
-162.2587 -105.46102 12.158394 10.103
-161.67419 -108.09327 10.453259 9.1379995
-161.31628 -109.09491 8.7154245 8.0284996
-161.3761 -108.36102 10.28445 9.0965004
-161.43469 -107.9475 10.172338 9.1199999
-161.23987 -111.70757 12.245476 10.118
-161.28036 -110.2889 12.711374 10.146
-160.99004 -108.52064 10.264578 9.1467505
-161.00299 -108.39307 10.228553 9.1499996
-160.80171 -110.30061 12.512078 10.149
-160.81161 -109.64819 12.618849 10.1475
-160.94559 -108.16738 14.157818 11.128
-160.68723 -108.42855 10.186097 9.1494999
-160.42543 -108.14231 10.518249 9.0970001
-160.65263 -110.62669 12.598631 9.8226671
-160.45493 -108.95248 14.305572 11.143499
-160.73531 -108.43836 14.176226 11.1315
-160.25351 -108.16901 10.290299 9.1475
-160.34964 -108.283 10.418123 9.1435003
-160.06622 -114.25188 10.848967 9.1490002
-160.29131 -110.71207 12.698504 10.148
-160.0457 -110.19488 12.623755 10.15
-160.21254 -112.143 14.199336 11.1185
-160.15616 -109.22266 14.53485 11.149
-159.82137 -108.55277 10.276782 9.1471996
-159.80904 -108.46391 10.484754 9.1444998
-159.6749 -111.24778 12.24884 10.122
-159.68416 -113.80421 12.769319 10.141
-159.67743 -108.75994 12.582748 10.1465
-159.89539 -113.02983 12.966868 10.1485
-159.23451 -108.07399 10.132938 9.1485004
-159.5069 -107.72218 10.259508 9.1385002
-159.36954 -108.62762 10.547897 9.1470003
-159.32916 -111.73295 12.24264 10.1005
-159.26344 -109.85302 12.354443 10.1495
-159.5331 -108.75314 12.36406 9.1715002
-159.37912 -112.35876 12.454369 10.112
-159.49159 -111.63947 12.428344 10.099
-159.27359 -108.83678 12.432446 9.1709995
-159.5307 -108.79897 12.606318 10.147
-159.57907 -114.48109 12.951409 10.1435
-159.57065 -108.00787 13.825005 11.1205
-159.26199 -109.9994 14.012526 11.1215
-159.34064 -108.5677 14.424521 11.1485
-159.06 -108.25244 10.233663 9.1479998
-158.93039 -111.43388 11.994437 10.1185
-159.09285 -114.57109 12.833579 10.1455
-158.88692 -108.82159 14.11723 11.1435
-158.82539 -108.71368 14.117929 11.14275
-159.16783 -108.30536 14.078716 11.1405
-158.47293 -107.05734 9.9461498 9.1040001
-158.59441 -111.32397 10.327188 9.151
-158.72371 -110.06047 10.385045 9.1440001
-158.62448 -108.54016 10.134091 9.1240005
-158.72958 -107.94847 10.15478 9.1499996
-158.72249 -109.89758 10.457765 9.1435003
-158.57675 -109.52174 10.426454 9.1420002
-158.57503 -114.58754 11.029611 9.1490002
-158.79823 -114.44885 12.724658 10.1465
-158.513 -108.7253 14.302078 11.148
-158.54317 -109.11543 14.601883 11.1475
-158.45122 -109.41363 15.752709 12.1215
-158.22659 -93.251007 5.9052844 8.0904999
-158.30119 -94.652039 6.8752465 8.092
-158.0871 -94.180794 6.9383984 8.0880003
-158.39343 -107.10124 9.8175621 9.0939999
-158.25771 -107.84747 10.163009 9.1482506
-158.05659 -112.05566 12.462042 10.145
-158.18819 -114.51288 12.82032 10.144
-158.33557 -111.98641 12.839881 10.148
-158.30783 -108.87762 14.394265 11.1485
-158.18486 -108.67324 14.330319 10.6605
-158.2327 -109.01579 14.480529 11.14925
-158.38647 -108.69788 14.47166 11.147
-157.65863 -107.46033 9.8990631 9.1525002
-157.81303 -109.60593 10.394888 9.1429996
-157.92404 -109.52824 10.187981 9.1514997
-157.66107 -109.10435 10.298148 9.1470003
-157.71277 -107.57697 10.013212 9.1490002
-157.72244 -109.52228 10.506189 9.1475
-157.75082 -107.87797 12.200191 10.097833
-157.98248 -115.93149 13.145786 10.152
-157.83267 -107.44003 13.35355 11.117
-157.9534 -107.55989 13.741632 11.126249
-157.83148 -111.32623 14.163433 11.112
-157.76277 -108.83383 14.347137 11.149
-157.69063 -113.0542 14.598915 11.145
-157.32462 -107.39603 7.9057069 8.0959997
-157.34915 -107.67745 9.9515448 9.0944996
-157.40244 -107.37932 9.8737478 9.0951662
-157.21953 -107.1388 9.9479008 9.0959997
-157.5739 -109.71416 10.367976 9.1485004
-157.35535 -107.37114 10.106994 9.0721664
-157.3658 -107.01466 10.067194 9.0702496
-157.55812 -109.5248 10.516009 9.1479998
-157.45107 -108.11635 12.155269 10
-157.57072 -107.94686 12.2489 10.148666
-157.41731 -110.17867 12.417571 10.149
-157.26266 -108.48512 14.176096 11.15
-157.256 -109.66424 15.95268 12.1425
-157.25739 -109.86158 16.017603 12.144501
-157.49065 -110.27541 16.664911 12.14925
-157.19489 -97.024109 5.0778551 7
-156.96014 -111.60489 8.5394678 8.1409998
-156.86255 -108.1226 9.9566422 9
-157.13585 -107.61951 9.9971695 9
-157.01587 -107.72797 10.117647 9.0492992
-157.06158 -107.35194 10.181842 9.079875
-156.95914 -111.85146 10.663632 9.1485004
-156.89729 -109.45061 11.827559 10.126
-156.82468 -106.98993 11.872382 10.07275
-156.88033 -106.65142 11.839515 10.096499
-156.88054 -108.90294 12.263911 10.151
-157.19368 -108.69968 12.288732 9.1719999
-156.94086 -116.72501 12.874509 10.147
-157.136 -109.68075 15.934508 12.1445
-157.19759 -109.23411 15.812035 12.1415
-157.0809 -109.94698 16.029003 12.144751
-156.83131 -110.29095 16.582794 12.1505
-156.62726 -107.31592 9.7738647 9.1210003
-156.65694 -111.40254 10.275419 9.1590004
-156.67889 -109.25053 10.138845 9.1507502
-156.5993 -107.60815 10.033291 9
-156.4826 -111.73645 10.4779 9.1494999
-156.59149 -118.8394 11.033125 9.1514997
-156.58562 -105.89899 11.567884 10.1315
-156.63455 -110.36173 11.892757 10.1265
-156.54552 -108.13654 11.954031 10
-156.60487 -107.81268 11.863561 10.113901
-156.60323 -107.37971 11.876259 10.047
-156.61491 -107.00942 11.845813 10.0796
-156.61989 -106.59676 11.728264 10.101999
-156.56412 -108.42889 12.090328 10
-156.6918 -108.31274 12.146086 10.0745
-156.59625 -111.46208 12.65737 10.14875
-156.48296 -106.63283 13.450764 11
-156.40504 -107.91302 13.751936 11.1435
-156.41545 -107.55089 13.614771 11.145
-156.56876 -108.29169 14.290852 11.151
-156.52867 -107.89846 14.083761 11.0298
-156.29056 -117.732 10.821611 9.1584997
-156.11292 -107.08411 11.537786 10.11575
-156.3591 -106.70953 11.287053 10.117
-156.16939 -106.24737 11.519499 10.11
-156.09024 -105.90843 11.364497 10.1205
-156.05032 -109.52495 11.947441 10.1405
-156.18457 -107.96455 11.759902 10.1055
-156.25058 -107.29952 11.92205 10.03675
-156.3848 -106.96037 11.834995 10.15
-156.16563 -106.58122 11.646799 10.0975
-156.3815 -106.1005 11.720258 10.096
-156.34674 -107.27515 12.015875 10
-156.12418 -106.99649 12.008143 10.0945
-156.07993 -115.85419 12.693761 10.1475
-156.01678 -109.03993 13.472552 11.122
-156.30666 -108.63455 13.292427 11.118
-156.0276 -108.11918 13.544255 11.111
-156.28703 -107.23045 13.521613 11.047
-156.14372 -106.95425 13.371925 11.077167
-156.31323 -106.68939 13.403567 11.066
-156.01677 -109.70234 13.912644 11
-156.16501 -107.78765 13.803314 11.145
-156.27942 -107.51434 13.640327 11.072124
-156.02361 -108.51782 14.278131 11.152
-156.31334 -108.27565 14.124683 11.0995
-156.36734 -107.74702 14.147975 11.14775
-156.15222 -107.72195 15.266909 12.1325
-156.12645 -110.98543 16.646589 12.14925
-156.06361 -111.00241 16.89547 12.1525
-155.81055 -106.6186 11.43168 10.103251
-155.93648 -106.31031 11.561231 10.1005
-155.75531 -109.10411 11.762288 10.1115
-155.76497 -108.53368 11.807158 10.07725
-155.83266 -108.17419 11.69798 10
-155.79935 -107.84448 11.661946 10
-155.78867 -107.40462 11.656125 10.025249
-155.95432 -106.7147 11.906879 10.094
-155.63016 -110.87483 12.095305 10.147
-155.71509 -110.66373 12.316312 10.1535
-155.907 -107.38634 13.09781 11.1175
-155.67181 -108.03262 13.588719 11.1415
-155.78944 -107.71873 13.481944 11.10675
-155.68805 -107.58605 13.43893 11
-155.74948 -109.24601 13.83459 11
-155.71461 -108.98598 13.768006 11
-155.78493 -108.47478 13.835835 11.145
-155.70685 -108.13399 13.652096 11.108625
-155.99509 -107.83697 13.657858 11
-155.71983 -108.49176 14.189468 11.148251
-155.90675 -107.96805 14.040396 11
-155.9131 -110.57811 14.549193 11.149
-155.66614 -107.96302 15.301616 12.14
-155.62537 -108.80097 15.647246 12
-155.94534 -110.85178 16.597725 12.15
-155.80516 -110.79263 16.604916 12.1505
-155.3289 -107.69205 9.7612753 9.1549997
-155.39319 -107.38562 9.8283844 9.1533756
-155.29643 -108.44312 11.534576 10.1085
-155.4856 -107.2295 11.25031 10.1175
-155.23923 -109.7504 11.976813 10.07125
-155.53265 -108.89441 11.88914 10
-155.38187 -108.64135 11.861958 10
-155.30591 -108.28664 11.771313 10
-155.36357 -107.36546 11.850006 10.085501
-155.44714 -111.0892 12.195155 10.1445
-155.36392 -109.7833 12.041203 10
-155.39964 -108.92168 12.121568 10.1495
-155.30882 -115.41823 12.848625 10.1545
-155.36157 -109.64072 13.542318 11.109
-155.21262 -108.5068 13.391218 11.1085
-155.35559 -108.12566 13.502453 11.022901
-155.49802 -107.8383 13.458468 11.07
-155.44649 -113.0369 13.887176 11.124
-155.3876 -109.07521 13.723016 11
-155.31308 -108.45798 13.641553 11
-155.35802 -108.28651 13.641859 11
-155.29503 -109.56171 14.365126 11.153
-155.33119 -108.55189 14.121744 11.100333
-155.43121 -108.26967 14.066249 11.112125
-155.29808 -108.89624 15.476444 12.07275
-155.2847 -108.54414 15.4912 12
-155.39107 -108.10947 15.331951 12
-155.24719 -109.25632 15.708764 12.147
-155.34824 -109.04633 15.647635 12
-155.22879 -111.80411 16.691568 12.1515
-155.27284 -111.38161 16.672119 12.1495
-155.53352 -111.15417 16.645802 12.1505
-154.96805 -107.4883 9.2448692 8.1709995
-155.04881 -107.7627 9.9662046 9.0525007
-155.12323 -109.80798 10.116307 9.1389999
-155.15579 -109.42889 10.09121 9.1564999
-154.87608 -108.08791 10.213913 9
-155.12314 -107.8278 10.154236 9.099
-155.12878 -108.6075 10.974282 9.0965004
-154.92593 -107.40405 11.46987 10.105249
-154.91254 -107.09998 11.420868 10.11775
-155.01462 -109.73882 11.977934 10
-154.99213 -109.34584 11.883904 10
-155.01189 -108.9727 11.888097 10
-155.08893 -108.6811 11.826476 10.030437
-155.04256 -107.76152 11.789019 10.048333
-155.01167 -107.44955 11.873123 10.0901
-155.00513 -110.28424 12.239005 10.1505
-155.15535 -109.76213 12.108809 10.075251
-154.90672 -107.59792 12.071051 10
-154.89574 -107.85118 12.611985 9.0035
-155.0968 -115.53067 12.805609 10.1555
-155.02194 -108.49885 13.484214 11.037167
-155.19731 -108.28177 13.492284 11
-155.0211 -109.68437 13.782136 11
-155.0955 -109.37644 13.74929 11
-155.00388 -108.86495 13.703753 11.073083
-154.9361 -108.76845 13.680613 11
-155.02052 -109.46077 14.148355 11.050167
-154.88867 -109.00586 14.127785 11.14925
-155.06125 -108.47225 14.13387 11
-154.86081 -108.94386 15.494295 12
-155.00212 -108.70889 15.440038 12.048667
-155.13116 -108.26448 15.263962 12
-155.12262 -109.20963 15.642361 12
-154.836 -109.24774 16.200441 12
-154.41406 -109.71654 9.9918861 9.1475
-154.41786 -108.31622 9.8582544 9.1502504
-154.5946 -107.35716 9.8455458 9.0481253
-154.69794 -107.12004 9.8795242 9.0707502
-154.48579 -109.65788 10.091888 9.1452503
-154.62717 -108.2437 10.213029 9
-154.79102 -107.97536 10.016912 9.1494999
-154.76082 -113.57385 10.403252 9.1534996
-154.78461 -107.39113 11.593475 10.14
-154.47316 -107.42443 11.7578 10.094833
-154.61119 -107.1492 11.712557 10.118
-154.48492 -109.91476 12.221238 10
-154.58002 -109.42628 12.111651 10
-154.45673 -109.12922 12.376621 10.1615
-154.66409 -107.92497 12.090338 10
-154.68774 -107.59701 12.053377 10
-154.64973 -108.94371 14.147115 11.15075
-154.61209 -109.35054 15.349036 12.141
-154.59424 -109.01497 15.397413 12
-154.41876 -109.68457 15.66608 12.1475
-154.01236 -107.334 9.0386934 8.0144997
-154.37642 -106.95757 9.5835905 9.1215
-154.13867 -108.88594 9.9364243 9
-154.18915 -108.55255 9.9250116 9.0790005
-154.31085 -108.29152 9.928442 9.1238747
-154.16539 -107.73278 9.8766479 9.1466665
-154.26009 -107.27261 9.68999 9.1196671
-154.38475 -107.12424 9.8287039 9.1400003
-154.25368 -109.84695 10.154224 9.0523329
-154.12637 -109.24316 10.08233 9.0717506
-154.02878 -108.54475 10.025644 9.1469994
-154.26768 -109.43144 11.971612 10.1515
-154.0446 -110.61603 12.215962 10.151
-154.05092 -108.59537 12.0381 10
-154.14168 -109.98781 14.335507 11
-154.16 -109.50299 14.291956 11.153
-154.16797 -108.97652 14.15552 11.050167
-154.25586 -108.65163 14.144141 11
-154.25488 -109.62921 15.125471 12.127
-154.11212 -109.67845 15.526233 12.1445
-154.28447 -109.40841 15.499751 12.1455
-153.90402 -107.34453 9.3936644 9.118
-153.7746 -108.99561 9.9233818 9.0893993
-153.95767 -108.41198 9.9596071 9.1505003
-153.63036 -108.14905 9.7639561 9.1514997
-153.93492 -107.50763 9.685113 9.1145
-153.80865 -110.08969 10.136315 9.1619997
-153.83388 -109.3512 10.126088 9
-153.84038 -109.17712 10.162876 9.0749998
-153.8638 -108.5862 11.975857 10
-153.65219 -110.92498 12.28845 10.15125
-153.82007 -110.72113 12.322496 10.1495
-153.60455 -110.02191 12.10973 10
-153.69949 -109.73831 12.139264 10
-153.81738 -109.56054 12.115099 10.07625
-153.76553 -108.96056 12.074741 10
-153.74548 -108.66382 12.029421 10
-153.73848 -108.30498 13.112555 11.1265
-153.70763 -108.00391 13.839569 11.15
-153.965 -109.58764 14.090171 11.15
-153.91858 -108.97144 14.170456 11
-153.70563 -109.69913 15.34719 12.143
-153.5631 -107.62245 9.0647449 8.0109997
-153.3931 -108.31628 9.4297447 8.5517502
-153.46292 -109.0174 9.9128084 9.1171246
-153.40871 -108.16647 9.7157125 9.1052494
-153.52023 -109.82332 10.258056 9
-153.42868 -109.35578 10.071093 9.0302
-153.53297 -108.93977 11.9774 10
-153.49603 -108.97237 12.058763 10.0375
-153.44592 -115.11878 12.722436 10.152
-153.22661 -108.45512 13.394075 11.1435
-153.23776 -108.30738 13.243008 11.12075
-153.35069 -112.44998 13.946512 11.147
-153.34689 -108.54266 13.884807 11.050167
-153.32565 -108.11383 13.816165 11.05
-153.34418 -107.86069 13.800875 11
-153.24144 -109.67513 15.507249 12.148
-153.26274 -109.50977 15.377264 12.1465
-153.33965 -110.34883 16.240219 12.151
-153.474 -109.48701 16.13945 12.151
-153.15453 -105.18065 7.9799819 8.1374998
-153.16479 -109.48048 9.891551 9.14925
-152.99219 -108.60805 13.422286 11.1445
-153.00993 -108.02814 13.321628 11.14625
-152.92224 -107.90912 13.222483 11.1425
-153.00755 -108.17563 13.838221 11.100499
-152.82008 -107.91354 13.929935 11
-153.00723 -112.67666 14.66369 11.155
-152.80759 -108.00508 15.013715 12.1435
-153.0719 -109.44489 15.317807 12.145625
-152.95755 -109.52616 16.069794 12.152
-152.93369 -109.97305 16.456642 12.1555
-152.65234 -108.98741 9.967515 9.1575003
-152.40497 -108.7238 9.8489618 9.1514997
-152.57706 -114.26711 10.395905 9.1475
-152.69414 -111.2917 10.225572 9.151
-152.63347 -115.37228 10.582187 9.1520004
-152.51323 -108.75269 13.387198 11.1475
-152.52417 -111.44538 13.728633 11.1475
-152.52374 -108.9167 13.903287 11.150499
-152.55159 -108.68025 13.816857 11.152
-152.53893 -108.07832 13.949723 11.07675
-152.62325 -107.90443 13.774154 11.151
-152.40338 -110.74259 14.360583 11.154
-152.74809 -109.83035 14.244696 11.1565
-152.79672 -112.71687 14.641953 11.156
-152.6655 -106.83324 14.46071 12.122
-152.6864 -109.54395 14.865886 12.1275
-152.6149 -109.20108 15.874427 12.1505
-152.57895 -109.02168 15.972129 12.1515
-152.37509 -108.62148 9.8161135 9.1394997
-152.06445 -108.29422 9.7776327 9.1464996
-152.04904 -111.84916 12.378494 10.151
-152.18459 -108.35319 13.189574 11.143
-152.33951 -109.96358 13.493454 11.1445
-152.07655 -108.89416 13.349525 11.145
-152.22801 -108.61562 13.304202 11.145167
-152.30437 -109.40546 13.948558 11.15125
-152.24466 -108.09058 13.922162 11.155001
-152.17653 -109.12745 15.948338 12.1515
-151.97929 -108.87434 9.9065866 9.1450005
-151.74455 -108.55421 9.849124 9
-151.80205 -108.26519 9.8034916 9.0976667
-151.8371 -107.95313 9.8857365 9.1505003
-151.66914 -107.38329 9.7827854 9.151
-151.64191 -108.06229 11.124022 10.123
-151.89322 -109.14285 11.382242 10.116
-151.72469 -108.49242 11.519592 10
-151.85188 -110.34949 13.42046 11.144
-151.8593 -109.45525 13.37841 11.146749
-151.8143 -109.13278 13.28149 11.071751
-151.89786 -109.84412 13.9877 11.151751
-151.86194 -109.59089 13.897264 11.1525
-151.70529 -110.14346 14.231745 11.157
-151.61621 -108.51088 14.917837 12
-151.71692 -109.41116 15.908508 12.1515
-151.95277 -109.13883 15.828079 12.151
-151.77757 -109.64135 16.01005 12.152
-151.74078 -109.09843 16.184645 12.154
-151.65929 -109.25053 16.900661 13.146
-151.73955 -109.3226 17.234222 13.149
-151.56241 -106.75245 9.5528383 9.1564999
-151.23633 -108.54208 9.7788992 9.1520004
-151.4883 -108.27773 9.6721716 9.1525002
-151.33249 -107.0722 9.8416786 9.1545
-151.33084 -108.80441 11.517159 10
-151.33148 -108.72579 11.470201 10.146749
-151.35477 -107.39681 11.326039 10.1465
-151.39886 -111.05153 11.978284 10.153
-151.26703 -107.41187 11.659028 10.1515
-151.26735 -110.98837 12.043128 10.1525
-151.25932 -106.95129 12.602487 11.1225
-151.53612 -109.54401 13.374246 11.1455
-151.55745 -110.27924 14.196952 11.1535
-151.49037 -110.56691 14.959524 12.1355
-151.37286 -108.57156 14.927106 12.0735
-151.57474 -108.95043 15.838628 12.1525
-151.45345 -110.02331 16.27001 12.1535
-151.46964 -108.92225 16.143236 12.1555
-151.49501 -108.3916 16.319839 13.1345
-151.42691 -108.64599 16.561026 13.095166
-151.57028 -109.2248 16.86092 13.1465
-151.48431 -108.83997 16.829763 13.1475
-151.36435 -112.94146 17.578001 13.1475
-151.31947 -112.78565 17.576048 13.1485
-150.81255 -107.39704 9.5911427 9.1560001
-151.03513 -112.46534 9.9855547 9.1490002
-150.80656 -111.4628 9.746666 9.1289997
-151.17763 -108.50733 9.7156153 9.1470003
-150.99425 -107.34344 9.7273083 9.1546669
-151.13171 -106.68807 9.8492899 9.1494999
-151.10014 -111.15587 10.101958 9.1584997
-151.07309 -112.1552 10.579331 9.1719999
-150.91238 -106.79345 10.923207 10.1225
-151.04436 -109.60202 11.526092 10.144
-150.81458 -108.82175 11.494354 10.1455
-151.01544 -108.67205 11.481307 10.14525
-150.92737 -107.36973 11.205791 10.1415
-151.0704 -107.6616 11.745139 10.1545
-150.98219 -107.40664 11.6432 10.1535
-150.9382 -112.34417 12.231027 10.1525
-150.92001 -110.95837 12.077382 10.153749
-150.8912 -109.2037 12.679049 11.12
-150.80063 -108.14787 12.539024 11.1195
-150.95975 -107.48735 12.783568 11.1155
-150.82368 -107.19411 12.427269 11.119
-151.02205 -107.8648 13.042262 11
-151.06068 -108.37492 14.737852 12.1435
-151.01439 -108.46803 14.876397 12.14625
-151.03093 -108.26471 14.924967 12.148
-151.1535 -108.67524 16.611073 13.1445
-150.93968 -112.70292 17.610222 13.1495
-150.51352 -107.13772 9.1506653 9.1190004
-150.70282 -107.69361 9.4938087 9.0955
-150.7187 -107.41575 9.5800934 9.1569996
-150.45572 -110.4778 9.8896694 9.1464996
-150.57709 -108.62893 9.7419844 9.0772495
-150.62628 -108.11954 9.7219687 9.111125
-150.7225 -107.7116 9.7602406 9
-150.50975 -107.45523 9.8976583 9.137166
-150.54234 -113.90458 10.096248 9.1540003
-150.52731 -112.01289 10.204659 9.1634998
-150.60289 -111.49125 10.099558 9.1615
-150.54733 -115.32462 10.643997 9.1525002
-150.51578 -107.07137 10.7521 10.119
-150.57428 -107.32333 11.063533 10.1155
-150.53851 -107.3009 11.574899 10
-150.52214 -110.58714 11.619135 10.1495
-150.64676 -107.63852 11.724238 10
-150.61279 -107.43496 11.695067 10.153749
-150.54776 -111.16408 12.184422 10.1515
-150.78381 -107.18678 12.788114 11.1415
-150.45485 -108.70004 12.86205 11.135
-150.54314 -108.17216 12.812748 11.116
-150.79581 -107.96064 12.808692 11.1345
-150.44302 -107.44324 12.945776 11.1255
-150.47614 -107.31145 13.466418 11.100166
-150.64722 -110.12171 14.114471 11.155251
-150.65887 -109.45026 14.627054 12.132
-150.63762 -108.1989 14.724113 12.1445
-150.53735 -110.3362 14.873882 12.141
-150.4707 -108.90517 14.956219 12.148251
-150.5399 -111.18945 15.259962 12.1465
-150.54062 -108.133 15.435308 12
-150.43089 -107.79902 15.539673 12.152
-150.61275 -109.02113 16.081923 12.1545
-150.5032 -108.95119 16.590204 13.14575
-150.51527 -108.99055 16.873459 13.149
-150.41995 -111.84933 17.26697 13.149
-150.37338 -108.22086 9.4017525 9.1234999
-150.13153 -107.75018 9.5751953 9
-150.15378 -108.18607 9.7666187 9
-150.18188 -107.90269 9.7059002 9.0777502
-150.11105 -111.71569 10.066639 9.1545
-150.19638 -107.41915 11.141485 10.123
-150.12379 -109.36545 11.472476 10
-150.30692 -109.16883 11.469658 10
-150.11011 -107.75175 11.593747 10
-150.23167 -107.43585 11.55748 10
-150.26761 -109.31376 11.86626 10.1575
-150.19319 -108.02568 11.765669 10.1545
-150.15021 -107.72829 11.644551 10
-150.19667 -111.82315 12.279802 10.0795
-150.12135 -110.80854 12.049256 10
-150.19022 -115.66364 12.591717 10.1535
-150.35599 -109.82269 12.689966 11.1205
-150.0246 -108.07989 12.604804 11
-150.12984 -109.50532 12.864251 11.1105
-150.2122 -108.9577 12.982218 11.05825
-150.35281 -108.65993 12.982574 11.1075
-150.38382 -107.67899 12.943897 11.1465
-150.10495 -108.18797 13.542253 11.075251
-150.11374 -107.66969 13.457918 11
-150.20349 -107.38657 13.456782 11.0304
-150.17618 -108.11602 13.789047 11.07725
-150.16937 -108.23823 14.109673 11.1585
-150.02989 -108.43352 14.673553 12
-150.37314 -109.31309 15.064035 12
-150.26601 -108.96748 14.928879 12.0985
-150.2838 -108.61666 14.929638 12.14875
-150.02242 -108.80774 15.521831 12.1515
-150.20125 -108.57828 15.43895 12.100667
-150.23792 -108.13107 15.487503 12.0765
-150.24811 -107.92761 15.445078 12
-150.2914 -108.78864 15.718588 12.1525
-150.16646 -108.29612 15.612437 12
-150.29295 -109.92963 16.153618 12.154
-150.18982 -108.8186 16.077545 12.157
-150.31464 -109.62731 16.715124 13.146
-150.13458 -108.96819 16.492313 13
-150.34663 -108.75643 16.620548 13.111
-150.01857 -112.02833 16.970661 13.1455
-150.3795 -111.86594 17.191992 13.148
-150.26183 -110.25288 16.866051 13.147
-150.09703 -109.84546 16.855991 13.1485
-150.28954 -109.35439 16.900858 13
