# .PCD v0.7 - Point Cloud Data file format
VERSION 0.7
FIELDS x y z intensity
SIZE 4 4 4 4
TYPE F F F F
COUNT 1 1 1 1
WIDTH 1230
HEIGHT 1
VIEWPOINT 0 0 0 1 0 0 0
POINTS 1230
DATA ascii
-25.537487 57.820305 -2.2451093 6
-25.415092 30.822079 -1.6838992 5
-25.441807 32.181667 -1.6043683 8.0784998
-25.507837 39.702564 -1.6229569 5
-25.304247 41.411469 -1.9590572 8.1149998
-25.396025 41.76004 -1.7154081 5.5
-25.414097 42.202187 -1.7590404 5.4000001
-25.456882 42.588642 -1.7321287 5.5
-25.354103 43.023064 -1.7463893 5.5
-25.297827 43.290409 -1.6932087 5.3333335
-25.378233 43.667759 -1.9152524 6
-25.363501 44.318771 -1.7651949 6
-25.357723 44.634167 -1.8743807 5.3333335
-25.455008 45.405067 -1.8154781 6
-25.394615 45.975662 -1.8754485 7
-25.507771 48.626568 -1.9391135 6.5
-25.469727 49.122299 -1.9795517 7
-25.556801 49.246719 -1.9854866 7
-25.56307 30.078632 -1.5301009 4
-25.241457 30.703398 -1.2359507 5
-25.392597 31.038307 -1.419197 5
-25.358532 31.386568 -1.4016256 5
-25.40119 31.949739 -1.2111334 5
-25.378349 32.231991 -1.404559 7
-25.335302 32.531399 -1.3386565 6.2694998
-25.283766 33.12534 -1.3452362 5
-25.417349 33.318085 -1.3471491 5
-25.428213 33.80341 -1.3431923 5
-25.432529 35.444038 -1.2058277 6
-25.454321 36.286728 -1.3186603 5
-25.534269 36.532982 -1.3313189 5.5
-25.526024 37.71534 -1.3463171 7
-25.428343 38.223881 -1.5343672 5
-25.295183 38.49361 -1.4482402 5
-25.225248 39.247509 -1.5127087 5
-25.217808 39.703568 -1.5057247 5.5
-25.390833 40.527813 -1.3755195 6
-25.475021 40.913284 -1.3112848 6
-25.352468 41.498665 -1.4587289 8.1171665
-25.427385 41.77293 -1.356284 6.8205004
-25.499771 42.613163 -1.5818297 5
-25.426638 42.816547 -1.5683805 5
-25.247252 43.611397 -1.383013 7
-25.472164 31.386711 -0.86588579 7.0516667
-25.315819 31.912912 -0.94299042 6.8907499
-25.340122 32.205231 -0.92019498 6.3535004
-25.473997 33.339031 -1.1048803 7.0528002
-25.448097 35.093292 -1.0626736 6
-25.247471 35.362682 -1.0728729 6
-25.380545 37.006004 -1.0496788 6
-25.328217 37.39045 -1.0633172 6.1428571
-25.258802 37.834824 -0.96099657 6
-25.440975 41.580952 -0.81681734 8.0810003
-25.485851 41.723106 -0.86110026 7
-25.481092 31.528811 -0.41188326 8.1674995
-25.487204 31.834497 -0.54247099 7.9403639
-25.393448 32.184998 -0.49924037 7.8234167
-25.28421 32.500603 -0.45259798 6
-25.512295 40.993725 -0.70310444 7
-25.283234 41.566799 -0.58187568 7
-25.504625 41.764183 -0.66277903 7.4703569
-25.36371 30.241493 -0.014213109 7
-25.439034 30.698446 -0.35696793 8.1689997
-25.366749 30.844345 -0.15278424 8.0761671
-25.429977 31.450571 -0.1551953 7.9769735
-25.434967 31.825558 -0.22352993 7.8863702
-25.448465 32.175697 -0.19549634 7.7563882
-25.47381 32.615246 -0.13488466 7.7062917
-25.269489 33.031914 -0.024776561 8.048563
-25.215061 33.228188 -0.0059241946 8
-25.434107 41.160805 -0.19957569 7.8204646
-25.525612 41.346443 -0.13518254 8.1071815
-25.430609 41.787811 -0.26845786 8.0692139
-25.376019 30.273588 0.14422007 7.5847502
-25.265852 30.650444 0.32909319 8.8714285
-25.340317 30.984764 0.2342355 8.8614998
-25.354502 31.428921 0.27048293 8.4716597
-25.447975 31.85051 0.23113583 8.4690933
-25.453344 32.186306 0.12576374 8.2722149
-25.469553 32.611576 0.10339115 8.0753756
-25.350838 32.996292 0.15218472 8.0523682
-25.445004 33.336452 0.19288085 8.0248337
-25.20108 34.188522 0.38799259 9
-25.54891 41.419895 0.17994547 8.7370453
-25.245892 41.774574 0.27333957 8.0577497
-25.325821 43.497101 0.36526188 9.1345005
-25.265635 30.296236 0.58287042 8.8041115
-25.397968 30.615046 0.67445594 8.7348328
-25.371628 31.040071 0.5996151 8.9077921
-25.454397 31.406038 0.59984201 8.8216372
-25.448288 31.755196 0.6479094 8.5877771
-25.461174 32.072517 0.63217622 8.6804371
-25.342947 32.630344 0.47662106 9.1980829
-25.359356 33.065529 0.59582132 9.0567684
-25.370321 33.333904 0.65490097 8.9439545
-25.266573 34.240562 0.61918277 9.478734
-25.241497 34.466698 0.79309243 9
-25.258242 35.061302 0.78117853 9
-25.383595 30.165037 1.0233419 9.5135841
-25.356506 30.627066 0.97602665 9.8066177
-25.405464 30.974077 0.97063899 9.7464361
-25.464449 31.352955 0.8998158 9.5282946
-25.381811 31.813183 0.89868885 8.7416658
-25.577124 32.038677 0.86428916 8.007
-25.507126 32.696087 0.97096932 9.10425
-25.455727 33.098267 1.081435 9.3494997
-25.400021 33.427895 1.0008101 9.3766174
-25.264385 33.816845 0.98455405 9.9001904
-25.315247 34.247429 0.9658761 10.03688
-25.308109 34.497681 0.99838924 9.989645
-25.31411 35.045685 1.1937222 9
-25.295256 35.491768 0.83570713 9.0799999
-25.389194 30.204544 1.3769214 10.475698
-25.44487 30.599585 1.341204 10.488566
-25.436691 30.96509 1.4011717 10.170978
-25.466858 31.379719 1.4468011 10.112901
-25.428471 31.738043 1.442953 9.6578007
-25.333761 32.186359 1.3735294 9.7541666
-25.512829 32.476337 1.4316242 10.102333
-25.487196 33.012119 1.3841268 9.2018185
-25.292253 33.414585 1.4066935 10.414301
-25.305971 33.869164 1.4001145 10.44378
-25.396297 34.238377 1.319659 10.73032
-25.331654 34.605633 1.3543451 10.402018
-25.365644 34.936214 1.4116646 10.264199
-25.33947 35.379295 1.4734946 10.42459
-25.323566 40.223412 1.4355863 9.0804996
-25.398502 30.200886 1.7533233 11.194366
-25.448181 30.601782 1.8086483 10.859768
-25.483459 31.007427 1.7853165 10.076867
-25.447681 31.340853 1.746143 10.796326
-25.458229 31.862389 1.7516135 9.6416998
-25.442856 32.104095 1.753589 9.5854998
-25.361786 32.606438 1.9630594 11.1015
-25.423443 33.48344 1.7121452 10.285714
-25.462429 33.840008 1.7441132 11.175299
-25.417164 34.189079 1.7131116 11.543102
-25.33341 34.610954 1.742075 11.372571
-25.328207 34.996578 1.725292 11.411375
-25.235533 35.30827 1.6983329 11.457808
-25.440701 37.929527 1.7880557 9.0284996
-25.52494 44.320202 1.7867481 10.141
-25.393356 30.164242 2.1448081 12.135316
-25.421486 30.617596 2.1025028 12.17274
-25.455622 30.993986 2.2133567 11.572999
-25.438658 31.377337 2.1778152 10.696823
-25.453978 31.680992 2.2057016 10.712001
-25.409552 32.273338 2.3239791 11.0746
-25.428154 32.496922 2.2852788 11.520766
-25.472582 32.802357 2.266623 12.1265
-25.473928 33.514687 2.2349818 12.0295
-25.462784 33.835999 2.2375307 11.818224
-25.432339 34.186516 2.2126141 10.7366
-25.392456 34.632664 2.225601 11.889182
-25.386751 34.982582 2.1642711 12.589316
-25.224445 35.217724 2.0571942 11
-25.421076 36.384453 2.1768005 9.0784998
-25.298197 36.749977 2.2562704 11.0955
-25.299215 37.440186 2.377167 11.144
-25.281265 37.810013 2.2189395 10.424
-25.345074 38.17688 2.2496619 10.59
-25.531532 38.685562 2.3448949 11.0965
-25.26849 39.113941 2.311815 10.821143
-25.241161 40.932671 2.3997841 11.1025
-25.377932 30.155092 2.7406762 11.333333
-25.579081 30.73649 2.4002256 14
-25.499079 30.956003 2.5727658 12.03875
-25.460577 31.462061 2.5997632 12.488439
-25.569525 31.837637 2.61166 11.694
-25.453554 32.259117 2.6009662 11.354938
-25.418116 32.743607 2.6724045 12.142
-25.599514 32.959396 2.6885893 12.1485
-25.432365 33.452023 2.647275 11.671217
-25.443127 33.84486 2.682987 12.224643
-25.378466 34.225132 2.6248577 12.15693
-25.396469 34.630718 2.6470838 11.722114
-25.393633 35.017673 2.6976471 12.808714
-25.375887 35.439224 2.6626663 12.11774
-25.365971 35.872089 2.7077007 12.581584
-25.256472 36.238316 2.6270041 12.399653
-25.23505 36.583572 2.7122054 13.325666
-25.302099 36.885532 2.7184665 12.0075
-25.57926 37.354549 2.4139793 11.145
-25.508314 39.026134 2.6820841 10.601749
-25.347086 40.282303 2.4665515 11.09425
-25.258995 40.594521 2.734128 11.08875
-25.480658 46.23135 2.7602074 10.1075
-25.546291 30.051258 2.8688712 12.0195
-25.329866 31.606413 2.9151778 12.124
-25.493748 32.766418 3.027519 11.0105
-25.588585 33.56031 2.9953082 11.5955
-25.473108 33.825119 2.9539227 11.914801
-25.493622 34.269455 2.9859524 11.941751
-25.536003 34.607216 2.98105 13.421977
-25.484137 35.002144 2.9687526 13.21335
-25.41802 35.405796 2.9726892 12.70462
-25.379707 35.801445 2.9575417 13.001127
-25.381178 36.233768 2.9841526 14.085915
-25.314491 36.563137 2.972326 13.930397
-25.323481 36.983757 2.9361553 13.614125
-25.403349 37.417007 2.9724925 12.453278
-25.413025 37.863594 2.9610984 13.0967
-25.375364 38.15736 3.0917687 10.891046
-25.546137 38.635193 3.0360835 13.557368
-25.530867 39.018467 3.0143905 14.018
-25.445879 39.450382 3.036566 13.776067
-25.390854 39.806126 3.0195866 13.795916
-25.339851 40.214222 3.0272713 13.870335
-25.267223 40.609577 3.0258744 13.905618
-25.229786 40.888901 3.0239916 13.181113
-25.575468 33.447048 3.4261577 11.178
-25.385624 34.171478 3.3838723 11.071751
-25.206467 34.61462 3.4350479 11.002
-25.515955 34.937328 3.2605901 13.891001
-25.372974 35.525951 3.2065442 15.1465
-25.462114 36.165123 3.4006379 10.546
-25.477131 36.549637 3.2455797 10.036167
-25.376066 36.871288 3.3850932 11.055
-25.416891 37.317204 3.2902071 10.2428
-25.430988 37.699059 3.5453627 12.088
-25.366085 38.109222 3.2397726 10.549999
-25.511854 38.619923 3.392894 12.778703
-25.518448 38.989582 3.3840227 13.722614
-25.471449 39.39196 3.3954167 13.368191
-25.395611 39.811176 3.3714957 14.124651
-25.334642 40.239441 3.3845406 13.56911
-25.259991 40.589806 3.3895156 13.641916
-25.224909 40.867683 3.4104993 14.387
-25.343054 41.317005 3.2864521 11.14625
-25.23461 42.014893 3.3340521 11.1465
-25.582529 32.913631 3.7597756 12.63475
-25.485886 33.486389 3.9086461 12.144
-25.471565 33.604851 3.9207489 12
-25.374695 34.091858 3.965493 12.1435
-25.503225 36.633301 3.9358773 15.115
-25.447559 37.037033 3.9192414 12.849999
-25.507242 37.503757 3.7457724 11.724334
-25.367418 37.749077 3.9121337 12.645101
-25.257044 38.174446 3.9284258 12.588125
-25.549374 38.676136 3.7367671 14.070084
-25.462435 39.021801 3.7835541 14.224723
-25.410351 39.407848 3.7874382 13.61377
-25.357382 39.852085 3.7816899 13.302528
-25.295988 40.214417 3.7079651 13.19325
-25.282991 40.641079 3.7324564 13.36391
-25.210764 40.995998 3.6697245 14.5745
-25.254519 34.717979 4.024652 12.143
-25.45237 35.455105 4.235208 13.4165
-25.425985 35.749695 4.323709 11.6417
-25.539217 36.661907 4.1744485 13.219093
-25.368704 37.025978 4.2023878 12.675117
-25.245396 37.324852 4.3477249 11.0675
-25.31094 37.771866 4.1946721 13.733438
-25.328081 38.173813 4.2037024 13.963082
-25.455868 38.501179 4.2216501 13.612124
-25.474281 39.015335 4.1595678 14.232375
-25.350498 39.468456 4.2495699 14.053166
-25.35025 39.777821 4.2626157 13.744188
-25.312563 40.177036 4.247858 13.027726
-25.367022 40.575626 4.0370417 12.146
-25.463459 35.453812 4.6441631 13.08025
-25.329088 35.795525 4.5759115 11
-25.4785 36.551617 4.506721 11.373833
-25.466719 37.020344 4.5231695 12.851199
-25.526764 37.416279 4.5691833 10.854799
-25.361282 37.862488 4.4728818 14.12775
-25.494972 38.277084 4.5747662 14.84525
-25.473927 38.740326 4.5376949 15.1105
-25.47991 39.026318 4.5679727 14.1266
-25.442358 39.414829 4.5650597 13.889408
-25.409716 39.743355 4.5776606 13.337499
-25.423204 40.235207 4.5837789 13.412749
-25.322376 40.489944 4.6189666 11.897499
-25.361916 40.874954 4.6596518 12.0245
-25.556963 35.687202 4.8289337 13.0155
-25.512367 36.931351 5.077373 13.016
-25.569874 38.223598 4.9594569 15.108
-25.428486 39.74456 4.8990669 13
-25.300072 40.216743 4.8844967 13.814499
-25.225229 32.266212 10.157052 15.084
-25.474638 33.593647 10.500019 15.1705
-25.287292 35.628883 10.630501 15.1705
-25.427906 37.32 10.459608 12.0785
-25.40213 32.20536 11.167791 15.04375
-25.403868 32.98494 11.054082 15.0539
-25.398083 33.409348 11.002913 15.056
-25.587641 33.783192 11.126534 14.54575
-25.415142 34.579208 11.025072 14.587
-25.388695 34.850708 11.046006 14.54425
-25.206617 35.497494 10.981459 15.0665
-25.485853 37.112217 10.943193 14.62125
-25.351454 37.423813 11.111746 14.0975
-25.329887 38.3536 11.174798 14.0725
-25.334272 39.196388 11.058681 14.026
-25.235249 32.794838 11.280792 15.031
-25.553595 35.830894 11.447642 13.07475
-25.528812 36.665966 11.266244 14.59225
-25.357805 36.939461 11.456046 13.037625
-25.381016 37.347294 11.472024 14.028666
-25.228968 39.02298 11.481497 13.7155
-25.48732 36.312225 11.62773 13.0755
-25.478239 36.580597 11.724247 13.076
-25.501806 37.086323 11.845609 14.0725
-25.291613 37.716377 11.620018 13.0765
-25.355312 38.127357 11.713415 14.073
-25.539268 36.196461 14.754902 14.0765
-25.496113 36.427666 15.196448 15.0735
-25.434711 36.833138 15.059327 14.0765
-25.239347 37.480335 15.079186 15.074
-25.294626 37.737488 15.092559 14.077
-25.516916 36.128613 15.557918 15
-25.481401 36.495728 15.308269 14.384334
-25.372528 37.010994 15.444691 15
-25.293255 37.432579 15.394107 15
-25.203627 37.739777 15.365149 15
-25.579321 35.555408 15.640326 15
-25.560036 35.825985 15.790109 15.0495
-25.390364 36.964455 15.738792 15.07475
-25.347477 37.317856 15.969748 15.0755
-25.123714 39.751453 -5.1486411 8.1105003
-24.939426 41.783352 -4.1058364 8.0869999
-24.829632 41.72261 -3.9066041 8.0845003
-24.823746 39.947849 -2.6995473 8.0815001
-24.927561 56.995647 -2.4541767 5.3333335
-25.068701 57.389885 -2.413991 4
-24.970577 57.7486 -2.4317434 4.75
-25.094685 58.225655 -2.4477828 4.4000001
-24.928642 58.592903 -2.4537601 4.25
-24.917536 59.021393 -2.4740105 4.25
-25.14642 59.438747 -2.4785571 4
-24.975273 59.728149 -2.4973655 4
-25.132 44.968525 -2.0614817 5.3333335
-25.143724 45.388393 -2.0864859 4.5
-25.058414 45.751575 -2.1022682 4
-24.928734 46.082653 -2.1158912 4
-24.931459 46.543827 -2.1258371 4
-25.055262 46.93214 -2.1288142 4
-24.99535 47.325035 -2.1368268 4.5999999
-25.040041 47.735825 -2.1485841 4
-25.093634 48.084606 -2.1599526 4.3333335
-25.057545 48.544796 -2.1705129 4
-25.062538 48.897072 -2.1822474 4
-25.044781 49.417004 -2.1909068 4.75
-24.985432 49.864899 -2.2058699 4.6666665
-25.114079 50.087933 -2.2080629 4.6666665
-25.048241 50.487144 -2.2122159 4.5
-25.088501 50.943256 -2.2356844 4.6666665
-25.125193 51.595329 -2.2623148 6
-25.047367 51.788197 -2.2423551 5
-25.071358 52.560143 -2.0484202 7
-24.906595 53.069881 -2.1458735 6
-24.901129 53.780548 -2.3126264 6
-25.108393 54.000553 -2.1144335 6
-24.900707 54.645477 -2.3114426 5
-24.973841 54.939606 -2.2488806 5.6666665
-25.167917 55.355156 -2.2046351 5.5
-25.15848 55.860363 -2.361187 4
-25.043291 56.221622 -2.3053322 5.6666665
-25.049685 56.503929 -2.3796675 5
-25.079512 56.884026 -2.1455257 7
-24.972675 57.492371 -2.1833515 7
-25.029949 57.60392 -2.1433246 7
-24.929647 58.200718 -2.1809015 7
-25.11388 31.17602 -1.6888635 5
-24.836199 32.842888 -1.7041628 5
-24.952641 33.686153 -1.8812149 6
-24.937422 37.621788 -1.6317683 6
-24.858969 40.355133 -1.6504627 6
-24.857943 41.029022 -1.6333141 7
-25.141905 41.229748 -1.9621996 6
-24.811769 41.996532 -1.6102562 5
-25.037073 42.163795 -1.7255499 5
-24.937424 42.633751 -1.6076097 5
-24.927677 43.022743 -1.6948085 5
-25.051552 43.396049 -1.7159566 5.4165587
-24.927267 43.857746 -1.7226636 5.7142859
-24.969175 44.115135 -1.7476366 5.25
-25.010248 44.627518 -1.8181432 5.6666665
-24.921331 44.881123 -1.7812773 6
-24.900652 45.445927 -1.844609 6
-24.988937 49.946682 -1.9602354 7
-24.987947 50.748013 -1.9762062 7
-24.830841 51.46833 -1.9943482 7
-25.118418 30.387871 -1.3821465 5
-25.105022 30.684759 -1.3993984 5
-24.993216 31.079903 -1.518337 6
-24.942894 31.373552 -1.2555753 5
-24.949192 32.347183 -1.3283421 7
-24.969273 32.492702 -1.2159282 8.1178331
-25.01001 34.014652 -1.2874171 6
-25.123287 37.940552 -1.2348416 7
-24.959682 38.284603 -1.4165822 5.3333335
-25.117655 38.687828 -1.4888054 5.5
-25.175184 38.983295 -1.5174174 5
-24.972605 39.798542 -1.3396893 5.6999998
-24.975342 40.16713 -1.379844 5.6666665
-24.804342 41.562416 -1.3347204 7
-24.945404 41.985077 -1.509287 7
-24.938982 42.21106 -1.3255363 7
-24.941381 43.335899 -1.5387141 6
-24.897577 43.850079 -1.5935419 6.3333335
-25.199896 30.426636 -1.1837295 5
-24.854908 31.213814 -1.1018764 7
-24.947577 31.665277 -1.0656223 8.1219997
-24.903536 32.281818 -0.91918421 6.75
-24.978489 32.540794 -0.98415333 6.8749285
-25.010595 33.076515 -0.92076719 6
-24.827454 33.473595 -1.1558596 6
-24.906563 34.251495 -1.0532939 6
-25.031643 35.049164 -0.98875076 6
-25.116888 35.263512 -1.0235456 6
-24.852695 35.926796 -1.0707207 6
-24.954966 36.740959 -1.002862 6
-24.930904 37.501114 -1.1852694 7
-25.098135 37.72691 -1.0781651 6
-25.164186 38.13657 -1.0717678 6
-24.925573 39.809322 -1.0947332 6
-24.934059 40.195518 -1.101792 6
-25.015448 41.603642 -1.0165886 8.1239996
-24.880804 43.42049 -0.92630678 7
-24.870087 43.774048 -0.88299394 7
-24.93046 30.633221 -0.50379097 7.7320251
-24.984386 30.877636 -0.44540998 7.3333335
-25.13431 31.458101 -0.42590943 8
-25.041821 31.817007 -0.51533401 7.7525001
-25.030659 32.208275 -0.52078807 7.0196877
-24.992577 32.585243 -0.51122308 6.906333
-24.925676 33.13102 -0.77166009 8.0780001
-24.951645 34.876537 -0.56560791 7
-24.907118 35.25729 -0.73789102 7
-24.95433 35.640831 -0.50454408 6
-24.833872 39.807354 -0.67829329 7
-24.831406 40.122124 -0.65846765 7
-24.892519 43.16304 -0.71744031 7
-24.882086 43.540199 -0.68793648 7.5592499
-24.920824 43.693985 -0.65038133 7.2160997
-24.988432 30.2201 -0.15558593 8.0062494
-24.99419 30.548193 -0.22774646 8.0211678
-25.004042 30.969715 -0.29989913 7.9272513
-24.944389 31.411707 -0.21037479 7.9825869
-25.030369 31.777039 -0.2506617 7.9375458
-25.035271 32.297676 -0.11737676 7.4989285
-25.02825 32.58176 -0.17687657 7.8967919
-24.977562 33.529976 -0.0037836398 8.0492496
-24.914574 34.247501 -0.048526183 7.9333334
-24.833488 34.422802 -0.11058404 8.0235004
-25.093647 35.692139 -0.047765117 6
-25.142918 41.184814 -0.16446982 7
-25.126831 42.183723 -0.064012669 8.0295
-24.890701 43.094093 -0.2614305 8
-24.898634 43.396889 -0.18493345 8.0720634
-24.858953 43.79076 -0.14235112 8.0562086
-24.939562 30.216562 0.11578108 7.8737068
-24.980289 30.556931 0.21695887 8.2888861
-25.011778 30.979086 0.17548512 8.2829094
-25.077717 31.399155 0.21573599 8.0870218
-24.895449 31.846912 0.10222896 7.2773752
-24.994204 32.173187 0.021514991 7
-25.038727 32.592644 0.056603689 8.1055622
-25.106247 33.032333 0.12571177 8.031333
-25.034992 33.35994 0.093821503 8.0592375
-24.884933 33.675358 0.12019997 8.1994286
-24.980705 34.229969 0.13930501 8.2358675
-24.948839 34.560104 0.25562868 8.5718756
-24.914965 34.833488 0.39517331 9
-25.047678 41.99448 0.29721174 8.0249996
-24.916014 43.095592 0.22948146 9
-24.944687 43.428864 0.24742745 9.0290699
-24.875278 43.74395 0.26371717 9.0692635
-24.80546 44.024216 0.15280624 7
-24.984009 30.236359 0.56689978 8.8434887
-25.011965 30.607321 0.57717556 8.717164
-25.041847 31.015757 0.5668779 8.9248009
-25.102915 31.402233 0.60663855 8.6544867
-25.051643 31.765301 0.48019826 9.0632496
-24.837931 32.174919 0.75745344 9.0769997
-25.06896 33.119358 0.50564027 8.8268747
-25.043451 33.391312 0.60836893 8.9153996
-24.977547 33.794827 0.5689528 8.9892416
-25.098927 34.234905 0.54489326 9.0331411
-24.946459 34.624252 0.53093678 9.0289698
-24.874849 34.939152 0.5696038 9.0261459
-24.912481 35.610989 0.67331624 9.1429996
-25.028629 43.129997 0.7207135 10
-24.995884 43.453472 0.64813519 9.5459146
-24.968357 43.672424 0.66787082 9.4225712
-25.039442 30.246611 0.96291625 9.7329254
-24.961603 30.541664 0.99002266 9.7551765
-25.053919 30.957567 0.95703536 9.5913754
-25.018391 31.391323 0.94545591 8.8634005
-25.190014 31.691057 0.92893291 9.0047493
-24.814899 32.134792 0.82276535 9.0780001
-24.873671 32.63031 0.91794354 8.0065002
-25.121492 32.942806 1.1687908 9.1479998
-25.090807 33.448982 0.96796113 9.6440001
-25.100504 33.789333 0.93584239 9.9099436
-25.085182 34.216434 0.95339787 9.8036251
-24.954868 34.632339 0.93893117 9.9244738
-24.909826 34.913589 0.98011667 9.9517813
-24.891827 43.465508 0.85223502 9.3398752
-24.875673 43.703987 0.97351247 9.1504993
-24.994263 30.216261 1.3809191 10.279816
-25.030148 30.560753 1.387414 9.8752565
-25.019024 30.908445 1.3627551 9.8661938
-25.022221 31.352278 1.4962821 9.2616243
-24.808945 31.809092 1.4217389 10.1475
-24.948452 32.196098 1.3779727 9.0240002
-24.907032 32.402847 1.5873488 9.0004997
-25.082764 33.299538 1.2560885 10.087357
-25.085403 33.767635 1.3462278 10.813619
-25.082523 34.222935 1.3783643 10.844
-25.046656 34.597267 1.364256 10.081301
-25.047564 35.00568 1.3471041 10.180082
-24.915377 35.311443 1.377406 10.314546
-25.124802 54.606853 1.3339622 9.1400003
-24.999071 30.207239 1.7242298 10.612923
-24.958151 30.569506 1.7666367 10.411654
-25.002937 30.912724 1.7430807 10.438834
-25.075392 31.353874 1.7878261 10.329268
-25.057116 31.760536 1.7673968 10.828953
-24.975838 32.045151 1.6630335 9.0229998
-25.029724 33.584629 1.6698346 9.0620003
-25.02459 33.866062 1.8815949 10.936168
-25.069307 34.234634 1.8994179 11.221357
-24.992508 34.592022 1.7633932 11.06185
-24.969751 35.026978 1.7615453 11.030554
-25.057728 35.325378 1.7968602 10.363
-24.933401 39.270737 1.8293818 9.0799999
-25.070042 30.225286 2.1810358 12.057689
-25.026796 30.590963 2.2086465 11.082376
-24.974213 30.993431 2.2382648 10.6896
-25.05451 31.365221 2.2491238 10.506607
-25.175751 31.654192 2.1181417 12.1255
-25.118105 32.419895 2.33182 11.084
-25.031502 33.666519 2.3646412 12.135
-25.048306 34.135727 2.1268978 10.549834
-25.004633 34.535381 2.1571264 11.190417
-25.035879 35.010403 2.2307208 11.798285
-25.005541 35.326527 2.1478889 12.063564
-25.190235 35.962021 2.3908083 9.0764999
-25.042004 36.745895 2.3722589 9.0769997
-24.919966 37.004086 2.2151062 11.1094
-25.054813 37.381741 2.353229 9.6677856
-24.983887 37.655735 2.0501139 10.079
-24.941513 38.361538 2.2890828 9.078167
-24.912386 41.514366 2.2396331 10.08
-24.937935 41.638962 2.1481645 10.081
-24.957081 30.156033 2.5130484 13.627251
-24.970116 30.5156 2.4319479 11.081125
-24.929426 32.63229 2.5663455 10.1435
-24.85441 33.76516 2.6588044 13.1185
-25.12504 34.317245 2.6576085 13.511343
-25.061211 34.620461 2.6081195 12.407196
-25.061872 34.965652 2.5799613 12.400684
-25.01853 35.395691 2.6091425 12.2866
-25.134497 35.840961 2.6421371 13.065999
-25.102438 36.283688 2.6629052 13.0965
-25.060335 36.637863 2.6624947 13.252209
-25.08971 37.016792 2.683321 13.402087
-24.998344 37.442959 2.671612 13.24443
-24.981918 37.804501 2.6635897 13.18025
-24.927391 38.222317 2.6912637 13.095817
-24.855991 38.593166 2.6704195 13.325563
-24.828773 38.863182 2.6473444 13.51639
-25.135233 39.923153 2.6504831 11.087749
-24.982439 40.359383 2.6106751 11.64875
-25.068558 40.580921 2.5992813 11.696775
-25.073717 41.423546 2.5022385 11.098
-24.996639 41.659691 2.5172927 11.097
-24.859209 43.017349 2.7297697 11.54725
-25.030371 45.686813 2.7473204 10.108
-25.000336 30.033655 2.8257871 12
-25.036156 30.564341 2.8130641 12
-24.89394 31.071184 3.0332518 11.1445
-25.083439 33.745972 3.1462924 12.1245
-24.901371 34.188156 3.0540614 10
-25.05419 34.681732 2.8922071 11.0255
-25.172441 35.222198 2.87203 12.145
-24.911549 35.675941 2.8541093 12.1385
-25.11075 36.203506 2.9143293 11.1195
-25.163246 36.715973 3.0595417 14.063376
-25.106888 37.002201 2.9924808 13.353832
-25.066662 37.393665 2.9942005 13.570188
-24.987499 37.789425 2.9649889 13.255188
-24.957546 38.214046 2.9409833 13.775762
-24.925583 38.627689 2.9616704 13.719226
-24.936176 38.97102 2.9316759 13.23139
-24.977867 39.37151 3.0234954 12.068476
-25.023407 39.872604 2.9319217 12.363531
-24.929276 40.152824 2.8215172 13.37
-25.003241 40.580948 2.8823204 12.783875
-25.152832 41.060673 3.0209932 13.808784
-25.117094 41.405148 3.0272393 13.5955
-25.06657 41.789444 3.0179019 13.819703
-24.980824 42.187046 3.0018935 13.426313
-24.910244 42.614983 2.9830978 13.588337
-24.844181 43.025654 3.02141 13.552438
-24.813272 43.288349 3.0157359 13.596812
-25.069038 44.569046 3.1558745 10.1395
-25.179831 34.369682 3.3195939 11.143
-25.0525 34.769135 3.3566916 10.0365
-24.972982 35.466946 3.4890049 11.0065
-24.945766 36.112148 3.3275182 10.406167
-25.177614 38.512157 3.4531956 11.576
-25.149755 39.355618 3.2631247 12.1115
-25.002583 40.209591 3.4363744 11.08
-25.039137 40.514206 3.302058 10.0085
-25.160252 41.030106 3.4054615 14.256361
-25.081249 41.426266 3.451277 13.477894
-25.038628 41.825077 3.4190404 13.289273
-24.974949 42.22361 3.4166024 14.084836
-24.912653 42.617294 3.4124298 13.716516
-24.8568 42.976471 3.3912516 13.759262
-24.840998 43.344006 3.3819525 13.253928
-24.943041 43.777847 3.4666479 11.14875
-24.902517 44.146172 3.5687025 11.147
-25.112375 38.27087 3.8891726 11.053749
-25.140619 38.632195 3.9225302 13.08175
-25.066082 39.402962 3.8684483 12.4774
-25.05447 39.794197 3.9590409 12.894801
-25.052198 40.157982 3.836859 12.826928
-25.062429 40.57214 3.7082891 12.344708
-25.09376 41.461678 3.7156394 13.866334
-25.01306 41.869518 3.7510979 13.007117
-24.929979 42.150867 3.7556641 13.341833
-24.920279 42.539494 3.7824221 13.750583
-24.88759 42.996429 3.705775 13.373251
-24.810467 43.316742 3.619947 14.57675
-25.070452 34.887543 4.3986979 11
-25.124178 35.385693 4.0884581 12.1425
-24.993649 36.111954 4.1598859 12.142
-24.95223 36.94923 4.2629442 13.627501
-24.879375 37.635288 4.3661156 11.0375
-25.140499 38.207973 4.2193656 12.417167
-24.945702 38.525578 4.2623906 12.071834
-24.931715 38.840809 4.3644819 11.0695
-25.142103 39.462006 4.1465111 13.583625
-25.075523 39.852367 4.2345333 13.1015
-24.959358 40.193798 4.1453004 12.511063
-25.050467 40.603371 4.1661477 14.066999
-25.111528 40.987186 4.2189264 15
-25.029991 41.47422 4.1412754 14.0855
-24.968637 41.849194 4.1690187 13.815195
-24.907589 42.229439 4.2010236 13.463571
-24.857656 42.558681 4.21454 13.295167
-24.821198 42.834816 4.2017689 14.0805
-24.870647 43.493797 4.0858812 12.1355
-25.189692 33.384941 4.5867853 11
-25.16818 34.762863 4.4091744 11
-25.032566 35.517799 4.6970515 11.0535
-25.083941 35.678131 4.7866378 11.032
-25.076733 36.991669 4.5480337 11.04325
-25.064318 37.54813 4.5369468 12.385166
-25.173164 37.958447 4.5388083 12.103
-25.120445 38.071568 4.521111 13.06175
-25.047766 38.404526 4.4504442 15.112
-25.161842 39.903538 4.5176435 11.593876
-25.029266 40.171944 4.5406661 11.693799
-25.064428 40.591255 4.5498123 12.839
-25.114311 41.060818 4.7010999 14.108
-25.001379 41.400658 4.41711 15
-25.035822 41.813175 4.590013 14.054375
-24.925348 42.330746 4.4874687 14.13225
-24.860094 42.525909 4.4141045 14
-24.849133 44.221771 4.6085138 12.1425
-24.920227 39.209747 4.9588723 12.0065
-24.877003 39.848892 4.9711618 12.013
-25.108402 40.241848 4.8477111 11.015
-25.083309 40.660831 4.8569636 13.5695
-24.882177 42.680023 4.8253226 13.1055
-25.07793 39.475288 6.0784612 11.0285
-24.840118 39.600719 6.3349829 13.0795
-24.840792 40.036724 6.2739286 13.0795
-24.801279 40.762527 6.2516394 13.0795
-24.829493 38.71207 6.5434628 14.08625
-24.826717 38.876534 6.4607215 14.0865
-24.897697 39.571533 6.7680526 14.1035
-24.864719 39.948402 6.7204757 15.0935
-24.850189 40.204361 6.7108068 15.094
-24.812164 40.672184 6.6000624 15.099
-24.832266 40.817757 6.7864938 15.1455
-24.840437 41.820358 6.7766347 15.154
-24.836363 36.110786 6.9835696 14.103
-24.831776 36.963387 7.0099649 15.1045
-24.91304 37.3904 7.1031423 14.1025
-24.874115 37.702736 7.0282302 15.1045
-24.84878 38.170418 7.0767579 13.337874
-24.953508 38.46302 7.1129589 15.0195
-24.98316 38.993267 7.009954 14.436166
-24.961817 39.361977 6.9103565 14.60275
-24.999702 39.86055 7.0242519 14.0995
-24.960806 40.003304 6.9232516 15.105
-24.877213 40.459106 6.9470825 13.588875
-24.905272 40.941711 6.9113102 14.359751
-24.877218 41.277489 6.8718204 15.12775
-24.927916 41.685738 6.9769177 15.146
-24.902864 35.964561 7.5361032 14.1015
-24.828871 36.659012 7.2952971 15.104
-24.825062 36.922672 7.374321 14.1025
-24.902828 37.382416 7.3397112 14.6025
-24.924936 37.929405 7.4564772 14.099
-24.949297 38.300957 7.3748684 14.099
-24.934019 38.524807 7.5302806 15.104
-24.900286 39.193882 7.4240623 12.022
-25.119162 39.327019 7.324852 15.02
-24.926889 39.699318 7.3348041 14.098251
-25.142967 40.269043 7.2953019 15.02575
-24.859179 40.669315 7.4201684 13.749001
-24.879639 41.051075 7.5466871 15.1035
-24.85009 34.273842 7.9245987 14.101
-24.904757 35.948956 7.6986189 14.1005
-24.885006 36.289173 7.7101393 14.0995
-24.862719 36.689407 7.7585635 14.601
-24.843872 37.903587 7.6447921 14.0975
-24.804384 39.590088 7.6904664 13.1695
-24.927189 40.19746 7.8196731 13.762668
-24.901329 40.643192 7.6543856 15.104
-24.858902 41.201588 7.6972094 15.1025
-24.949238 35.811668 10.045963 15.08
-25.051619 36.261681 10.22134 15.0805
-24.881584 37.255756 10.061319 15.08
-25.050716 37.862957 10.289802 15.081
-24.808798 39.007584 10.194133 15.081
-24.829899 40.404343 10.111766 15.08
-24.902191 35.53294 10.77073 15.1045
-24.98704 36.330612 10.64457 15.1705
-25.180792 33.061241 10.965522 15.0525
-25.081629 33.869915 10.961624 15.037499
-25.015915 34.143703 10.941669 15.045167
-24.920837 35.425762 11.013882 15.019
-24.909184 37.078312 10.938509 14.403666
-24.910645 37.777634 11.050555 14.072
-25.184933 38.035938 11.168534 13.0755
-25.086864 38.521568 10.921762 14.785666
-25.082409 38.890999 11.182231 15.066
-25.136953 39.31057 11.063519 14.073
-24.881153 40.288803 11.032511 13.57525
-24.893078 40.784775 11.148088 14.074
-24.915068 30.37018 11.477136 15.026
-24.944887 36.549946 11.309762 13.0745
-25.148615 37.690388 11.514572 13
-25.138676 38.075325 11.391011 13.038
-25.068605 38.516144 11.430495 13
-24.993216 38.970829 11.510324 13.051499
-25.049021 39.361347 11.370035 13.019125
-25.020599 39.8139 11.330406 13.357834
-24.940823 40.185112 11.411761 13.288
-25.03018 40.608803 11.364518 13.51775
-24.919329 40.965252 11.470408 13.666667
-24.824297 41.436268 11.427097 13.666667
-25.07308 39.788048 11.680118 14.037001
-25.020588 40.247543 11.624419 14
-25.004438 40.657623 11.913777 14
-24.950823 41.017982 11.874526 14
-24.838558 41.444817 11.838258 14
-24.80751 41.753777 11.802524 14
-24.968395 39.361301 15.163352 15
-24.876207 39.793781 15.118375 15
-25.189787 37.981255 15.547223 15.075
-25.176088 38.079613 15.316882 15
-25.12167 38.53101 15.231376 14.384999
-25.030334 38.977219 15.404795 15.025167
-24.919624 39.399574 15.538766 15
-24.856216 39.777481 15.490289 14.539249
-24.860029 40.238678 15.311322 14.558249
-25.153973 38.162636 15.782493 15.07575
-25.072187 38.62616 15.723914 15
-25.011339 38.879009 15.803429 15
-24.971203 39.219612 15.762239 15
-24.871775 39.813702 15.777521 15.025666
-24.856203 40.416485 17.95611 15.0785
-24.772001 33.94751 -4.2085295 8.0915003
-24.753511 42.09124 -4.3610744 8.0900002
-24.741461 33.717796 -3.3751857 8.0810003
-24.632269 40.342201 -3.4806454 8.1125002
-24.556063 42.404713 -3.5184872 8.1129999
-24.599298 32.440937 -2.4586647 7
-24.641043 34.533031 -2.5987265 8.0799999
-24.673029 39.884686 -2.6047342 8.0815001
-24.550396 41.765965 -2.74476 8.0819998
-24.44129 56.301132 -2.499465 6
-24.465975 56.529984 -2.4036977 6
-24.44191 57.075603 -2.4055989 5
-24.692074 57.429104 -2.4251468 5.5
-24.539246 57.853989 -2.4339826 5
-24.621342 58.055412 -2.4275601 5
-24.74003 59.398067 -2.4838829 4
-24.684885 59.770687 -2.4960415 4
-24.525936 31.729534 -2.3059888 7
-24.46756 34.029602 -2.0570838 8.0795002
-24.520596 39.73951 -2.1954746 8.5977497
-24.548876 44.981239 -2.0677071 6
-24.73608 45.456551 -2.0241332 6
-24.699951 45.736042 -2.1034813 6
-24.604933 47.537453 -2.1259859 6
-24.43082 48.25182 -2.1713748 5
-24.765217 48.570412 -2.1668339 5
-24.565838 49.073559 -2.1795788 5
-24.634258 49.399178 -2.14096 5.4000001
-24.46879 49.7439 -2.1824746 5
-24.614401 50.011322 -2.1927669 5
-24.451571 51.175446 -2.0444212 7
-24.793242 51.354443 -2.2233007 5
-24.708084 52.212791 -2.0124166 7
-24.461872 52.756378 -2.1800017 6
-24.655367 53.348385 -2.2414517 6
-24.689779 54.100574 -2.3152235 5
-24.616261 54.471214 -2.212734 6
-24.564346 55.379333 -2.2464964 6.1999998
-24.562309 55.841034 -2.2057762 6.3333335
-24.446281 56.394367 -2.3719943 6
-24.721369 58.747326 -2.2207119 7
-24.715219 58.918827 -2.1831462 7
-24.533936 59.466225 -2.2225184 7
-24.403547 59.980438 -2.2602048 7
-24.582249 30.550568 -1.8623843 4.3333335
-24.748543 30.972553 -1.6866541 5
-24.754145 33.515938 -1.8721969 5
-24.533083 33.77742 -1.7843676 5
-24.425755 39.059731 -1.6501348 5
-24.46537 39.91011 -1.8141353 8.0804996
-24.530539 40.123302 -1.8211565 8.092
-24.740047 40.430321 -1.9113125 8.1140003
-24.651075 41.883621 -1.6383246 5
-24.55434 42.238045 -1.6829232 5.7996669
-24.611435 42.577194 -1.6750075 5
-24.676777 43.010605 -1.6697135 5
-24.760086 43.406643 -1.6288168 5.25
-24.699787 43.859226 -1.6890578 5.125
-24.584837 44.16061 -1.6965152 5.5
-24.555908 44.591492 -1.7270477 5.5833335
-24.608568 44.951622 -1.8615984 5.75
-24.546808 45.787289 -1.9401616 6
-24.652628 48.177876 -1.9753997 6
-24.648882 49.990807 -1.9120338 6
-24.506567 30.59462 -1.3247104 7.4079995
-24.631592 31.113308 -1.2823963 7.5574999
-24.584911 32.326378 -1.2744656 8.1160002
-24.762526 32.425671 -1.2155691 7
-24.675051 33.079292 -1.2041924 8.0784998
-24.511366 33.747841 -1.3180991 7.0392499
-24.745773 34.716309 -1.5979105 8.1120005
-24.747776 35.396935 -1.4311186 6
-24.658789 35.628071 -1.4396421 6
-24.579426 38.30571 -1.3276829 6
-24.640757 38.679794 -1.3852285 6
-24.590698 38.985306 -1.4726324 5.3333335
-24.539234 39.304497 -1.3857644 5.6666665
-24.661169 39.859978 -1.3191239 7.0321999
-24.639616 40.173496 -1.4622406 6.5
-24.424942 41.575333 -1.5581652 6
-24.601959 41.792511 -1.3996531 6.181818
-24.591642 42.147228 -1.3212051 6.2222223
-24.5023 42.479256 -1.3728147 6.1999998
-24.677874 43.468559 -1.2623634 6.2775335
-24.593182 43.70734 -1.3643079 6.7795
-24.591413 44.062183 -1.4440166 7.3723335
-24.519192 30.214102 -0.95161438 8.1031656
-24.535101 30.514391 -0.93360633 6.9631667
-24.57443 30.974405 -1.0915469 6.75
-24.608562 31.271984 -0.99280554 7.0481424
-24.702366 31.876015 -0.94198459 7.58675
-24.63825 32.195763 -1.0908154 6.7310715
-24.730301 32.556499 -1.0042778 5
-24.634914 33.529076 -1.075937 6
-24.703991 33.859112 -1.044012 6
-24.699766 34.272209 -1.0444565 6
-24.498247 34.584179 -1.034151 6
-24.407457 35.161617 -0.98687828 7
-24.552025 35.355713 -1.0661862 6
-24.599751 36.175182 -1.0237478 6.1666665
-24.618435 36.639874 -1.0523283 6
-24.51223 36.918209 -1.0360179 6.3333335
-24.748276 37.791447 -1.1654681 6
-24.52252 38.584236 -1.0426039 6.1111112
-24.621157 39.578335 -1.1514337 6
-24.764387 39.757042 -1.1700212 6
-24.518999 40.307968 -1.0676728 7.8187499
-24.567879 40.558689 -1.0294223 6.25
-24.473991 41.969181 -1.1089009 7.3873334
-24.668505 42.252617 -1.1371043 6.0666666
-24.518032 42.546352 -1.0623468 6.3333335
-24.65546 43.524441 -1.164296 6
-24.647209 43.700226 -1.0042307 6.6666665
-24.527647 30.327797 -0.51943642 7.2948179
-24.611954 30.570631 -0.47911182 7.5953574
-24.605455 30.981636 -0.44209707 7.0192499
-24.695482 31.365368 -0.45026851 6.6153998
-24.613121 31.763626 -0.56229448 7.3596668
-24.67894 32.200859 -0.52833122 7.3192859
-24.422817 33.146133 -0.62614202 7
-24.52673 33.435966 -0.57562613 7
-24.570271 33.702255 -0.69640833 7
-24.599319 34.042793 -0.58991998 7
-24.522367 34.422508 -0.50007176 7
-24.664927 35.116158 -0.7639237 6
-24.727804 35.254585 -0.75802082 7
-24.642094 35.758732 -0.5015384 6
-24.648914 39.529758 -0.66677386 7
-24.702808 39.778976 -0.63563162 7.0621109
-24.706682 40.162876 -0.62991303 7.0646176
-24.637835 41.858711 -0.74145818 7
-24.64517 42.233212 -0.69279182 7.1002502
-24.592705 42.538021 -0.71018112 7
-24.697182 43.11116 -0.76073962 7
-24.682562 43.460091 -0.69852024 7.1595001
-24.64115 43.733585 -0.66134566 7.4073539
-24.578156 30.256836 -0.25855294 7.8318133
-24.61974 30.570215 -0.23104934 7.8666964
-24.561222 30.893078 -0.2228796 7.5737185
-24.652695 31.380051 -0.19784613 7.5865002
-24.72241 31.709023 -0.34238029 7.8559451
-24.73665 32.349228 -0.29716885 8.1190004
-24.642279 32.561619 -0.15432064 7.923214
-24.497269 33.401741 -0.044965696 8.1081247
-24.530495 33.726582 -0.02906419 8.1229296
-24.760855 34.304211 -0.072135001 8.0390501
-24.668489 34.545727 -0.056625698 7.9969759
-24.575539 39.828571 -0.14129303 8.0582914
-24.5707 40.161407 -0.17083319 8.0704355
-24.537699 41.872009 -0.21007563 8.0636873
-24.449038 42.188171 -0.21389852 8.053854
-24.453318 42.525337 -0.2265958 8.0481672
-24.618135 43.17305 -0.24757612 8.1090002
-24.714558 43.408337 -0.20362324 8.0238791
-24.718353 43.689552 -0.1993961 8.0399809
-24.680565 44.025856 -0.22429861 8.1027498
-24.585192 30.231745 0.18629704 8.0598536
-24.686831 30.540451 0.2285914 8.2584305
-24.625483 30.849442 0.050957538 8.128583
-24.691912 31.438004 0.17685902 7.5370002
-24.600554 31.705757 0.14621095 8.0994997
-24.561026 32.431763 0.18859272 7
-24.741833 33.050583 0.1753137 8.0655003
-24.576572 33.529942 0.099527128 8.1300497
-24.49815 33.77253 0.098956913 8.094327
-24.683813 34.226353 0.094640881 8.1365452
-24.63035 34.5742 0.078616552 8.0885077
-24.592381 34.926636 0.23306766 8.3145714
-24.423773 39.854637 0.34206012 9.0146675
-24.447758 40.110733 0.18131004 8.6101828
-24.658319 43.404816 0.28359804 8.9373121
-24.664936 43.785877 0.29084361 8.730566
-24.613943 44.064068 0.26851991 8.04
-24.64764 30.221085 0.6369074 8.6904526
-24.616974 30.541513 0.57263571 8.8256321
-24.559269 30.90889 0.55637783 8.98384
-24.498854 31.357069 0.53649461 8.9367075
-24.682829 33.106579 0.60746032 8.9419279
-24.695089 33.362194 0.5368799 8.6687918
-24.615793 33.825169 0.61183697 8.5698748
-24.66349 34.236538 0.52264279 8.9280157
-24.570925 34.614689 0.55440217 8.7921057
-24.695211 34.998528 0.58608615 8.961462
-24.641243 35.211594 0.56195211 9
-24.434952 40.072025 0.40590385 9
-24.690344 43.496914 0.5717417 9.1379995
-24.554913 43.790977 0.68350649 9.4091158
-24.591919 44.071636 0.512079 9.4440002
-24.633581 30.181286 0.97658092 9.43501
-24.626665 30.55629 0.90313184 9.0968256
-24.683735 30.892595 0.99435234 9.7765341
-24.726757 31.941664 1.0717628 9.7620001
-24.699812 34.714973 1.0994632 9.7044992
-24.632196 34.99353 0.95341438 9.7637043
-24.5406 35.281742 0.96335828 9.5
-24.695271 43.531578 0.94819307 9.6152773
-24.632149 43.81245 0.97518736 9.227375
-24.620434 30.212961 1.3815696 9.999176
-24.627207 30.576452 1.3923904 9.2910242
-24.575464 30.877768 1.4205612 9.4263334
-24.738047 31.876272 1.3386606 10.13625
-24.715136 32.134117 1.5618713 9.0015001
-24.685734 34.309162 1.3459321 10.047167
-24.639671 34.651497 1.3920885 9.6387863
-24.569635 34.933823 1.3372521 9.7473631
-24.63278 35.397984 1.5371495 9.9105711
-24.580153 35.602272 1.5880185 9.5
-24.626713 43.823425 1.2608001 9
-24.619293 44.092152 1.4382918 9.0819998
-24.665443 49.734215 1.2295748 9.1424999
-24.67156 30.191315 1.7613925 10.836893
-24.712156 30.629517 1.7517728 9.8813
-24.698729 30.884611 1.7891883 10.575251
-24.770805 31.506084 1.629351 9.1009998
-24.713778 31.85545 1.7988801 10.123
-24.613932 33.907211 1.6465372 9
-24.618023 34.200798 1.8493323 11.351376
-24.713203 34.586861 1.880877 11.351376
-24.645542 35.048306 1.8497272 11.170924
-24.496429 35.341633 1.7847545 10.987468
-24.728392 36.324387 1.8831894 9.0010004
-24.721592 38.564419 1.9912661 10.0805
-24.728594 39.851692 1.6028332 10.1415
-24.778442 41.073673 1.9888266 10.0795
-24.676218 30.10955 2.1931188 10.681219
-24.668459 30.507229 2.2385757 10.04675
-24.741755 30.920595 2.2738206 10.1775
-24.714087 31.400936 2.3091767 10.0925
-24.773031 33.814926 2.3877194 12.158
-24.732851 34.144417 2.1032515 10.0285
-24.786232 34.718227 2.0785742 11.1385
-24.704859 34.911251 2.0817778 10.872071
-24.649515 35.354202 2.1861651 10.837937
-24.528776 35.836857 2.0956271 9.0385008
-24.748722 36.221325 2.2087359 11.143
-24.512749 37.513794 2.3303416 11.143
-24.794771 37.822678 2.2454522 11.1105
-24.514719 38.157177 2.3448002 11.1375
-24.660761 39.09787 2.099421 10.0785
-24.606882 39.271122 2.3370688 11.101834
-24.695395 40.166183 2.1759076 10.0795
-24.595972 41.036419 2.039851 10.0805
-24.493765 41.219578 2.2052939 10.079
-24.471807 42.259224 2.1648111 10.081
-24.741568 43.070221 2.0941257 10.08025
-24.627804 43.768532 2.1576629 10.08025
-24.732079 30.073387 2.4958532 12.128
-24.79775 30.748264 2.4697559 10.1445
-24.648813 34.282249 2.6490109 12.1415
-24.769333 34.677647 2.7051816 12.0625
-24.68346 34.96648 2.618973 11.920611
-24.572102 35.272156 2.4158695 11
-24.67588 37.467625 2.632345 11.639999
-24.740105 37.792702 2.6009398 13.0395
-24.73103 38.19886 2.582577 12.8799
-24.685938 38.547985 2.5909905 11.734166
-24.724752 39.050518 2.6238055 12.881839
-24.673246 39.375278 2.6483357 12.666322
-24.614685 39.807301 2.6293125 13.205721
-24.554506 40.157505 2.6269896 12.936182
-24.526163 40.5704 2.6627119 12.979074
-24.50787 41.033382 2.6664443 12.754614
-24.526596 41.3372 2.6614478 12.7128
-24.579948 41.81778 2.7533891 13.1338
-24.655458 42.130722 2.6522043 12.089056
-24.436869 42.601086 2.7365861 12.978126
-24.472818 42.997242 2.7320657 13.282833
-24.633177 43.444088 2.6466355 11.230286
-24.645905 43.73103 2.7575471 11.6592
-24.495562 44.191765 2.710465 12.508556
-24.551359 44.496914 2.7026258 11.099999
-24.529408 44.954025 2.7703547 12.363156
-24.499931 45.382759 2.74682 11.8805
-24.489351 46.686661 2.7901154 10.1475
-24.551752 34.186501 3.0695813 10
-24.410496 35.469879 2.9522395 10
-24.772892 36.386433 2.9809086 12.141
-24.680302 36.643883 2.912677 12.137875
-24.582346 36.963436 2.9472728 11.7495
-24.538839 37.55299 2.8243411 10.0055
-24.56469 38.031937 3.0505021 10.040999
-24.650742 38.556946 2.9227655 10.063875
-24.69421 39.00032 3.0177972 13.06175
-24.699032 39.37672 2.9160094 12.920386
-24.655407 39.799194 2.9687274 12.806029
-24.575117 40.124485 2.9471705 12.290727
-24.602015 40.611378 2.8633449 13.853213
-24.496983 40.961555 2.9642663 12.199375
-24.637331 41.468338 2.8642657 10.753166
-24.620514 41.658607 2.8186715 13.1515
-24.621037 42.148781 2.8315568 14.0725
-24.443157 42.455017 2.8066964 13.1495
-24.734884 42.988899 2.9389784 11.5059
-24.757977 43.457508 2.9871552 13.497051
-24.713106 43.811848 3.0328233 13.831363
-24.646002 44.19997 2.9771936 13.130376
-24.586475 44.613594 3.0496972 13.952359
-24.520071 45.002117 3.055207 13.436455
-24.450956 45.393673 3.0378048 13.71769
-24.414564 45.657166 2.940954 13.0885
-24.546677 46.648659 2.8183768 10.143
-24.762995 35.202919 3.3524258 11.142
-24.535646 35.622719 3.368619 11.1415
-24.743023 37.712639 3.5570655 11.141
-24.624069 38.600006 3.2007451 10.176
-24.599413 38.850372 3.2869527 10.1745
-24.679064 41.384785 3.4746549 11.314124
-24.447887 41.791946 3.2380972 10.007
-24.696054 42.284523 3.4281685 11.069
-24.757977 43.007645 3.4426229 12.395667
-24.746563 43.388065 3.3570423 13.963695
-24.712934 43.801815 3.3846769 13.948293
-24.633469 44.203545 3.3879352 13.404686
-24.573298 44.575298 3.3889437 13.67825
-24.500824 45.02314 3.3499074 13.68724
-24.458138 45.337242 3.3382449 13.569843
-24.430515 45.685516 3.3720176 13.0725
-24.516352 46.166302 3.2487085 11.1335
-24.738401 51.161469 3.254725 10.102
-24.482437 34.090561 3.8437319 13.12375
-24.524679 34.684429 3.719497 12.021
-24.567595 35.095619 3.6962709 12.025
-24.704826 40.329624 3.9318936 11.394666
-24.774851 41.177082 3.8927579 11.039
-24.669315 41.897942 3.8698449 13.626334
-24.651644 42.194992 3.8626945 11.824545
-24.587217 42.642849 3.792099 12.770934
-24.569567 42.981556 3.7601328 11.358999
-24.600185 43.409279 3.7481141 12.352
-24.601023 43.819851 3.7686687 12.839
-24.592413 44.181709 3.7969363 13.770444
-24.493185 44.61935 3.8053792 13.808637
-24.470701 44.870613 3.8797429 13.25
-24.412981 45.242798 3.8693042 13.824666
-24.549982 37.170181 4.2434783 12.141
-24.751568 38.740841 4.2812243 11.0535
-24.63777 38.965149 4.3374691 11.04925
-24.787226 39.356251 4.1765208 15.1575
-24.729534 39.970226 4.1854439 11.0475
-24.653641 40.323357 4.1578426 11.052
-24.603613 40.556583 4.1552119 11.053834
-24.57793 40.910942 4.2528749 11.013
-24.564487 41.752541 4.1370716 14.822083
-24.617031 42.261646 4.1562343 11.918819
-24.580406 42.58503 4.1659746 13.664964
-24.713518 42.974316 4.1974387 14.085999
-24.61994 43.841442 4.1514311 14.588582
-24.608385 44.180588 4.1864228 13.819907
-24.502665 44.71534 4.2143073 13.9203
-24.458902 44.999798 4.2307563 13.442666
-24.420221 45.213562 4.0080457 14
-24.756947 38.2696 4.4472151 11.033
-24.7276 38.517757 4.4567637 11.041
-24.708141 40.294964 4.6732354 15.111
-24.665785 42.600109 4.4878716 12.0845
-24.676109 42.88858 4.5144777 12.0905
-24.65324 43.846085 4.6008229 14.384334
-24.613714 44.137104 4.6231833 14.452001
-24.492771 44.695923 4.5628333 14.066937
-24.46698 44.907784 4.6140046 13.888143
-24.43063 45.26833 4.5731268 14.05375
-24.680092 40.469879 4.8933082 12.0165
-24.793793 42.855667 4.8094912 15.111
-24.670139 43.547546 4.821876 14.60975
-24.669817 43.765816 4.8121433 13
-24.621544 44.205933 4.8546281 14
-24.512476 30.284315 5.9980807 11.163
-24.414148 30.2864 6.199831 11.1685
-24.446753 31.335014 6.1415014 11.1695
-24.477831 31.622786 6.399075 12.116
-24.488419 32.07177 6.1826377 11.1655
-24.536812 32.650352 6.1907539 11.1635
-24.484467 33.618946 6.3843713 12.118
-24.454985 34.665352 6.3531938 12.1265
-24.785219 35.453514 6.3583145 12.1265
-24.448404 36.554432 6.3010488 13.08
-24.505728 37.321342 6.3048315 15.0905
-24.737843 37.811817 6.2832022 15.093
-24.52322 38.377392 6.2433949 15.102168
-24.595518 38.690502 6.3741264 13.0805
-24.692551 39.083298 6.3721528 15.104001
-24.677311 39.440117 6.2991571 15.100375
-24.618996 39.92218 6.3567901 14.08325
-24.444611 40.064281 6.2538214 14.729125
-24.623426 40.74155 6.0844312 13.08025
-24.614717 40.99567 6.2289095 13.079834
-24.557467 41.426018 6.3534179 13.08
-24.481991 42.758106 6.0461698 14.0945
-24.408857 30.352737 6.7966437 14.0785
-24.431065 31.059341 6.6623344 15.075
-24.507664 31.386484 6.6728864 13.079
-24.444345 31.822794 6.6494451 14.0785
-24.576033 32.565639 6.640111 15.076
-24.520605 33.054073 6.6187077 14.078
-24.527943 33.781017 6.7055755 14.078251
-24.546221 34.229275 6.5539913 14.24475
-24.527746 34.532661 6.5327544 14.078
-24.489702 34.984955 6.6116672 13.84125
-24.467268 35.440182 6.4947534 13.590376
-24.568798 35.741184 6.6265707 14.222429
-24.554522 36.205719 6.6652179 15.083375
-24.631248 36.609428 6.5821252 14.58125
-24.710392 37.105301 6.4531488 15.0885
-24.540003 37.442261 6.5611906 14.08175
-24.64035 37.732445 6.6477132 14.096
-24.660131 38.274181 6.5504823 14.08275
-24.71887 38.624378 6.4124618 14.0795
-24.665333 39.115337 6.6896749 13.766833
-24.747522 39.425556 6.4380336 14.091499
-24.694967 39.781116 6.5842733 14.419833
-24.722134 40.279701 6.6279449 15.1045
-24.67581 40.626671 6.5536327 15.102651
-24.619562 40.89571 6.5871601 13.081
-24.507818 41.333149 6.5529599 14.981186
-24.604008 41.683273 6.7072997 14.594
-24.660717 42.205421 6.6324329 14.611
-24.428478 42.990341 6.4700732 14.0905
-24.408106 44.789833 6.7209616 14.151
-24.534899 30.142036 7.0549912 13.05425
-24.5212 30.564234 7.0980105 14.093333
-24.480711 30.926311 7.0009017 14.322875
-24.451481 31.438992 7.0685391 13.10225
-24.456888 31.92252 7.0980048 14.57775
-24.590801 32.145229 7.0558276 13.812286
-24.529732 32.644684 7.0000606 14.418834
-24.505108 33.030331 7.0760126 14.078167
-24.575216 33.44313 6.9904032 13.912917
-24.547062 33.79126 7.0421534 13.9045
-24.568794 34.174492 7.0090871 15.104
-24.593954 34.646103 6.9788532 14.835125
-24.562325 35.038025 6.9784627 13.949644
-24.785414 35.422436 7.0182018 14.6035
-24.571882 35.818878 7.1289601 14.353749
-24.617189 36.124756 7.0303898 13.926417
-24.612886 36.584053 7.0121646 13.168834
-24.590939 37.063324 7.0103006 13.536388
-24.626591 37.409084 7.0020151 13.910273
-24.648962 37.703732 7.0229788 13.10075
-24.600061 38.232491 7.0750966 13.871201
-24.612137 38.598766 7.0825129 13.4145
-24.577209 39.011955 7.0273552 13.362642
-24.650051 39.38456 7.0449934 13.316625
-24.674562 39.771503 6.9248037 13.409667
-24.764549 40.155319 6.9061265 11.078
-24.689259 40.576359 6.9989042 12.8974
-24.682047 40.954021 6.8934488 11.0785
-24.66074 41.403526 6.997088 12.414111
-24.63118 41.703365 6.9737668 14.5965
-24.545204 42.271706 7.0666461 13.832375
-24.644373 42.689098 6.8832626 13.59425
-24.472651 43.002686 7.0188837 14.428
-24.63966 43.275421 7.1302996 15.1545
-24.431965 43.678413 7.1407857 15.104
-24.414057 44.204132 7.1631036 15.162
-24.545788 30.200323 7.4655986 14.103701
-24.507814 30.520844 7.2873988 13.844749
-24.49065 30.998901 7.3724084 14.839875
-24.52042 31.558859 7.366672 15.09025
-24.530392 31.791233 7.3614135 14.337777
