# .PCD v0.7 - Point Cloud Data file format
VERSION 0.7
FIELDS x y z intensity
SIZE 4 4 4 4
TYPE F F F F
COUNT 1 1 1 1
WIDTH 1212
HEIGHT 1
VIEWPOINT 0 0 0 1 0 0 0
POINTS 1212
DATA ascii
-112.95932 -26.488871 4.7490778 14.535749
-112.92072 -16.064356 4.5251646 12.37802
-113.02051 -15.882224 4.5454392 11.697089
-113.18038 -15.590345 4.7188129 15.1065
-113.12869 -14.09148 4.5036635 12.1655
-112.97083 -13.444916 4.4951353 11.286643
-112.97258 -10.490492 4.6588364 12.1605
-113.06136 -8.9091949 4.789835 9.1750002
-113.1414 -29.76366 5.0103717 13.041
-112.98706 -27.899263 4.8669901 14.048
-113.04453 -27.312605 5.0792356 15.03825
-113.07616 -26.418289 4.9108248 14.026
-112.93443 -26.312052 4.9432449 15.03075
-113.03325 -25.639124 5.1178513 14.0175
-112.96382 -25.343098 5.104907 13.014999
-113.08681 -16.091496 4.9312778 13.734806
-112.97257 -15.843473 4.9772639 12.854555
-112.92635 -13.005437 5.1106634 12.08
-113.00473 -12.668487 4.977355 9.8817501
-113.06927 -12.125231 4.9566579 11.17125
-113.15765 -29.236818 5.2465596 14.040751
-112.90987 -28.980753 5.4402456 14.7905
-112.82129 -24.955517 5.5051146 13.0125
-112.84192 -24.777445 5.2079015 15.016
-113.17125 -16.130875 5.2789211 13.619
-113.14665 -15.959013 5.422277 11.0615
-112.9863 -15.292633 5.419733 13.671187
-112.9433 -14.98361 5.4123292 10.8825
-113.09441 -14.541491 5.3742204 11.539
-113.06903 -14.286768 5.4514914 12.505666
-112.88978 -13.751574 5.336154 11.3019
-112.99138 -13.050281 5.2116299 10.67575
-113.13876 -10.487627 5.3391709 14.155
-113.143 -10.192911 5.3112884 10.1735
-112.85222 -9.4406624 5.3636794 12.1675
-113.10342 -8.9006214 5.5539508 11.66925
-112.96805 -8.6468439 5.3639812 10.1725
-112.88954 -8.1019201 5.4988976 11.1695
-112.82216 -7.6098471 5.3934073 12.165
-112.90809 -26.078335 5.9397659 14.0145
-113.10472 -15.03949 5.6635242 12.676001
-112.91383 -13.913813 5.6704268 13.17075
-113.02431 -8.9600086 5.6937342 15.1437
-112.96867 -8.6889849 5.7292194 15.142499
-113.04031 -28.927343 6.0339079 15.026
-112.98151 -28.862034 6.7628832 13.054
-112.80412 -28.782093 6.753746 13.049
-112.83823 -28.937651 7.0737076 15.019
-113.02226 -28.921543 7.3974986 13.696916
-112.80724 -28.764986 7.4871454 14.049
-113.0493 -28.997541 7.7131352 14.187858
-113.01421 -28.969616 8.1778307 14.903786
-112.90482 -28.788055 8.2329531 15.0525
-113.02016 -28.946106 8.5133753 14.706
-113.17461 -28.970945 9.0923433 15.018
-112.88246 -28.76272 9.5642405 14.015
-112.99425 -28.771826 10.53072 15.015
-112.47417 -8.9665098 -1.2335649 7
-112.49835 -13.673998 -1.0048536 7
-112.67038 -13.335224 -0.82031751 7
-112.54956 -13.015183 -0.86738408 7
-112.43095 -8.3143682 -1.1820471 7
-112.59932 -13.194974 -0.60738194 7
-112.46134 -8.4918966 -0.54441279 7
-112.61429 -8.7745018 0.78036606 7
-112.44367 -2.8171458 0.79777592 5
-112.6718 -1.4152834 0.74447119 5
-112.61485 -0.95270377 0.73419732 5
-112.75023 -0.72015774 0.72422707 5
-112.46105 -22.433168 1.1795307 1.3333334
-112.60115 -22.188923 1.1202947 3.125
-112.57951 -21.746632 1.113031 2.5999999
-112.57807 -21.334146 1.0966352 3
-112.57677 -20.982529 1.0898006 2.5
-112.63055 -20.584053 1.0798714 2.8181818
-112.56997 -20.102066 1.0671685 2.5714285
-112.6282 -19.78944 1.074886 2.625
-112.60878 -19.352282 1.0612234 2.25
-112.64281 -18.970436 1.0501387 2.75
-112.64642 -18.547485 1.0334623 2.1666667
-112.59981 -18.199955 1.0137794 2.5
-112.62954 -17.679415 1.001761 2.75
-112.62702 -17.388239 0.99801016 2.8
-112.53142 -16.932196 0.97230697 2.6666667
-112.54196 -16.572224 0.95060271 2.875
-112.51971 -16.194866 1.0441138 3.4444444
-112.55242 -15.83699 1.1272305 4.2727275
-112.64612 -15.360559 1.1239821 5
-112.54702 -15.01003 1.0985748 4.4000001
-112.56966 -14.571664 1.093295 3.1666667
-112.59224 -14.220105 1.0693605 2.3125
-112.60892 -13.786514 1.0647594 3.4035499
-112.56203 -13.402224 1.0884013 4.1637812
-112.60321 -13.056005 1.1064209 4.0086875
-112.48667 -12.639819 1.0637556 2
-112.61287 -12.229692 1.0295209 2.75
-112.5913 -11.72439 1.0406249 2.8333333
-112.5509 -11.476254 0.98469394 3
-112.61016 -10.936033 1.0069147 3.8
-112.57768 -10.621047 0.96963036 4.125
-112.65778 -10.24233 1.017009 3.7142856
-112.59462 -9.8928957 1.0192488 4.5674996
-112.59604 -9.4133911 0.97891217 3
-112.60862 -8.9401617 1.0481932 4.7058825
-112.64368 -8.6596632 1.1244687 4.6923075
-112.55364 -8.1814995 1.0926484 4.5999999
-112.59547 -7.7835021 0.99023944 5.5143747
-112.58076 -7.3931241 0.97718215 5
-112.6198 -6.9171195 0.87463588 5
-112.64988 -6.5942116 0.9157638 5
-112.54613 -6.2415333 0.88399911 5
-112.4025 -5.501925 0.84471071 5
-112.72825 -4.9331479 0.83850056 5
-112.50057 -4.7689695 0.822281 5
-112.57897 -4.1940503 0.8184886 5
-112.63022 -3.5208175 0.80745488 5
-112.69289 -3.0063756 0.82055372 5
-112.59095 -2.2978957 0.80112684 5
-112.66077 -28.841858 1.556048 3.6666667
-112.66602 -28.551058 1.5079751 4
-112.60036 -28.196234 1.5849932 4
-112.62195 -27.700647 1.4801588 2.5
-112.61523 -27.348461 1.462889 2.75
-112.60712 -27.003374 1.4619036 3.5
-112.61172 -26.591932 1.440464 2
-112.57954 -26.131092 1.4209757 1.3333334
-112.6267 -25.786001 1.4060881 1.25
-112.63068 -25.42519 1.409034 1.8
-112.50922 -24.972574 1.4164008 3.6666667
-112.60332 -24.506197 1.3951439 3.25
-112.57991 -24.144938 1.3322448 3.2
-112.46352 -23.674356 1.3635449 3.3333333
-112.59179 -23.346512 1.3307205 3.5999999
-112.59814 -23.028709 1.3452531 3.2857144
-112.59632 -22.526123 1.2896355 3.2
-112.4655 -16.113058 1.3040197 6.3633332
-112.52422 -15.798144 1.4301232 5.7528329
-112.60706 -15.378736 1.4260938 4.8431373
-112.79118 -15.080646 1.2207073 6
-112.66029 -13.330619 1.3617216 3.9428289
-112.64801 -13.095891 1.3587961 5.1062498
-112.72152 -12.694658 1.2740445 5.3460002
-112.57129 -11.621589 1.3754429 4.75
-112.52789 -11.527762 1.4237776 4.4486108
-112.68118 -8.8132706 1.2878006 4.75
-112.60585 -8.5845032 1.3830047 5.2093024
-112.44923 -8.3875656 1.525389 5
-112.6815 -28.907061 1.8027145 4.090909
-112.71646 -26.845922 1.7185783 4
-112.70982 -26.748713 1.9276392 3.6666667
-112.41394 -16.01288 1.7378176 3
-112.50355 -15.776525 1.7059293 5.1570387
-112.61233 -15.385077 1.7223692 4.8412695
-112.59355 -15.145042 1.8806437 4.7777777
-112.70947 -13.323837 1.7582922 5.060606
-112.70422 -13.094929 1.7713909 5.1750002
-112.58479 -11.543315 1.6456869 4
-112.44672 -10.860905 1.8471228 8.0474997
-112.4807 -10.408747 1.9559855 8.0459995
-112.40602 -10.292716 1.9256029 8.0465002
-112.73297 -9.9339113 1.6652939 8.0895004
-112.65133 -8.5517044 1.7939025 5.875
-112.51956 -8.2580433 1.8640386 6.4285712
-112.73091 -28.882168 2.1906414 4.8888888
-112.60211 -28.734432 2.1171603 6
-112.65474 -26.682003 2.2338398 4.5384617
-112.41952 -16.056013 2.0593572 3.5
-112.4825 -15.799755 2.0594006 5.4285712
-112.6598 -15.30833 2.0716507 6
-112.6517 -15.164238 2.016932 5
-112.6903 -13.305268 2.236553 6.3666668
-112.68604 -13.111735 2.1496778 5.8571429
-112.69938 -8.4476986 2.1736755 6.8518519
-112.58302 -8.2925911 2.2159462 7.0044088
-112.64727 -7.843823 2.2315881 7
-112.73047 -28.861734 2.5680754 5.9523807
-112.47973 -28.78834 2.5822706 6
-112.57621 -26.58972 2.6811543 6.3500004
-112.68205 -13.337463 2.6395118 7.4982605
-112.74554 -13.024561 2.560663 7.157393
-112.67443 -8.4425077 2.6899951 7.9357243
-112.60189 -8.3221436 2.6612973 7.8722601
-112.6814 -28.908331 2.9822128 7.3333335
-112.52186 -26.492968 3.0904756 7.9861107
-112.55361 -15.237749 3.1355138 9.0754995
-112.67516 -14.138371 3.1128125 9.0749998
-112.70973 -13.316387 2.9142349 8.3075523
-112.70983 -13.040351 2.95261 8.4245834
-112.68614 -8.4368868 3.0543027 8.6118679
-112.57769 -8.3031378 3.0623779 8.6908808
-112.64744 -7.894907 3.0390837 8.7557497
-112.7244 -28.897993 3.3084085 8.2961426
-112.48944 -26.427166 3.3899825 9.287879
-112.62819 -26.324522 3.466887 9.6662855
-112.53863 -15.744448 3.5884721 9.0675001
-112.68012 -13.320619 3.3764653 9.607873
-112.68235 -13.003284 3.4125361 9.7265749
-112.60838 -12.48069 3.5884554 8
-112.63823 -12.212523 3.5840087 8.0588331
-112.66362 -11.733982 3.5666583 8.1765003
-112.67369 -11.559963 3.5445254 8.1759996
-112.77026 -10.804605 3.5611506 9.0690002
-112.65974 -10.5724 3.5203352 8.1754999
-112.63202 -10.150387 3.5612054 8.1757498
-112.73684 -9.6720333 3.5909827 9.8168335
-112.65245 -9.2999058 3.572222 9.8931255
-112.64509 -8.9542265 3.5770121 9.8765631
-112.67601 -8.5350361 3.4379945 9.4289045
-112.58913 -8.2995529 3.3646388 9.2250919
-112.57761 -7.7891908 3.5227597 9.6120625
-112.41576 -7.1905599 3.5943918 10.141
-112.45769 -6.6967282 3.5592382 9.073
-112.75003 -0.91125309 3.512253 9.1365004
-112.58245 -0.72266519 3.4915645 9.1357498
-112.61939 -0.21453887 3.4798183 9.1359997
-112.64882 -28.86145 3.7667956 9.833333
-112.46833 -26.326872 3.8516233 11.350077
-112.63786 -16.124447 3.8975923 11.464672
-112.57722 -15.827382 3.7819719 11.852046
-112.64935 -15.394163 3.8453314 12.099148
-112.60682 -14.943448 3.8491724 11.017533
-112.62411 -14.641745 3.8654375 11.607259
-112.63812 -14.222515 3.8504295 10.987908
-112.6514 -13.791842 3.818526 10.795792
-112.65945 -13.369403 3.770905 10.591598
-112.65948 -13.014797 3.7507672 10.183928
-112.63022 -12.550875 3.8328097 10.884769
-112.71609 -12.203504 3.7703829 10.096161
-112.61932 -11.822487 3.7917833 10.534117
-112.57971 -11.389326 3.8371804 10.253667
-112.69304 -10.961409 3.7792797 10.468833
-112.60075 -10.667381 3.8313191 10.696954
-112.57676 -10.213533 3.8285642 10.7675
-112.70044 -9.7457571 3.6775062 9.4740009
-112.68443 -9.4367065 3.6597431 9.9352999
-112.66215 -8.9911289 3.6928101 9.8429089
-112.66315 -8.5328321 3.6607857 10.026761
-112.66986 -8.2050638 3.680182 9.8417959
-112.59291 -7.8283553 3.6433165 9.7765007
-112.55798 -7.4707456 3.7306566 10.137688
-112.53477 -7.0430737 3.679528 10.138083
-112.56653 -6.4361072 3.720226 10.127749
-112.46936 -6.354466 3.6504421 10.1505
-112.43774 -5.9886985 3.6648297 10.1515
-112.6272 -28.868086 4.1251359 11
-112.45338 -26.231047 4.2344489 12.914529
-112.58428 -16.092569 4.1706429 11.766458
-112.56738 -15.900403 4.1549721 13.107917
-112.5689 -15.396184 4.1056051 13.889626
-112.52117 -14.93331 4.1984506 10.176
-112.57197 -14.694181 4.118484 12.745616
-112.58614 -14.205298 4.103507 11.550382
-112.52153 -13.806453 4.1953721 11.241127
-112.58192 -13.425261 4.1580091 11.155959
-112.51614 -13.063208 4.184608 10.843666
-112.51333 -12.486832 4.0147829 11.161
-112.50325 -12.140542 4.2387958 10.791375
-112.53999 -11.859936 4.2192225 10.5324
-112.51514 -11.433309 4.1943645 11.245334
-112.51904 -11.075843 4.114871 11.107083
-112.70287 -10.540582 4.0709643 11.0785
-112.69417 -10.307455 4.0723319 10.1685
-112.74403 -7.0440273 4.0821342 11.146
-112.58241 -28.834585 4.6055455 12.5
-112.47078 -26.166515 4.6317353 14.689089
-112.54607 -25.899836 4.712069 15.045501
-112.59649 -16.442873 4.6151242 11.0895
-112.58029 -16.1441 4.548995 11.961697
-112.56995 -15.855643 4.6023107 11.613937
-112.53865 -15.584095 4.7688332 11.67375
-112.42354 -14.230227 4.5636382 13.1625
-112.51601 -13.754819 4.5962949 11.987416
-112.51155 -13.403237 4.5445652 12.525296
-112.49668 -12.960749 4.5760531 11.832399
-112.54111 -12.548009 4.5726643 12.388
-112.47643 -12.150495 4.5668588 11.524571
-112.49144 -11.871024 4.5525517 12.107875
-112.48876 -11.434258 4.6157465 12.272916
-112.49702 -10.925097 4.6914291 11.1685
-112.50996 -10.72312 4.4740667 11.085751
-112.72859 -10.2131 4.7595005 12.1625
-112.59203 -9.2154121 4.7956319 11.168
-112.60951 -29.793543 4.9853845 13.0455
-112.58596 -29.010563 5.1443386 14
-112.55108 -25.767591 4.8365626 14.0225
-112.5199 -25.344131 5.0844507 13.01685
-112.58752 -25.029387 5.1044545 12.013875
-112.63046 -24.576286 4.9695334 13.514438
-112.65026 -15.697416 4.9646072 11.852636
-112.61672 -15.419359 5.0361238 11.135035
-112.52269 -15.095819 5.0766463 12.3718
-112.62158 -14.530292 4.9515095 11.838666
-112.45938 -14.255337 5.1662173 12.174
-112.52119 -13.776151 4.9893579 12.2359
-112.50043 -13.416386 5.0020547 12.450476
-112.66608 -13.003128 5.0243583 11.89975
-112.49075 -12.657523 4.8890905 13.078625
-112.5266 -12.158995 4.9698768 12.872656
-112.52707 -11.815629 4.9620314 12.230097
-112.46025 -11.530138 4.8680406 12.29965
-112.52016 -11.022982 4.965723 12.165501
-112.47728 -10.587572 4.8816042 11.73295
-112.62941 -10.125722 4.9646235 11.833
-112.57252 -9.8819094 5.0726762 12.66175
-112.64066 -9.238183 5.1524539 13.158
-112.45878 -9.1246748 5.1213703 11.833
-112.68273 -28.861601 5.4448147 15
-112.47302 -28.764709 5.4308734 15.023687
-112.49308 -25.651667 5.3948007 14.68425
-112.50836 -25.397125 5.3926353 13.3151
-112.59779 -25.011778 5.3456211 13.195725
-112.6795 -15.364502 5.2829423 11.087375
-112.65583 -14.999209 5.3426747 11.0965
-112.68098 -14.674462 5.3886771 12.671
-112.47765 -14.088431 5.4212236 11.7645
-112.65823 -13.768661 5.3077331 11.9025
-112.57557 -13.429067 5.3125877 11.711374
-112.49778 -10.483165 5.2019238 14.154
-112.79114 -9.4368763 5.3249493 11.1705
-112.53204 -8.9826097 5.3317814 13.489499
-112.53391 -8.7503529 5.5096068 13.160749
-112.54451 -8.3474035 5.5094085 13.1615
-112.57366 -7.7653031 5.4160862 11.830667
-112.55497 -7.4258766 5.4893594 12.828
-112.4773 -3.3298106 5.4730477 13.142
-112.6305 -26.025976 5.7241688 15.017
-112.54822 -25.319765 5.7183266 13.213901
-112.68622 -25.156786 5.6664433 12.011999
-112.66287 -14.25066 5.6123672 14.1705
-112.76424 -13.593415 5.7789707 13.173
-112.60625 -8.1724787 5.7507339 14.576429
-112.50292 -7.4708219 5.8557816 14.647751
-112.46091 -25.807354 6.2714448 12.014333
-112.65323 -28.859526 6.7236676 15.02
-112.41522 -28.773735 6.4446597 14.0195
-112.47029 -25.741837 6.445281 12.014
-112.64576 -28.842314 7.0956273 13.019
-112.41248 -28.762541 6.94242 15.0195
-112.70193 -28.872314 7.4515629 14.436099
-112.63948 -28.879726 7.7483878 14.551625
-112.54453 -28.757875 7.7315264 13.930166
-112.74852 -9.7818584 7.676703 9.1239996
-112.69133 -28.881601 8.1799688 15.047501
-112.63055 -28.69521 8.1990433 14.03275
-112.71081 -28.84697 8.5523472 15.030666
-112.54697 -28.733513 8.5274076 14.756357
-112.6212 -28.680017 9.0237207 14.0165
-112.77156 -28.723316 9.9255028 15.0165
-112.18724 -15.317513 -2.4956279 8.0880003
-112.2084 -8.6101999 -1.2939342 7
-112.03239 -7.9795313 -1.3369457 7
-112.27861 -14.801063 -0.99232811 7
-112.36967 -13.297427 -1.084705 7
-112.16152 -9.0370264 -1.1686668 7
-112.34634 -7.9467959 -0.80876267 7
-112.28705 -15.476836 -0.70509076 7
-112.32355 -8.6416893 -0.65648735 7
-112.39561 -7.7551885 -0.24640097 7
-112.02348 -16.272699 0.66567039 7
-112.00375 -14.132867 0.78051054 6
-112.01019 -9.2451801 0.72017694 6
-112.15295 -8.4037619 0.73722368 6
-112.19878 -8.3885069 0.68401706 6
-112.17723 -4.4938865 0.79300684 5
-112.23294 -3.9391353 0.7893793 5
-112.26994 -3.4268782 0.79028368 5.25
-112.24718 -3.1498592 0.77652484 6
-112.03561 -1.6124202 0.73460227 5
-112.34273 -1.4657179 0.73115844 5
-112.31131 -1.0750072 0.71865916 5
-112.24978 -0.78435212 0.70988423 5
-112.29476 -23.346426 1.1423202 6
-112.06049 -22.424414 1.1264938 1.6666666
-112.18213 -22.18063 1.1154047 1.125
-112.24665 -21.839273 1.081365 2.3333333
-112.23818 -21.463295 1.0810655 1.8333334
-112.18015 -21.050371 1.0255642 4.5
-112.13256 -20.61615 1.0292866 5
-112.19157 -20.147688 1.0370704 5
-112.21329 -19.743025 1.0314546 4.5
-112.05408 -18.959248 1.0094759 3
-112.11187 -18.542202 1.0113999 2
-112.1241 -18.110352 0.99951661 2
-112.20904 -17.7136 0.9996084 1
-112.20728 -17.359844 0.98390341 3.2
-112.11138 -16.910444 1.0027864 4
-112.20835 -16.562738 0.94726133 3.5999999
-112.20029 -16.186361 1.0539062 3.3333333
-112.22341 -15.816096 1.1257783 5.25
-112.17075 -15.346437 1.1015648 5
-112.11372 -14.998738 1.0217967 5
-112.24957 -14.550105 1.0558002 2
-112.21184 -14.15329 1.0386533 3.2857144
-112.20728 -13.725626 1.0370033 1.25
-112.24924 -13.426393 1.0572546 2.8
-112.29252 -12.934835 1.0447136 2
-112.18261 -12.724518 1.0165001 2
-112.17947 -12.168464 1.0576769 3.5123751
-112.17652 -11.403641 1.0190973 2.5
-112.12801 -11.06567 1.0111488 4
-112.14465 -10.460345 0.94678158 5
-112.15024 -10.237836 0.95875829 4.4000001
-112.0551 -9.8661671 0.98732573 4.5
-112.23847 -9.4693899 0.97400683 3.7272727
-112.20113 -8.954463 0.98641795 4.7777777
-112.20986 -8.6092176 1.1100798 5.1052632
-112.22316 -8.2868414 1.0525512 5.5079374
-112.05335 -7.6091614 0.9647842 4
-112.22085 -7.3099928 0.86408162 5
-112.21012 -6.691503 0.86330283 5
-112.20071 -6.2097964 0.8830651 4.5999999
-112.22591 -5.8852911 0.87514096 4.6666665
-112.06944 -5.3027172 0.98797107 8.0469999
-112.09427 -5.0886316 0.83854485 5
-112.01187 -3.5293398 0.80687869 5
-112.19984 -28.617476 1.5370971 3.7142856
-112.26283 -28.162506 1.5337051 3.3333333
-112.22911 -27.770252 1.4727911 3.6666667
-112.24364 -27.381311 1.4650308 2.75
-112.25996 -27.062593 1.4443907 3
-112.21815 -26.600058 1.4171153 1.4
-112.20494 -26.145555 1.4099965 2
-112.13305 -25.810575 1.4008229 2.5
-112.26066 -25.517488 1.4110507 1.5
-112.14877 -24.93586 1.3923618 3
-112.18448 -24.656639 1.3614532 2.25
-112.2326 -24.2365 1.3911338 4
-112.18669 -23.759274 1.3638871 3.4000001
-112.20994 -23.416126 1.3572297 3.625
-112.1872 -23.029377 1.3337835 2.6666667
-112.17235 -22.57452 1.2959619 2.75
-112.22001 -16.13595 1.4148951 5.7589288
-112.23444 -15.837875 1.3740039 5.6757503
-112.26322 -15.475312 1.392206 6.0066004
-112.11308 -14.939422 1.5366889 8.04
-112.33243 -14.67178 1.3278669 8.0450001
-112.06319 -14.294053 1.4303539 8.04
-112.08742 -13.757645 1.347993 8.0365839
-112.21848 -13.374482 1.4702599 4.4082003
-112.19972 -13.046229 1.3930856 5.8751426
-112.10272 -12.439578 1.4627323 8.0404997
-112.23417 -11.751489 1.3675953 8.0489998
-112.09825 -11.297304 1.2740813 8.0489998
-112.11731 -10.965274 1.3269596 8.0389996
-112.06127 -10.391564 1.3758981 8.0485001
-112.20241 -9.9675646 1.2914691 8.0485001
-112.19989 -8.5002785 1.4148223 5.3461537
-112.18952 -8.3565321 1.449664 5.75
-112.13103 -3.4066069 1.4595208 6.6666665
-112.24258 -28.936756 1.9936862 6
-112.19652 -28.747715 1.7155871 4.25
-112.19471 -28.089672 1.6523609 3.5
-112.27791 -16.055737 1.7771538 2.875
-112.22935 -15.799107 1.7886615 4.8956428
-112.22237 -15.499948 1.8369634 4.621923
-112.27667 -15.080379 1.7671169 5
-112.01624 -14.086242 1.7550716 8.0369997
-112.10082 -13.794878 1.8124511 8.0404997
-112.05706 -13.360033 1.7986166 8.04
-112.16463 -13.058541 1.6696401 6.51825
-112.10947 -12.68204 1.7828553 8.04
-112.20612 -12.249672 1.7437272 8.0414
-112.20293 -8.5527754 1.7022806 5.75
-112.29181 -8.327424 1.806519 6
-112.21007 -3.3398726 1.6723998 7
-112.20683 -29.972607 2.0421607 6
-112.28695 -29.396421 2.1724942 6
-112.3254 -28.935463 2.1379445 5.5
-112.08697 -28.768135 2.0431471 6
-112.28317 -16.035107 2.042052 3.3333333
-112.2056 -15.901855 2.074826 4.75
-112.33759 -15.139222 2.032881 4
-112.00201 -14.432015 2.3920155 8.0695
-112.26176 -8.4540253 2.2592206 6.8333335
-112.22623 -8.3420982 2.1742156 7
-112.22991 -15.421304 2.4237928 8.0909996
-112.05378 -14.18345 2.4078183 8.0904999
-112.21482 -8.4223499 2.6588373 7.9489999
-112.28482 -8.2586031 2.6430173 8
-112.21043 -3.246453 2.6265013 8
-112.25349 -3.0917156 2.62374 8
-112.28092 -8.22262 2.9780073 8.5309286
-112.31634 -26.43273 3.4298255 9.5393124
-112.31505 -26.367329 3.3060396 9.0555
-112.04366 -24.109674 3.5804756 11.941979
-112.14922 -12.510035 3.3769951 8.1370001
-112.20788 -11.685402 3.5950954 8.1389999
-112.20859 -11.563193 3.2149546 8.1424999
-112.09202 -10.35617 3.5328319 8.1385002
-112.12385 -9.7924519 3.2230697 7
-112.33498 -8.0541792 3.3949893 9.6422501
-112.32596 -7.7489753 3.5531313 10.149
-112.35403 -7.3741536 3.5553229 10.145813
-112.33972 -6.9278789 3.5681174 9.5011997
-112.27736 -6.7299223 3.5694962 10.145
-112.24478 -6.224359 3.5433776 9.7344503
-112.14821 -5.826726 3.5034258 9.3082504
-112.19827 -5.3910966 3.5708888 9.6082497
-112.13589 -4.3948374 3.5411537 8.1735001
-112.39149 -0.58445609 3.4697394 9.1350002
-112.17537 -0.22187606 3.4653094 9.1350002
-112.08492 -25.428526 3.7749717 11.600214
-112.06866 -24.089239 3.7484336 12.405025
-112.07159 -23.971865 3.6136203 10.520124
-112.27067 -16.076122 3.9062498 12.393859
-112.19857 -15.773561 3.8874779 11.18348
-112.25076 -15.458489 3.9049633 11.587713
-112.17754 -15.053843 3.9215126 8.225584
-112.18337 -14.624168 3.9443672 9.1853123
-112.2298 -14.121444 3.9308619 10.863906
-112.26464 -13.779106 3.8852892 10.480431
-112.17012 -13.431931 3.9271917 10.620393
-112.23601 -12.950539 3.8854291 10.050349
-112.22505 -12.591368 3.8964427 10.591966
-112.24152 -12.195553 3.8985856 10.222808
-112.16278 -11.813626 3.9202425 10.715826
-112.16714 -11.300271 3.864558 10.457653
-112.21978 -10.976944 3.8807411 10.388333
-112.16941 -10.589472 3.8215096 10.57722
-112.16144 -10.237748 3.8341112 10.271625
-112.10149 -9.7753363 3.8251088 10.341438
-112.10902 -9.4267292 3.8482006 10.059858
-112.07192 -9.0746984 3.7949088 10.436874
-112.25929 -8.5689955 3.7842014 10.067429
-112.32189 -8.1953506 3.7258453 9.6601076
-112.1234 -7.8702378 3.7259519 10.4835
-112.12764 -7.5614481 3.6963742 10.13725
-112.22654 -6.9167609 3.6901569 10.13685
-112.2852 -6.5349593 3.6699543 10.141167
-112.31069 -6.3604903 3.6221998 10.14
-112.24487 -5.9248066 3.6365807 10.1395
-112.14961 -5.4075208 3.6404357 10.141449
-112.28182 -4.891161 3.677572 10.1515
-112.22386 -4.5093756 3.7934437 10.156
-112.19251 -25.64502 4.1603141 13.212833
-112.12247 -25.503393 4.199152 13.308438
-112.29259 -16.086718 4.1842895 11.339664
-112.19884 -15.818208 4.1753602 11.737576
-112.16584 -15.423634 4.1562824 11.806575
-112.1553 -14.998662 4.1909494 11.479238
-112.14217 -14.630363 4.1695671 11.893393
-112.23045 -14.190043 4.1710782 10.854196
-112.20932 -13.801053 4.1552668 11.177637
-112.25656 -13.402267 4.1605759 10.896002
-112.20367 -12.96063 4.1698074 11.094598
-112.17303 -12.583321 4.1870241 11.29961
-112.18728 -12.172938 4.1961093 11.269989
-112.21703 -11.796691 4.2187858 11.624471
-112.20204 -11.381682 4.211597 10.886886
-112.17966 -11.055524 4.2207756 11.306089
-112.18324 -10.609701 4.1835794 11.113718
-112.11922 -10.193147 4.1831536 11.072042
-112.12404 -9.864274 4.1797266 10.901104
-112.0878 -9.4457035 4.1848698 11.208285
-112.02522 -9.0983496 4.1434879 11.078938
-112.30969 -8.5245018 4.2263656 11
-112.12785 -8.0578012 4.073637 11.07625
-112.20655 -7.0354486 4.2137971 11.1555
-112.37253 -6.4182515 4.21312 11.1535
-112.02264 -4.2164221 4.2655048 11.1505
-112.26119 -26.329939 4.5372567 14.0555
-112.10182 -25.918718 4.5206609 14.387
-112.34316 -16.405651 4.5135427 10.0645
-112.29153 -16.117188 4.4939599 11.80416
-112.20757 -15.83732 4.5464067 12.312903
-112.10532 -15.456858 4.5410085 12.356548
-112.14676 -15.028058 4.5555325 11.895358
-112.18867 -14.632267 4.5150704 12.261406
-112.16089 -14.188399 4.5497031 11.875509
-112.2032 -13.828323 4.5599194 12.445424
-112.23452 -13.392439 4.6109071 12.394824
-112.1775 -13.017591 4.6093512 12.726019
-112.2049 -12.59736 4.5526018 11.91387
-112.21187 -12.16037 4.6072173 11.593234
-112.23756 -11.762502 4.5754209 12.429995
-112.19074 -11.404737 4.6120062 12.654128
-112.23299 -11.106247 4.5496306 11.676375
-112.20532 -10.570299 4.5843778 11.76932
-112.11066 -10.173066 4.5400972 11.738931
-112.14565 -9.8402786 4.5149336 11.383676
-112.16515 -9.3783693 4.5605369 11.579249
-112.05496 -8.9316273 4.5903873 11.6307
-112.09232 -8.5565796 4.6139736 11.8312
-112.31522 -8.3651724 4.4607682 12.15
-112.06491 -7.3661461 4.5299892 12.146
-112.20391 -6.5021 4.5522947 12.1445
-112.23642 -28.87945 5.1444836 14.099125
-112.01757 -26.702732 4.8405228 15.0525
-112.16666 -26.055174 5.0549841 14.0205
-112.23796 -16.174067 4.8496685 12.176
-112.20782 -15.649882 4.9153271 14.05075
-112.16034 -14.968223 4.9341731 13.099833
-112.18594 -14.589648 4.9592843 12.473273
-112.1937 -14.177497 4.9817786 12.32204
-112.27855 -13.823378 4.9390345 11.93175
-112.18235 -13.389864 4.9377332 14.826357
-112.27402 -13.047464 4.876895 12.444111
-112.23864 -12.656404 4.8413382 13.823001
-112.25199 -12.196686 4.8822799 14.55
-112.22211 -11.799608 4.9367948 13.568628
-112.24027 -11.474445 4.8747206 12.868971
-112.18868 -10.973278 4.9189076 12.936729
-112.23235 -10.59581 4.909893 13.007222
-112.14568 -10.108038 4.9858656 12.651193
-112.20682 -9.8069086 4.9857097 12.908384
-112.19557 -9.3731728 5.0037737 11.999135
-112.12527 -8.99051 4.9849601 12.84675
-112.08009 -8.6380701 4.9641342 12.496821
-112.0327 -8.1920176 5.06814 13.154
-112.19304 -7.783802 4.9796543 11.164875
-112.05486 -7.5848103 4.8828554 13.143
-112.21334 -2.3781078 5.1735625 9.1724997
-112.30934 -1.7245138 5.0407538 9.1719999
-112.1504 -28.68425 5.3590894 14.884583
-112.394 -25.651611 5.5464368 13.0145
-112.15103 -14.525961 5.2647319 12.58875
-112.20075 -14.234611 5.3476729 11.362999
-112.0687 -13.942806 5.358593 12.174125
-112.28865 -13.271585 5.228416 11.175
-112.24368 -9.9305725 5.2540212 8.1335001
-112.2253 -9.3590755 5.3410611 13.461166
-112.28073 -8.9631729 5.3211012 14.151
-112.14286 -8.6268091 5.2788687 12.49835
-112.15684 -7.8109345 5.3532672 13.4835
-112.26115 -7.4369202 5.4173408 12.655125
-112.0481 -6.4903727 5.5474257 14.1385
-112.28144 -6.0831432 5.4038911 13.1545
-112.21591 -28.619568 5.9103537 11
-112.09151 -25.814243 5.8444304 13.014667
-112.27264 -25.462929 5.7006311 12.51475
-112.01943 -13.101325 5.9951835 8.1245003
-112.35307 -7.7106061 5.7913237 11.0675
-112.31796 -7.4308891 5.7871666 14.481999
-112.18604 -7.1525593 5.9671116 15.1365
-112.34388 -25.883417 6.2005639 12.01225
-112.26082 -28.624098 6.6092939 12
-112.3391 -17.292927 6.5077157 8.1330004
-112.23306 -16.557657 6.7032576 8.1350002
-112.1244 -28.5832 7.0431161 14.030167
-112.26098 -11.521102 7.1769123 9.1225004
-112.27451 -28.684725 7.423173 13.790001
-112.33907 -17.296278 7.4099259 9.1215
-112.26308 -17.002836 7.3794518 9.1219997
-112.14371 -16.437845 7.4376221 9.1239996
-112.20333 -11.484729 7.3428617 9.1187496
-112.14689 -28.6558 7.7674794 14.424501
-112.13988 -28.611584 8.2675247 15.058333
-112.27023 -28.692749 8.4736729 15.052334
-112.11642 -28.509346 9.6130362 14.0145
-112.12865 -28.467661 10.549476 15.0145
-111.99911 -15.626344 -2.3837924 8.0909996
-111.91196 -9.027379 -1.2523602 7
-111.91302 -8.5663033 -1.2264435 7
-111.65215 -4.1348681 -1.4819483 7
-111.89715 -8.653842 -1.1979135 7
-111.95834 -16.357885 -0.7783013 7
-111.60608 -17.207088 0.71381581 7
-111.74613 -16.871572 0.61571759 7
-111.72752 -16.777855 0.6231401 7
-111.8489 -4.2097244 0.76240361 5
-111.93295 -2.5409663 0.74042082 6
-111.82919 -1.8244804 0.72640574 5.5
-111.83298 -1.4658064 0.69486487 5
-111.81831 -1.1241764 0.69941139 5
-111.62466 -0.62325633 0.69382679 5
-111.67437 -22.43594 1.1564729 2.3333333
-111.79168 -22.21904 1.1103587 3.4285715
-111.79193 -21.808903 1.0790704 3.5
-111.79583 -21.375542 1.0740043 3.4000001
-111.84135 -20.953846 1.0757722 2.8181818
-111.81264 -20.585236 1.0687319 2.25
-111.78654 -20.149988 1.0648068 1.6666666
-111.7943 -19.78293 1.0508542 2.4285715
-111.84549 -19.36517 1.0397563 3.0833333
-111.82334 -18.961393 1.035448 2.8181818
-111.81918 -18.581522 1.0181936 2.8888888
-111.79185 -18.209167 1.0056635 2.125
-111.88936 -17.72188 0.99871713 3
-111.80941 -17.352079 0.96982044 3.5
-111.81456 -16.940475 0.96587062 3.75
-111.75061 -16.65983 0.9471519 2.6666667
-111.84657 -16.271597 1.0371554 3.2857144
-111.79045 -15.756042 1.0612541 3.5
-111.68851 -15.4774 1.0900383 3.5
-111.86652 -15.054018 1.0447656 3.3333333
-111.81895 -14.518567 0.98723871 4
-111.7795 -14.178103 1.0211298 3
-111.80365 -13.788 1.0323905 2.4000001
-111.79572 -13.471988 1.0164264 2.3333333
-111.80042 -13.004219 1.0057509 1.6666666
-111.7952 -12.584707 1.0045034 1.5
-111.70496 -12.189945 1.0290194 2
-111.84739 -11.835953 1.0530486 2
-111.82021 -11.436653 1.0210127 2.4285715
-111.97897 -10.910174 1.002849 4
-111.75835 -10.669866 1.0011723 4
-111.86662 -10.221004 0.9957186 4.7536874
-111.74132 -9.781518 0.92020649 4.6666665
-111.76183 -9.4404192 0.9616465 3.4285715
-111.84393 -8.9912624 0.99000257 4.8000002
-111.8083 -8.6892748 1.0393034 4.6666665
-111.88441 -8.2131023 1.0095164 6.0095
-111.77017 -7.8084369 0.92953551 4.4000001
-111.78589 -7.4245505 0.90080351 4.3333335
-111.84519 -7.0391459 0.84813648 5
-111.86911 -6.5723619 0.87689346 4.5
-111.84108 -6.2028356 0.86829978 4.1428571
-111.7922 -5.9605484 0.86919528 4
-111.87116 -5.4829798 0.88013363 5
-111.70615 -5.0094943 1.0909872 8.0404997
-111.76164 -4.0962796 0.96491379 6.4568338
-111.7568 -3.7653024 0.96720868 5.818182
-111.72176 -3.5542583 1.0467689 5.75
-111.67216 -28.434198 1.5864336 4
-111.68915 -28.266768 1.5174813 4.3333335
-111.79939 -27.799934 1.4820067 3.5714285
-111.81895 -27.394396 1.4523177 2.2857144
-111.83488 -26.946495 1.4290282 3.1428571
-111.81447 -26.546413 1.4246693 2.2857144
-111.74479 -26.116661 1.4053661 1.8
-111.88887 -25.694326 1.4050648 1
-111.75625 -25.420609 1.3989153 2.125
-111.6959 -24.431759 1.3040867 6
-111.80638 -24.150894 1.3656981 3.25
-111.80399 -23.78446 1.3285624 3.1666667
-111.95213 -23.317051 1.3240697 3
-111.79479 -22.965378 1.3164842 2.8
-111.8516 -22.531197 1.2809962 2.5384614
-111.73193 -22.393076 1.2452837 3
-111.9893 -16.014009 1.5475081 6
-111.71881 -15.552722 1.4376117 4.3333335
-111.98745 -13.49436 1.5988914 6
-111.90249 -11.972489 1.3874125 8.0384998
-111.918 -11.311145 1.3523234 8.03475
-111.95524 -10.678965 1.2746117 8.0328341
-111.81111 -10.197112 1.3563423 8.0290003
-111.88092 -9.8786077 1.2363539 8.0295
-111.8909 -8.8196516 1.5543091 7
-111.92324 -8.506444 1.5196694 6
-111.77777 -4.0659933 1.2341619 6
-111.82442 -3.6417003 1.389204 6
-111.76524 -3.5304272 1.4492466 6.1428571
-111.78587 -28.567411 1.672428 3.75
-111.60852 -28.393703 1.6074576 3
-111.8434 -27.97687 1.6012465 3
-111.97904 -16.076115 1.9321523 6
-111.73042 -15.606919 1.6218132 4
-111.72428 -15.54844 1.815433 3.7142856
-111.8843 -15.067912 1.8088994 8.0392504
-111.92787 -14.506983 1.7681717 8.0408335
-111.93726 -14.332083 1.9941753 8.0395002
-111.98582 -11.648996 1.7164124 8.0485001
-111.96468 -10.026978 1.9367527 8.0454998
-111.87166 -9.7728586 1.6439065 8.0349998
-111.89446 -8.5080338 1.6972058 5.5999999
-111.82724 -8.1377211 1.7440587 6
-111.79199 -3.6332297 1.8905935 7
-111.79497 -3.4693522 1.8226389 6.8125
-111.65012 -3.0776706 1.9937099 7
-111.61829 -28.445965 2.1656861 4.8333335
-111.80172 -16.919086 2.3142982 7
-111.70854 -15.538102 2.1933506 5.2399998
-111.80093 -3.6331179 2.1133466 7
-111.76788 -3.4440067 2.1155686 7
-111.72498 -28.5291 2.5491452 6
-111.70131 -15.515734 2.5913875 7.080153
-111.91625 -15.064433 2.4612854 8.0790005
-111.84842 -9.1046553 2.7431705 7
-111.78299 -3.6478946 2.6816871 8.1296663
-111.77766 -3.4566031 2.6114459 8.0132265
-111.73505 -3.1358325 2.489917 8.1569996
-111.73005 -28.522274 3.0545871 7.6846671
-111.61633 -24.460697 3.1600864 9.0605001
-111.87276 -24.292135 3.1674013 9.1013336
-111.60055 -17.282156 3.1659114 7
-111.9112 -16.052649 3.1824348 7
-111.68446 -15.507724 2.9634478 8.5363398
-111.67223 -15.11557 3.0783141 8.0614996
-111.72781 -5.4219861 3.1393871 8.1335001
-111.81458 -3.7973249 3.1020133 8.8258333
-111.72709 -3.438513 3.041939 8.5888262
-111.73329 -3.1150146 3.0824556 8.1684999
-111.65733 -28.413239 3.2385283 8
-111.85197 -26.211334 3.4857883 9.8598003
-111.65199 -25.947006 3.3974938 9.5354996
-111.66049 -25.266022 3.4139781 9.8045959
-111.64348 -25.139639 3.2170117 9.0571671
-111.7535 -24.412266 3.3583546 10.22075
-111.78496 -24.240717 3.4701037 10.710065
-111.68672 -23.858551 3.4402509 10.359902
-111.62643 -17.075378 3.2774189 7
-111.67911 -15.487645 3.3551638 10.481889
-111.71489 -14.619631 3.4880023 8.0365
-111.80195 -8.8934441 3.4771278 9.7783213
-111.82274 -7.6681581 3.3705416 8.1394997
-111.76552 -7.3660126 3.4785259 9.3244171
-111.81765 -5.3338265 3.5641627 10.1425
-111.65516 -4.9942908 3.4055638 8.1372499
-111.82949 -4.667563 3.3292456 8.3946247
-111.80972 -4.1359081 3.3969421 8.6446247
-111.8009 -3.6996195 3.3635478 9.0549545
-111.78546 -3.4302435 3.3082483 9.0194817
-111.97208 -3.0711606 3.2800326 9.1190004
-111.81373 -26.484056 3.8558829 11.223667
-111.76339 -26.095644 3.8414817 11.321134
-111.83727 -25.348974 3.8213878 11.702598
-111.67013 -24.632477 3.8173869 12.325899
-111.71611 -24.134134 3.8274646 12.59241
-111.97257 -23.873018 3.6182353 9.0115004
-111.80686 -16.45805 3.8391252 7
-111.61508 -15.621687 3.7324822 10.173
-111.6736 -15.44847 3.873822 12.580791
-111.99586 -15.010991 3.995363 8.1785002
-111.89385 -14.535167 3.9985955 12
-111.88604 -14.169193 3.7930176 8.1159992
-111.97095 -13.857245 3.9000192 8.1794996
-111.89486 -12.872004 3.6612408 8.1780005
-111.96593 -11.771158 3.9514537 12.128
-111.90562 -11.027723 3.869364 9.1723328
-111.95889 -10.44775 3.8259206 10.819215
-111.91241 -10.293427 3.8305809 10.88836
-111.86262 -9.7329512 3.8980019 10.865765
-111.90278 -9.3093157 3.8995829 10.819214
-111.81281 -8.9666443 3.8841217 10.56042
-111.70708 -8.7511072 3.968365 11.091667
-111.81464 -8.1337948 3.8794372 10.526077
-111.75597 -7.7728262 3.7885144 10.391125
-111.77973 -7.437696 3.6732686 10.096917
-111.84831 -7.01437 3.8378067 10.1605
-111.72027 -6.596416 3.7073252 10.112584
-111.6552 -6.3384733 3.7145209 10.143584
-111.60643 -5.9859576 3.7227795 10.157
-111.92133 -5.4123173 3.6373303 10.1385
-111.82854 -4.9265175 3.6706364 9.7507
-111.79239 -4.5755296 3.745971 8.8276663
-111.8081 -4.2375197 3.6522765 10.142876
-111.78134 -3.6605353 3.6135437 10.141
-111.85142 -25.640541 4.3271737 13.889833
-111.84834 -25.388836 4.2500153 13.571746
-111.84008 -24.902895 4.1541543 13.696268
-111.67039 -24.611126 4.2036691 13.896584
-111.68673 -24.221457 4.119246 13.069
-111.98241 -15.800392 4.2996459 11.119
-111.75023 -15.464234 4.1455445 11.623875
-111.94145 -15.006029 4.2093034 12.813146
-111.95229 -14.639228 4.1985602 12.137361
-111.97501 -14.241256 4.290906 11.1665
-111.96314 -13.779646 4.1557655 11.838826
-111.9594 -13.253284 4.0529032 12.156
-111.92731 -12.89694 4.2834415 13.152
-111.95701 -12.616242 4.1854649 11.157199
-111.95436 -12.028295 4.3672776 13.15
-111.98045 -11.782565 4.2964215 13.1445
-111.94447 -11.290961 4.1604056 12.07425
-111.86399 -10.956181 4.1685672 11.700688
-111.84796 -10.749965 4.1352201 11.33075
-111.91544 -10.167292 4.1897178 12.098527
-111.90877 -9.8542891 4.206903 11.532499
-111.88138 -9.4174843 4.2176595 11.658053
-111.81596 -8.9456139 4.262754 11.754579
-111.81427 -8.6182632 4.2389126 11.497989
-111.74581 -8.1220465 4.2625427 11.362687
-111.74975 -7.8132305 4.1035385 10.681892
-111.7777 -7.2399273 4.0734091 11.100501
-111.68578 -6.9704156 4.1378512 11.056313
-111.75195 -6.5268664 4.1076245 10.918699
-111.72381 -4.2405262 4.2504754 10.15975
-111.80029 -26.285809 4.7206993 14.5585
-111.79646 -25.790434 4.6080327 14.312187
-111.78083 -25.232634 4.5683985 14.631521
-111.76066 -25.144722 4.4567785 14.561375
-111.71949 -24.537827 4.6466594 14.0185
-111.68886 -24.285091 4.5634341 13.368667
-111.99023 -15.605286 4.5215306 14.388667
-111.82323 -15.464816 4.5065956 11.766313
-111.90784 -14.979884 4.5778885 11.448473
-111.94538 -14.614311 4.6079912 12.230195
-111.92802 -14.199979 4.6299582 11.874719
-111.93108 -13.958635 4.6198778 15.151
-111.99823 -13.057262 4.6170478 15.143
-111.9207 -12.645452 4.5449753 12.921158
-111.8598 -11.834194 4.5480747 14.139
-111.91798 -11.317126 4.6411595 11.832143
-111.87267 -10.925442 4.5186553 12.813979
-111.88623 -10.565692 4.5229669 13.030001
-111.84074 -10.202278 4.5975561 12.782351
-111.87279 -9.8030567 4.6146002 12.781611
-111.77524 -9.3683987 4.6222243 12.701
-111.82025 -8.9893045 4.6568942 12.026093
-111.78062 -8.5909576 4.6798043 12.627094
-111.84077 -8.194911 4.5924716 12.07925
-111.77147 -7.7788572 4.5525866 11.582563
-111.76839 -7.3963761 4.5359735 10.998219
-111.71097 -6.8533502 4.5257792 12.069407
-111.71938 -6.6794291 4.5338426 12.0715
-111.72395 -6.3106647 4.5964398 12.148001
-111.66279 -4.7260871 4.7564721 12.1365
-111.67284 -1.9406754 4.796721 9.1709995
-111.74889 -0.27920863 4.7876935 10.163
-111.99126 -29.668718 4.9631395 13.0515
-111.64568 -29.566788 4.9667268 13.05375
-111.75452 -28.7071 5.1274171 14.05425
-111.67722 -26.700268 4.934803 15.057
-111.75439 -25.896805 4.8196702 15.0615
-111.66773 -25.414131 4.8016229 12.0155
-111.69726 -25.169714 5.0981307 14.0175
-111.61848 -15.611157 4.9026151 14.1685
-111.88216 -14.931144 4.9279013 11.378813
-111.95446 -14.534401 5.0389018 11
-111.95973 -14.211721 4.8036976 13
-111.99697 -13.904641 4.807682 15
-111.9398 -11.920723 4.8804655 15
-111.91766 -11.359208 4.9133444 13.57975
-111.91031 -10.900856 4.9377246 14.075313
-111.8525 -10.670678 4.9928975 14.36075
-111.88551 -10.077358 5.0513415 13.755929
-111.89788 -9.8677959 4.9915972 13.405699
-111.84104 -9.3130302 5.0612421 12.663541
-111.84166 -9.0961361 5.1046681 13.183846
-111.81777 -8.6285715 5.0676804 13.03791
-111.86261 -8.1461782 4.9451475 12.455501
-111.76471 -7.7361574 4.8739724 12.962818
-111.75729 -7.457428 4.9692717 12.758938
-111.67828 -6.9501262 4.9764385 12.766334
-111.73646 -6.5698147 4.9309955 12.859
-111.78688 -6.1563549 4.9787517 10.143
-111.65924 -5.8208175 4.9203453 12.157
-111.79455 -3.4591029 5.0596042 9.4216251
-111.78513 -2.7231822 5.032228 9.1724997
-111.68503 -2.1331503 4.9229708 9.5033331
-111.96967 -1.6395484 4.9906235 10.1655
-111.9463 -28.550817 5.4029822 13.0225
-111.74725 -25.276245 5.2773037 14.016
-111.97984 -14.261463 5.2628617 11.176001
-111.93619 -13.995198 5.2081804 14.167
-111.61616 -8.8538895 5.2074485 14
-111.88994 -8.5705862 5.3191948 12.939945
-111.83922 -8.0441904 5.3573608 13.768917
-111.67982 -7.904201 5.2681308 14.059571
-111.85332 -7.3869672 5.3466821 13.156
-111.79149 -6.8189549 5.3467288 13.650249
-111.83939 -6.7218347 5.4614549 14.1135
-111.72466 -2.8635316 5.4401946 13.1405
-111.83621 -26.236231 5.9280124 12.014333
-111.90318 -25.869919 5.9420066 10.0105
-111.66122 -17.023396 5.8063397 8.1322498
-111.65239 -15.73819 5.8528132 8.1400003
-111.81635 -15.223353 5.732058 8.1350002
-111.99162 -14.840598 5.9741945 8.1269999
-111.83202 -14.315677 5.7059541 8.1344995
-111.77167 -12.72019 5.7767086 8.1357498
-111.72254 -12.184938 5.8006263 8.1260004
-111.62601 -11.025496 5.7619901 8.1359997
-111.8281 -7.504087 5.8853865 15.1375
-111.77229 -26.004517 6.2512136 13.0165
-111.75368 -25.804455 6.0894594 12.8146
-111.68029 -16.958736 6.1795268 8.1297493
-111.61624 -15.98397 6.3819895 8.1324997
-111.70319 -15.592953 6.1856141 8.1269999
-111.71538 -28.435116 6.6259055 11.759125
-111.62368 -28.364752 6.6522985 12
-111.76102 -28.489655 7.0117717 14.019501
-111.60725 -28.36512 6.9280648 11
-111.76641 -10.826758 7.0671659 9.1195002
-111.88398 -28.519346 7.371387 13.686001
-111.64462 -15.914639 7.3428149 9.1219997
-111.92361 -14.886874 7.4440393 9.1215
-111.7508 -10.077052 7.2087283 9.1184998
-111.64661 -9.8659401 7.3518276 9.118
-111.83099 -28.509958 7.8365612 14.295666
-111.68757 -28.384956 7.6919389 12.0145
-111.73994 -28.489775 8.275383 15.040875
-111.61297 -28.344812 8.1037054 14.018
-111.88167 -28.492758 8.6239033 14.819388
-111.63297 -28.312683 9.004384 15.01775
-111.56608 -4.214684 -1.4149685 7
-111.48514 -3.7883527 -1.4775532 7
-111.29897 -3.5274582 -1.4303678 7
-111.31976 -22.773354 -0.99803543 7
-111.40189 -3.7646713 -1.1210748 7
-111.50633 -3.3821123 -1.1431535 7
-111.54728 -3.6980951 -0.58949423 7
-111.5986 -3.4534452 -0.66593432 7
-111.50137 -10.209595 -0.10308112 7
-111.58382 -17.118437 0.72302979 7
-111.43262 -15.910942 0.77227914 6
-111.40942 -15.074438 0.74478418 6
-111.35365 -4.9136028 0.58940107 7
-111.40302 -4.1209779 0.75637943 5
-111.43463 -3.9645195 0.79608166 5
-111.22726 -3.103287 0.75288957 5
-111.33136 -2.4011879 0.74206436 5
-111.26659 -0.78611767 0.70471942 5
-111.41068 -22.412352 1.1760362 2.5
-111.40199 -22.185011 1.0918086 3.4444447
-111.48199 -21.73057 1.0605881 2.5
-111.38953 -21.387451 1.064701 1.25
-111.47657 -21.063532 1.0590024 2
-111.37148 -20.610226 1.0318062 4.5
-111.36207 -20.220392 1.0333146 4.1666665
-111.44918 -19.776703 1.014156 3.4000001
-111.45061 -19.390951 1.0339011 3
-111.32014 -18.939344 1.0561447 5
-111.41666 -18.618078 0.99958265 4.3333335
-111.43206 -18.244942 0.97767919 3
-111.40587 -17.768618 0.95487827 4.6666665
-111.34911 -17.351202 0.96685356 3
-111.25877 -17.087864 0.95981449 2.3333333
-111.3895 -16.603199 0.93205214 2.3333333
-111.3969 -16.196169 1.0109847 3.1666667
-111.35347 -15.881351 1.0403658 3.6666667
-111.5898 -14.970304 1.0220133 4
-111.38542 -14.569416 1.0281931 1.5
-111.40581 -14.231365 1.0186956 2.5999999
-111.36012 -13.759918 1.0080259 2
-111.39758 -13.362972 1.0209706 2.875
-111.52824 -12.94208 1.0076028 2.4000001
-111.38761 -12.593212 0.98990977 1
-111.45902 -11.813031 1.015818 4
-111.40926 -11.44808 0.99472648 3.3
-111.30991 -11.130886 0.97590435 4.3333335
-111.37883 -10.46919 0.99448067 3
-111.31931 -9.859787 0.96778661 4
-111.41114 -9.4227972 0.92248034 4
-111.31765 -9.1143551 0.93072027 4.5
-111.43948 -8.5612774 0.9078474 4.4000001
-111.35579 -8.0308847 0.91609788 4
-111.25723 -7.9824905 0.91809404 4
-111.32284 -7.4446573 0.90523058 4.25
-111.52045 -7.1836538 0.9087224 4
-111.40635 -6.5883498 0.89350504 4.6747499
-111.2308 -6.1521378 0.88191891 4
-111.53466 -4.000864 0.95841718 8.0249996
-111.5109 -3.8124211 0.97189188 5.6288128
-111.40969 -3.4887609 0.95021367 5.7538128
-111.42559 -2.4458332 0.85310858 8.0550003
-111.2132 -0.86439723 1.0034748 8.026
-111.44366 -28.421955 1.5586021 3.5
-111.38375 -28.26318 1.5084543 3.25
-111.20919 -27.843643 1.4638041 3.5
-111.38572 -27.406351 1.4447204 2.625
-111.43691 -26.960861 1.4105053 2.25
-111.32711 -26.60251 1.4250329 2.8
-111.36 -26.158991 1.4025578 1.75
-111.31057 -25.797585 1.4067655 1.75
-111.38715 -25.436548 1.3875993 2
-111.48817 -25.045015 1.3983293 3.6666667
-111.40372 -24.587442 1.3675916 4
-111.3611 -24.142097 1.3917774 2.7142856
-111.44909 -23.859606 1.3531964 3.3333333
-111.41618 -23.337492 1.301228 2.2
-111.38562 -22.872852 1.2905104 3.5
-111.35394 -22.48402 1.2537092 2.5
-111.3093 -12.936684 1.3101865 6
-111.20527 -12.791114 1.3986874 6
-111.54967 -6.3491502 1.3631721 8.0407505
-111.34267 -4.9683948 1.4123297 8.0465002
-111.53916 -4.0990901 1.2339567 7
-111.43533 -3.7635403 1.2164258 6.5
-111.49467 -3.47135 1.3785793 6.1428571
-111.5363 -28.484631 1.856693 3.9939394
-111.28806 -28.37866 1.6883125 4
-111.30945 -24.313175 1.7920308 1.8611112
-111.52428 -15.468974 1.8855664 3.3333333
-111.57961 -8.4453459 1.7689222 6
-111.41544 -5.4419737 1.8733623 8.0454998
-111.38798 -4.7090225 1.9501846 8.0440006
-111.34351 -3.8160686 1.7922567 7
-111.53085 -3.3851748 1.864545 7
-111.43987 -3.1186919 1.9510626 7
-111.28978 -2.0990701 1.9697369 8.0429993
-111.5471 -28.474401 2.3556004 5.5
-111.51682 -28.344473 2.0201657 6
-111.33339 -24.435268 2.0121579 2
-111.29422 -24.225098 2.2603357 3.8974359
-111.30014 -23.971085 2.3941526 5
-111.51327 -15.467353 2.1649437 4.7222219
-111.3581 -5.2843246 2.0854597 8.0434999
-111.51994 -5.1615038 2.0036132 8.0434999
-111.53341 -4.6796808 2.0828328 8.0434999
-111.57854 -3.6082156 2.1197388 7
-111.52011 -3.3808339 2.1360209 7
-111.37687 -2.9805365 2.0341227 7
-111.48563 -28.445532 2.660677 6.5714288
-111.5996 -28.362419 2.5631845 6
-111.23037 -26.503208 2.6943395 6.5
-111.45997 -25.881222 2.7758207 7
-111.3009 -25.25787 2.7287714 6.6666665
-111.29667 -25.102581 2.7374928 6.6666665
-111.525 -24.437967 2.7004409 6.5833335
-111.42898 -24.260046 2.5992551 5.8056974
-111.20408 -23.951744 2.40798 6
-111.47904 -15.663169 2.7760587 8.0930004
-111.5079 -15.478667 2.5763352 6.8578334
-111.36604 -4.8094583 2.5332406 7
-111.31808 -4.5946579 2.7445347 7
-111.34037 -3.6886578 2.5898736 8.1075001
-111.53386 -3.3937898 2.533927 8.0351667
-111.50593 -3.085568 2.5500691 8.1056252
-111.51386 -28.438618 3.0432048 7.75
-111.2935 -26.447302 3.024153 8.0620003
-111.405 -26.149792 3.0939753 8.3932495
-111.45497 -25.824486 3.0289481 8.0385799
-111.26052 -25.242535 3.0014927 8.077116
-111.28898 -25.147095 2.9519656 7.5292501
-111.43695 -24.480368 3.0462451 8.3753538
-111.37663 -24.282089 3.0844076 8.5342903
-111.3104 -23.761433 3.0870857 8.5640116
-111.30352 -23.470211 3.1483889 9.094389
-111.48611 -15.487102 2.9051304 8.4208059
-111.49651 -5.9803295 3.1107638 8.1344995
-111.59697 -3.6108148 3.1354284 8.1695004
-111.50604 -3.3664701 3.0543361 8.8631363
-111.49731 -3.0085495 3.1651242 8.6639996
-111.49573 -2.603153 3.036345 8.1324997
-111.2226 -1.7692567 3.0961306 8.1684999
-111.51633 -28.425661 3.5370777 9.333333
-111.46682 -28.387039 3.4243588 9.0530005
-111.36761 -26.827579 3.311656 9.0550003
-111.26223 -26.751755 3.526073 9.8099995
-111.53159 -26.038395 3.5171058 10.059
-111.43452 -25.845766 3.4096673 9.6107187
-111.29703 -25.281736 3.3507833 9.5403614
-111.55582 -25.154079 3.4194553 9.8167496
-111.37336 -24.519999 3.4404469 10.124561
-111.47272 -24.156162 3.4052346 10.112889
-111.37213 -23.766357 3.4331267 10.221317
-111.36632 -23.392117 3.2834485 9.887846
-111.53828 -17.196636 3.5426791 7
-111.42854 -15.646996 3.3552399 9.0930004
-111.49388 -15.480678 3.3381562 9.9860716
-111.49384 -6.2512813 3.3784385 8.1411428
-111.36694 -5.3585067 3.5097506 8.1606665
-111.55222 -5.0920634 3.3672421 8.1379995
-111.37668 -4.5218148 3.5344296 8.1733332
-111.22129 -4.0026283 3.480572 8.1730003
-111.39767 -3.4961426 3.3967509 8.8580999
-111.45812 -3.0500872 3.4029453 9.3598127
-111.3559 -2.5967324 3.379678 8.7257996
-111.38435 -2.1928692 3.3279629 8.7093573
-111.33846 -1.7919035 3.3605418 9.1474991
-111.32771 -1.396258 3.4293926 8.4919996
-111.24805 -0.87277997 3.3550076 9.1604996
-111.42855 -28.433445 3.9207087 10.5
-111.52672 -25.90353 3.7024903 10.368
-111.46813 -25.358004 3.8079553 11.481382
-111.4735 -24.58005 3.8688276 12.132222
-111.43135 -24.111479 3.8139114 12.689712
-111.33068 -23.748095 3.7904587 12.488116
-111.29852 -23.460039 3.8205135 12.679858
-111.54148 -15.459326 3.8229904 13.227357
-111.55637 -7.4418879 3.8946779 10.928749
-111.52359 -6.9590721 3.9742544 11.052719
-111.47942 -6.5467081 3.734283 10.1355
-111.44801 -6.1338167 3.7134373 10.102563
-111.49439 -5.8043509 3.7686706 9.5163126
-111.42958 -5.4124503 3.7210002 8.9296007
-111.41344 -4.980556 3.7578106 9.6216993
-111.44107 -4.5603704 3.8233714 8.7616997
-111.37064 -4.2418914 3.728555 9.3504505
-111.26379 -3.7044494 3.6318707 10.0584
-111.24461 -2.1790116 3.6437967 10.1475
-111.4149 -1.8112658 3.7129827 8.1715002
-111.2895 -1.526436 3.7502508 10.152
-111.37357 -0.52795213 3.7541244 10.150249
-111.44849 -0.11617266 3.7493858 10.149
-111.5106 -28.418245 4.1563187 11.333333
-111.48039 -28.389885 4.3623638 12
-111.53568 -26.03639 4.0642433 12.062
-111.41354 -25.396317 4.1783781 12.7526
-111.32707 -24.937609 4.2470746 13.067916
-111.46635 -24.593042 4.2335114 13.897653
-111.40411 -24.220848 4.215848 13.097551
-111.29126 -23.777344 4.1723514 13.53737
-111.48927 -23.457987 4.0019398 14.0255
-111.51115 -15.406577 4.219945 13.411224
-111.34472 -10.837205 4.3838592 13.138167
-111.49027 -10.76563 4.3723927 13.1415
-111.58952 -8.8735647 4.3385701 12.143
-111.53054 -8.4879265 4.3720837 12.135
-111.49377 -8.1133585 4.3662205 12
-111.56989 -7.9558282 4.0258927 11.135
-111.57786 -7.4527183 4.3851113 12
-111.48699 -6.921155 4.0255513 11.1375
-111.43828 -6.2847075 4.1556954 10.973999
-111.42712 -5.880197 4.2331753 11.052167
-111.40641 -5.3811917 4.2404928 11.11675
-111.37719 -5.0385408 4.1526561 11.10875
-111.31468 -4.5844765 4.1812377 9.8266668
-111.29243 -4.2250528 4.2168994 10.4345
-111.3926 -3.3441858 4.3914766 10
-111.20689 -2.1607478 4.2833214 11.1475
-111.21535 -0.49980944 4.0442953 10.1585
-111.4951 -28.409649 4.6852055 13
-111.4407 -28.386848 4.5670624 12.5
-111.22665 -27.024017 4.4707642 13.058001
-111.45811 -25.394602 4.5966949 13.854449
-111.31799 -25.093056 4.7407303 15.025249
-111.43355 -24.676756 4.6587305 12.806195
-111.44384 -24.297546 4.5609961 14.4223
-111.26817 -23.832436 4.4271832 14.509
-111.46933 -15.642969 4.7533598 9
-111.50046 -15.404844 4.6560302 12.081786
-111.22765 -10.82271 4.4387131 13.149
-111.59225 -9.330925 4.5909348 13.14
-111.43713 -8.5396214 4.7661748 12.942801
-111.59527 -7.9154115 4.4708495 12.137
-111.53275 -6.8942952 4.4842544 12
-111.56561 -6.7551417 4.6503453 11.582
-111.45386 -6.2401767 4.6532135 12.108649
-111.33954 -5.8131323 4.7269826 12.101687
-111.55649 -5.4015269 4.516499 11.648
