# .PCD v0.7 - Point Cloud Data file format
VERSION 0.7
FIELDS x y z intensity
SIZE 4 4 4 4
TYPE F F F F
COUNT 1 1 1 1
WIDTH 1238
HEIGHT 1
VIEWPOINT 0 0 0 1 0 0 0
POINTS 1238
DATA ascii
-102.55482 80.394684 -2.5803845 8.1324997
-102.5864 82.462044 -2.6212451 7
-102.63428 75.515297 -2.2768624 6
-102.58672 75.762466 -2.1908419 6.090909
-102.6245 76.122978 -2.1956072 6
-102.60728 76.482979 -2.2120652 6
-102.64937 78.529678 -2.1075237 7.7531662
-102.70665 80.703079 -2.3346417 7.7526665
-102.71101 80.85994 -2.2111926 7
-102.47646 81.550209 -2.1734595 7
-102.51548 82.178185 -2.1009481 8
-102.60165 82.459084 -2.138756 8.1289997
-102.61644 77.749557 -1.9167786 7
-102.60439 78.506889 -1.8204018 7.5538931
-102.61324 80.113335 -1.989359 7
-102.61597 82.146324 -1.9785025 8
-102.53895 82.510391 -1.7181221 8.0547075
-102.57994 78.511116 -1.4625176 8.1441088
-102.58163 79.64711 -1.2565123 8.132
-102.56129 82.515175 -1.4597349 8.2184372
-102.53288 79.793915 -0.92695099 9.12675
-102.57614 81.876503 -0.86894441 9.0637503
-102.62565 82.080444 -0.86568201 9
-102.56071 82.524864 -0.88875324 8.8819656
-102.48969 62.886246 -0.48993042 9.0885
-102.58455 79.797997 -0.5576604 9.6079826
-102.57304 80.395035 -0.7266432 8.1379995
-102.58733 80.997597 -0.62398684 8.6879539
-102.52101 81.978104 -0.47060862 8.1709995
-102.50927 82.279152 -0.45436299 8.5008326
-102.61517 82.5345 -0.74212325 8.9167662
-102.64557 61.413479 -0.071770601 15.035
-102.51344 61.778805 -0.13386616 13.836451
-102.59178 62.107437 -0.17000869 11.575862
-102.62897 79.795807 -0.28532299 10.079036
-102.5194 81.127991 -0.1321297 10.147667
-102.48537 81.212349 -0.26506379 10.072001
-102.48511 81.896385 -0.0034157643 10.134
-102.45848 82.323509 -0.22550379 9.4888334
-102.44394 82.45208 -0.23300938 10.145
-102.52162 60.383831 0.19644977 14.939167
-102.47854 60.420265 0.16430898 14.370251
-102.68507 60.98698 0.18675841 14.0675
-102.66109 61.938637 0.083551034 14.107661
-102.5783 62.203995 0.21121408 12.337196
-102.51627 62.537125 0.35711777 11.334375
-102.62634 79.848656 0.17160223 10.663846
-102.5238 81.061134 0.23289745 10.816063
-102.53592 81.301926 0.28299093 10.847375
-102.5585 82.27906 0.28302228 10
-102.5635 82.541435 0.23005761 10.241789
-102.57759 62.288387 0.56330544 13.285406
-102.56178 62.446808 0.55555344 11.817062
-102.67612 79.858543 0.60166609 11.575024
-102.58281 81.033432 0.6824317 11.279234
-102.46529 81.254517 0.49283692 9.1304998
-102.48667 81.876053 0.48385507 9.1309996
-102.61913 82.574928 0.61745018 11.019417
-102.7636 61.843262 1.1625614 14.01025
-102.49768 62.083267 0.98042059 11.0065
-102.42493 62.804085 0.81354952 12.006
-102.58375 79.876366 0.87167597 11.659451
-102.71605 81.03083 0.92367363 12.1225
-102.51974 81.306648 1.0420032 12.111376
-102.61127 82.589912 1.0121324 11.457679
-102.70868 61.85965 1.3273755 9.1145
-102.59043 81.385345 1.2492206 11.1295
-102.60929 82.340866 1.5167478 11
-102.56966 82.590302 1.3996924 11.95282
-102.55995 61.159821 1.6261069 9.1195002
-102.59019 82.603065 1.7935386 12.72625
-102.60119 82.615456 2.2161489 13.360848
-102.56153 79.893242 2.6225841 12.12425
-102.647 81.111961 2.6677465 12.12375
-102.65639 82.381454 2.6576931 12
-102.64517 82.606171 2.5804338 13.543478
-102.76948 79.863197 3.0960228 10.172
-102.6354 80.884163 3.1666074 10.1535
-102.63314 82.634361 2.9483864 14.512727
-102.56902 79.908607 3.4131911 13.855319
-102.659 80.256874 3.4528465 13.164
-102.59737 81.090614 3.4257798 13.888
-102.74451 81.331139 3.4618709 15.117
-102.61425 82.62664 3.3464539 14.100906
-102.57208 79.945496 3.7798228 14.2765
-102.6063 81.151176 3.9070261 13.1455
-102.53792 81.257545 3.7532475 13.641
-102.65001 82.231827 3.7300241 13.388333
-102.60764 82.538467 3.7995455 13.148071
-102.70334 79.954178 4.1590033 14.495833
-102.5299 80.008347 4.2092624 14.10625
-102.65831 81.064301 4.2864814 11.171
-102.7208 81.341026 4.1688447 14.162
-102.62569 79.956291 4.5564694 13.167
-102.50449 80.039368 4.7553425 15.1075
-102.59407 81.122734 4.5493593 13.6645
-102.46975 81.426933 4.5190239 13.165
-102.78349 82.677147 4.5459785 15.1125
-102.52012 81.363243 4.8186655 12.1685
-102.54442 82.641113 5.0313492 14.389585
-102.40613 82.733765 5.4453654 14.709834
-102.72406 82.56942 6.1152239 15.044833
-102.68607 82.822807 6.3233657 15.1165
-102.46861 82.714455 6.4557433 15
-102.49873 80.001511 7.3218546 15.167
-102.73389 81.694069 7.22927 14.131
-102.61779 80.010979 7.6441412 15.1675
-102.77779 81.305817 8.3389788 15.1675
-102.73123 81.374657 8.6195898 14.1695
-102.45639 82.705254 11.093697 14.1655
-102.59913 79.849854 11.397189 14.159667
-102.70245 81.985077 11.532438 14.1565
-102.54565 80.243355 11.821233 13.410167
-102.55228 81.590553 12.399477 15.171
-102.49744 81.53244 12.584588 15.171
-102.46915 82.005112 12.473954 12
-102.66938 82.077766 16.25659 13
-102.52416 80.588158 16.520172 14.0985
-102.42934 81.530785 16.649384 13.006
-102.62102 82.017265 16.491108 13.135
-102.78996 80.624176 19.80106 14.026
-102.79403 82.873177 19.601276 14.1265
-102.63983 82.000198 20.274529 14.131
-102.70243 83.368752 20.179585 14
-102.53529 82.218208 20.919321 14.1275
-102.62777 79.293831 23.117884 15.0015
-102.64194 81.698952 24.288717 14.02
-102.40808 83.10907 24.495424 15.036
-102.24674 66.576508 -3.8132541 6
-102.19901 67.129082 -3.7302516 6
-102.24393 67.646294 -3.6353459 6
-102.0407 66.24025 -3.2105029 2
-102.21968 66.680733 -3.3952081 4.5
-102.1821 67.013481 -3.355787 4.5
-102.25967 67.402222 -3.5177226 6
-102.31359 67.864845 -3.3904958 3.5
-102.20134 68.290062 -3.2632287 4.5
-102.1899 69.318039 -3.2617676 5.25
-102.33543 69.707039 -3.2236471 5
-102.35163 70.344421 -3.2685513 7
-102.29492 71.186066 -3.2174911 4
-102.09904 71.505608 -3.2223842 4
-102.2353 72.298897 -3.2990637 5
-102.38411 73.512787 -3.2334924 5
-102.16809 73.795387 -3.2153912 4.3333335
-102.23281 74.600609 -3.2167511 4
-102.35696 75.412933 -3.2189071 4
-102.20589 76.972183 -3.4538059 6
-102.32512 77.717194 -3.3119297 5.6666665
-102.32022 60.174355 -2.8986411 4
-102.15148 60.712791 -2.8918321 3
-102.2495 60.975086 -2.9360335 4.5
-102.13681 61.25367 -2.868551 4.6666665
-102.20876 61.782982 -2.9206052 1
-102.14668 62.076633 -2.9277213 2.125
-102.27393 62.634487 -3.1072137 1
-102.39541 63.042446 -3.1134424 1
-102.04953 63.564449 -3.1356525 3
-102.09321 63.796875 -3.0843089 3.8
-102.0743 64.302071 -3.1621339 2.3333333
-102.07572 64.676559 -3.1746345 2
-102.05828 65.017624 -3.1647494 2.5
-102.04466 65.901901 -3.189477 2.3333333
-102.07544 66.288902 -3.1917415 3
-102.09004 67.320702 -3.0692227 3
-102.16959 67.680008 -3.0810316 3
-102.2076 68.239563 -3.0545187 3.4545455
-102.17995 68.562355 -3.1186569 2.5
-102.03432 69.198975 -3.1761713 6
-102.19392 69.475471 -3.0722158 3.3333333
-102.11862 69.729988 -2.9719479 3.5
-102.15246 70.333542 -2.9981568 3
-102.20705 70.571251 -3.0486887 1.5
-102.14117 71.020035 -3.0810056 1.5333333
-102.2742 71.357262 -3.1448724 3.8
-102.13689 71.771049 -3.1219645 3.0999999
-102.19665 72.124588 -3.1062706 2.4444444
-102.25016 72.5308 -3.0850022 2.375
-102.18559 72.937386 -3.090117 3
-102.14703 73.311394 -3.1326659 2.7
-102.23444 73.684532 -3.137152 3.75
-102.10237 74.201706 -3.1269784 3
-102.10529 74.605827 -3.1161413 3.4000001
-102.1405 74.910431 -3.1199727 3.5
-102.22166 75.453156 -3.0446494 4.8421054
-102.22711 75.756241 -3.0553598 4.8000002
-102.15116 76.267227 -3.166532 4
-102.32076 76.752739 -3.0737169 6
-102.27976 76.972862 -3.0510337 6.4000001
-102.18802 77.745193 -3.0992446 5
-102.27785 60.209419 -2.693481 4
-102.04494 60.551678 -2.723474 4
-102.33138 60.845661 -2.7714753 5
-102.24194 61.338753 -2.7406669 3
-102.33555 62.017792 -2.7922606 2
-102.31898 69.743286 -2.6347799 2
-102.18309 75.473373 -2.5792961 5.9272079
-102.3569 75.648582 -2.5823143 6
-102.34424 77.100784 -2.7025096 6
-102.17747 77.328552 -2.5962572 6.6666665
-102.21471 78.656754 -2.4161844 6
-102.28267 80.711533 -2.4382212 8.1330004
-102.15321 75.434875 -2.2835853 6
-102.21705 75.801628 -2.173739 6.4000001
-102.18239 76.155273 -2.2048814 6
-102.21677 77.009155 -2.2519212 7
-102.00984 79.513535 -2.2275376 7
-102.14964 81.542046 -2.108036 7
-102.13535 82.188843 -2.1210172 8
-102.19855 82.520439 -2.1186974 7
-102.11986 77.836433 -1.9583485 7
-102.14407 78.53019 -1.8362805 7.3681664
-102.34258 79.042694 -1.9342048 7
-102.22574 82.165466 -1.997646 8
-102.26393 82.527878 -1.729039 8.0716667
-102.22776 78.536232 -1.4649214 8.1172781
-102.2224 82.501259 -1.4010961 8.6053753
-102.29835 79.599701 -1.099468 8.1540003
-102.11987 79.807671 -0.90555209 9.0281105
-102.21227 80.564674 -1.0264463 9.1324997
-102.11121 80.992088 -0.91206807 9.0892153
-102.1655 82.553497 -0.86790985 9.0794535
-102.25404 61.8339 -0.40186405 10.5155
-102.37122 62.208687 -0.54635054 9.0974998
-102.2399 63.027401 -0.67612195 8.0024996
-102.21475 79.816872 -0.6007092 9.5022755
-102.03144 80.315376 -0.60170323 9.1177502
-102.11642 80.636833 -0.71444857 9.1071415
-102.16329 80.98365 -0.70673513 8.978466
-102.22527 82.524239 -0.68129539 8.9556322
-102.20679 61.718575 -0.16037177 13.737372
-102.13116 62.119526 -0.10985059 10.940209
-102.21678 62.647335 -0.23556522 12.3475
-102.27257 63.013084 -0.22460674 12.391
-102.20594 79.84819 -0.26414838 10.074019
-102.22834 80.703964 -0.1957078 8.1075001
-102.1522 81.179955 -0.21938601 10.1485
-102.1784 81.321594 -0.18180829 9.2461252
-102.3136 82.468666 -0.24953772 9.5438995
-102.13145 60.382347 0.21793853 14.491695
-102.13142 60.402481 0.14631057 15.04575
-102.21202 60.920963 0.15667111 14.065334
-102.1051 61.914005 0.12315433 13.664754
-102.16506 62.190212 0.17193466 12.182639
-102.19827 62.544159 0.25754067 10.905286
-102.16901 79.896339 0.15779695 10.688154
-102.0984 81.09375 0.3553102 10.915899
-102.13148 81.298706 0.24131939 10.660346
-102.2022 82.255829 0.23567851 9.696166
-102.19653 82.563034 0.26892611 10.133795
-102.17703 62.261726 0.59743828 12.93059
-102.17914 62.646084 0.64925814 11.035563
-102.19217 79.896683 0.63649684 11.800312
-102.22121 81.039497 0.73817044 11.670611
-102.19016 81.282616 0.69679236 11.133667
-102.28126 82.611488 0.45784616 10.74361
-102.09771 61.96579 1.0482621 14.57975
-102.09451 62.341606 0.83628112 12.583376
-102.2252 79.894424 0.82104015 11.6481
-102.0612 81.332405 0.84144974 12.0425
-102.22153 82.60347 1.0216153 11.560533
-102.29777 61.749889 1.4984648 9.1149998
-102.13952 81.294212 1.3467324 12.681101
-102.24225 82.346947 1.5328691 11
-102.22165 82.625214 1.428607 11.653847
-102.19023 82.625534 1.7927712 12.695854
-102.23837 82.636436 2.2356374 13.158348
-102.0578 79.866913 2.6621943 11.4715
-102.2378 80.677162 2.6690884 12.12225
-102.29328 81.085503 2.6604414 12.122749
-102.30349 82.338959 2.7020559 12
-102.20761 82.644562 2.5895443 13.12029
-102.11936 79.855728 3.0994899 12.396749
-102.20441 80.257942 3.1870089 10.1395
-102.18968 81.020889 3.1347096 11.820834
-102.21329 82.657967 2.9500337 14.342692
-102.16492 79.9319 3.3574169 13.500708
-102.18665 80.612648 3.4240403 13.666944
-102.17693 81.031303 3.3503597 12.63225
-102.31344 82.242401 3.523279 11.169
-102.17646 82.657684 3.413846 13.613646
-102.23826 79.95237 3.7767198 14.384501
-102.22735 80.051979 3.7419963 12.774501
-102.24481 81.134399 3.7992394 13.792834
-102.1334 81.335716 3.7547209 14.956599
-102.16509 82.195496 3.841886 13.799
-102.20911 82.573944 3.7781827 13.73425
-102.28204 79.959389 4.1893072 12.6675
-102.2153 80.027802 4.2875504 14.5416
-102.33753 81.121971 4.3037548 12.66675
-102.18586 81.398766 4.3255777 12.167749
-102.26378 82.744911 4.0170178 13.126334
-102.15018 80.056969 4.5478945 14.60675
-102.39375 81.182175 4.5649629 14.1065
-102.30716 81.275635 4.5772157 15.126834
-102.16479 82.719032 4.5849223 14.036445
-102.10696 81.405579 4.9356775 13.498666
-102.21908 82.618263 5.083375 14.2709
-102.20547 82.662552 5.2788134 14.387
-102.12607 82.808907 5.2748013 14.12475
-102.18356 82.74292 5.820097 14.405334
-102.12021 84.562187 5.8466773 10.14
-102.00565 80.122452 6.3411317 15.1275
-102.20279 81.360451 6.368721 15.12375
-102.17312 82.598122 6.243834 15.040333
-102.01184 82.841393 6.2638135 15.1105
-102.20723 82.661743 6.5058575 15
-102.1589 82.830048 6.5636454 15.128
-102.01572 80.007706 6.9609818 15.1665
-102.03203 80.243874 7.226615 14.169
-102.1214 80.50724 7.3086591 14.629
-102.1053 81.067467 7.3514295 15.1285
-102.19344 81.201698 7.3186002 14.1305
-102.14925 82.787514 7.3452864 14
-102.10397 80.054359 7.8368983 14.1705
-102.3539 81.215462 7.6660585 13.171
-102.39914 81.909103 11.098089 11
-102.19573 82.611931 11.430433 14.1595
-102.17242 80.309425 11.741016 12.027
-102.25334 82.680466 11.678601 15.1705
-102.19126 80.314522 12.672875 14.0385
-102.20279 80.373161 15.616468 14.031
-102.19862 82.09684 15.889147 12.7895
-102.10348 82.037971 16.353153 13
-102.06097 83.291855 16.16276 13
-102.02603 80.586708 19.583551 14.0245
-102.35738 81.820221 19.264238 13.062
-102.002 81.264175 19.831053 13.1605
-102.312 82.170799 19.852654 14.0255
-102.37469 83.186485 20.017958 14.025
-102.17896 83.384811 20.15937 14
-102.1843 81.771301 23.279501 14
-102.01804 83.778786 23.588657 15.1395
-102.3022 83.490013 23.729006 14.145
-102.31847 83.64637 24.182074 15.1375
-102.21285 84.989357 24.159637 15.1365
-101.70902 62.258423 -3.6051702 6
-101.73228 62.759918 -3.6148655 6
-101.98262 67.645714 -3.8797057 6
-101.72612 61.758297 -3.5912952 6
-101.79459 62.138824 -3.2818155 5.25
-101.79611 62.525192 -3.3373079 5.25
-101.79299 62.976707 -3.3444908 5.25
-101.86622 63.354164 -3.3562324 4.5
-101.80613 63.87561 -3.3581529 5.25
-101.84238 64.213539 -3.3701997 4.5
-101.83545 64.46463 -3.3292153 5.3333335
-101.82056 64.958725 -3.2670028 4
-101.79976 65.380447 -3.2750103 4
-101.80718 65.660713 -3.2835584 4
-101.99799 66.698799 -3.2243237 2
-101.86636 67.081451 -3.3418229 3.25
-101.90086 67.476624 -3.2724042 2.75
-101.80151 67.824272 -3.3425262 3.2
-101.75253 68.148849 -3.3510232 3.6666667
-101.94212 68.808266 -3.2693973 6
-101.85401 70.089928 -3.3043795 5
-101.61472 70.403099 -3.3001115 5
-101.81748 71.788635 -3.2170031 4
-101.93033 72.562737 -3.2909451 5
-101.72639 72.912354 -3.2452483 5
-101.97913 73.963806 -3.2062387 4
-101.80069 74.121101 -3.2080333 4
-101.7877 75.449791 -3.5942123 6
-101.86227 75.738251 -3.2499273 4.6666665
-101.96938 76.003456 -3.2037735 5
-101.7216 76.903862 -3.2955837 7
-101.7481 77.374748 -3.2237573 4
-101.84874 77.677498 -3.2313831 4
-101.76384 60.32592 -2.8885124 3
-101.84322 60.584419 -2.9529788 3.5999999
-101.838 61.192268 -2.9476676 6
-101.84153 61.473663 -2.9858112 5
-101.76878 61.837879 -2.9390099 3.8333333
-101.79006 62.169014 -3.0491011 3.2222223
-101.8427 62.640079 -3.1142569 2.3333333
-101.89556 63.070763 -3.1016092 2.5
-101.90012 63.425468 -3.097369 2.3333333
-101.69088 63.836952 -3.0555196 1.5
-101.71993 64.228981 -3.0632157 1.5
-101.70941 64.634262 -3.0633736 3.8333333
-101.76944 64.974075 -3.0718982 1.5
-101.81232 65.293983 -3.0456624 4.3333335
-101.81337 65.704597 -3.0597854 4.3333335
-101.80867 66.123718 -3.076648 4.3333335
-101.83624 66.593758 -3.0923214 4.3333335
-101.76881 66.876427 -3.1267335 5
-101.74039 67.356918 -3.1358433 3.6666667
-101.73518 67.775627 -3.1355219 2.8571429
-101.80833 68.23037 -3.1233225 3.125
-101.84316 68.61821 -3.1080692 4
-101.80189 68.928726 -3.0855603 2.9166667
-101.85506 69.246895 -3.0844469 3.5999999
-101.76926 69.747047 -3.0896528 3.5
-101.83051 70.234955 -3.0888581 3.5714285
-101.8131 70.664185 -3.0916398 2.6363637
-101.7222 71.070122 -3.0694566 0.63636363
-101.75634 71.336578 -3.0744061 2.8333333
-101.81319 71.80497 -3.100131 2.25
-101.74141 72.209724 -3.0976834 2.5999999
-101.81589 72.620193 -3.1074214 3.5
-101.83002 72.993744 -3.0972099 2.125
-101.80661 73.405266 -3.1034563 2.8
-101.77412 74.187691 -3.1084278 4
-101.78117 74.672791 -3.1156158 3.2
-101.86594 74.8741 -3.1286874 3
-101.77972 75.4711 -2.9457836 5.7777777
-101.81849 75.857727 -3.0531111 4.9285712
-101.73538 76.080742 -3.0065169 5.4000001
-101.75478 60.276058 -2.6869876 3
-101.75646 61.081429 -2.7597973 2
-101.9726 61.787117 -2.7799478 3
-101.84116 62.037952 -2.8001082 3
-101.69211 68.60479 -2.5854528 7
-101.73629 75.441063 -2.4592783 5.5
-101.6951 75.810135 -2.5729799 5.8333335
-101.61722 76.187004 -2.6751227 6
-101.6114 76.804176 -2.6822066 5
-101.7922 75.49086 -2.2675238 6.3540835
-101.80647 75.834549 -2.1934342 6
-101.63908 76.754639 -2.3222542 6
-101.86576 78.605751 -2.0244071 7
-101.90212 79.096481 -2.0847476 7
-101.82196 79.400406 -2.0940924 7
-101.81062 79.781143 -2.1126754 7
-101.8818 80.069885 -2.1576474 7
-101.80466 80.974869 -2.098249 7.8436251
-101.78961 81.809059 -2.1511631 7
-101.82484 82.54641 -2.1234818 7.0705624
-101.9959 73.404877 -1.828308 8.1084995
-101.61771 77.833061 -1.9562427 7
-101.87653 78.597878 -1.7129329 7.5532494
-101.62661 79.225105 -1.8825356 7
-101.9401 79.855759 -1.9862531 7
-101.85643 82.542358 -1.7314113 8.1079998
-101.82356 73.464394 -1.2374569 8.1677494
-101.80591 78.581161 -1.4694128 8.1463547
-101.6768 79.060738 -1.4730636 8.1459999
-101.68394 79.436661 -1.4265764 8.0911503
-101.7585 79.837769 -1.4452653 8.0747499
-101.69252 80.101044 -1.4583515 8.0726252
-101.6991 80.930916 -1.2452306 9.1330004
-101.84294 82.548424 -1.51194 8.1378746
-101.74938 73.499176 -1.030115 9.1605625
-101.6078 79.170502 -1.1488495 8.0360003
-101.79937 79.824455 -0.91228259 9.0370474
-101.90777 80.762207 -0.99271196 8.1660004
-101.80224 80.99836 -0.91384166 9.0704565
-101.75961 82.572899 -0.87930971 8.9197998
-101.68282 61.183369 -0.53398657 9.0930004
-101.76919 61.851528 -0.47947073 9.0603333
-101.84114 62.186512 -0.5541746 9.0966663
-101.99755 62.853374 -0.58644617 9.1055002
-101.63077 73.526016 -0.78355831 9.1084995
-101.61559 73.678902 -0.66896886 10.115
-101.71027 74.224945 -0.58785594 10.263144
-101.83131 79.848724 -0.59583569 9.2795763
-101.86564 80.044136 -0.70651633 8.0325003
-101.80757 80.632713 -0.77645856 9.109333
-101.74706 80.975769 -0.6917451 8.7983332
-101.88213 81.242676 -0.43394783 9.1625004
-101.70405 81.833229 -0.74307072 8.0594997
-101.77883 82.571571 -0.70201135 8.8672953
-101.62477 61.397243 -0.17277057 11.0145
-101.80226 61.799259 -0.14809237 13.562541
-101.80515 62.14481 -0.10417755 11.556587
-101.801 62.544613 -0.15774742 9.7566233
-101.81677 62.831226 -0.17019014 12.788437
-101.62247 73.643784 -0.017059395 10
-101.63057 74.326126 -0.30817112 11.1185
-101.84188 79.882767 -0.22289158 10.084642
-101.90681 80.79882 -0.22391076 8.0480003
-101.82337 81.070938 -0.26075473 9.763917
-101.84291 81.379524 -0.13702273 9
-101.76894 82.188881 -0.087134317 9.1637497
-101.77641 82.607338 -0.28041145 9.9016113
-101.65668 82.844635 -0.076465212 8.0279999
-101.7551 60.360378 0.20702481 14.200107
-101.87284 60.859348 0.15739688 14.066
-101.82085 61.842827 0.074348137 13.058147
-101.7829 62.208961 0.22177443 12.18709
-101.75895 62.523991 0.14605314 11.4615
-101.75345 62.80616 0.075078607 14.0135
-101.61706 73.606461 0.048576411 13.1355
-101.80727 79.91433 0.1895279 10.753428
-101.80558 81.119514 0.25958276 10.5166
-101.82998 81.278168 0.20728098 10.508841
-101.79669 82.220253 0.26656234 9.9858503
-101.8041 82.520363 0.31480023 10.020088
-101.8322 62.17382 0.47755101 13.525274
-101.70375 62.415951 0.4928394 11.085
-101.92599 62.830132 0.49096337 11.698334
-101.86061 79.901222 0.52918673 11.65559
-101.72762 81.069405 0.59579146 11.1155
-101.72392 81.358788 0.53691286 9.5507994
-101.88686 82.082809 0.60569292 9.132
-101.84195 82.611115 0.59928048 11.0236
-101.75678 61.951138 1.1457393 12.379001
-101.84924 62.1763 1.0299793 13.210215
-101.93611 62.595505 1.1311593 14.008
-101.81705 81.317871 0.93340915 11.814
-101.78569 82.620003 1.0293874 11.896965
-101.93216 61.560806 1.5972031 9.1155005
-101.79825 61.798019 1.4509237 9.1149998
-101.81127 62.319778 1.2659575 14.0825
-101.92673 62.45475 1.242821 12.546249
-101.8145 81.351265 1.4123924 12.674108
-101.7886 82.366287 1.5500417 11
-101.77686 82.625755 1.4420943 11.87615
-101.64418 81.341713 1.685434 13.1195
-101.78223 82.644577 1.748685 12.610948
-101.81582 82.657623 2.2260373 13.337887
-101.71474 79.923874 2.7290051 12.156625
-101.74988 80.535263 2.6495359 12.120501
-101.80886 81.030975 2.6403582 12.1115
-101.87205 82.350182 2.7499673 12
-101.76199 82.631134 2.6092482 12.954834
-101.76074 79.922401 3.0094259 12.651875
-101.63313 80.062057 3.1607018 11.59325
-101.70673 80.727119 3.0993192 13.10725
-101.76637 81.132011 3.0753901 13.694071
-101.66758 81.225151 2.800209 13.1095
-101.92678 81.769646 3.0154986 9.0500002
-101.84308 82.676178 2.9843071 14.412675
-101.81203 79.933929 3.3505664 13.210084
-101.74751 80.018799 3.5378022 12.347
-101.8028 80.628624 3.4087291 13.6185
-101.83641 81.056175 3.3199949 13.995312
-101.60595 81.816246 3.2147124 9.0594997
-101.78269 82.685936 3.4207933 13.721769
-101.74737 79.958382 3.7912288 14.144
-101.84481 80.019577 3.8827887 13.796084
-101.70133 81.152946 3.6215978 11.17
-101.83111 81.242432 3.8354964 13.828667
-101.73792 81.70034 3.7996783 11.08175
-101.92412 82.153206 3.8060336 12.66475
-101.75235 82.615265 3.7716312 13.875907
-101.92209 79.997101 4.1709895 15.1275
-101.71939 80.038757 4.1314073 13.853643
-101.79378 81.441841 4.2897406 12.832334
-101.68616 81.962593 4.050837 12.166
-101.86991 82.29081 4.1041875 14.6585
-101.71912 82.483925 4.083293 13.12225
-101.68651 80.040565 4.460844 15.1085
-101.83268 81.420692 4.6798401 12.66095
-101.81934 82.734711 4.6974292 14
-101.85596 81.402931 4.9802084 14.144584
-101.8256 82.626556 5.1051679 14.555
-101.94675 82.837242 5.0247092 14.1085
-101.79885 82.644249 5.3502145 14.387166
-101.6721 82.838219 5.2425714 14.116
-101.86546 82.761337 5.7870827 15.041889
-101.79026 80.253242 6.3284278 15.12275
-101.84695 81.312874 6.2830348 15.115
-101.8749 82.534035 6.3310676 15
-101.84087 82.88121 6.2226977 15.1085
-101.85764 85.761909 6.2784519 13.14
-101.78455 80.984138 6.4375467 15.1265
-101.84156 81.212601 6.4451594 15.1305
-101.83241 82.634026 6.4910169 15
-101.91239 82.872925 6.5606017 15.123
-101.75383 79.982933 6.8125992 12.1725
-101.88792 80.002869 6.8758626 12.172
-101.69811 82.809273 6.9502182 12
-101.75852 80.156487 7.4828329 14.311666
-101.63037 80.721031 7.4646235 14.133
-101.67058 80.92041 7.4679394 14.1345
-101.81303 84.552689 7.435699 14.136
-101.61469 80.14016 7.9528904 15.168
-101.73601 82.170372 7.8883686 14.6675
-101.68229 81.515228 8.1855774 13.836333
-101.77806 82.57856 8.0781918 12.60225
-101.76449 81.394798 8.9924173 13.163
-101.67484 80.058411 10.622135 14.171666
-101.9568 81.938019 11.075133 11
-101.89767 81.596191 11.814603 12.129
-101.70294 82.541862 11.916483 15.1705
-101.90155 82.949295 12.169376 14.0375
-101.95622 81.979004 12.449461 12
-101.90006 81.994034 15.105403 12
-101.94112 82.029099 15.222047 12.0595
-101.75616 82.142921 15.87904 13
-101.76107 82.109871 16.34902 13
-101.74049 81.90728 16.76198 13.0585
-101.79148 82.090523 16.918356 13
-101.60304 79.362968 19.104582 14.011
-101.62007 79.673347 19.016514 14.0195
-101.8485 80.510864 19.195215 15.028
-101.8923 82.095512 19.185188 13
-101.90303 82.079071 19.285782 13.0595
-101.65489 83.382668 20.136534 14
-101.89073 81.280769 20.404877 14.162
-101.61064 83.361397 20.729376 14
-101.69271 82.163589 22.996872 14.05
-101.87512 82.204308 23.366276 14.02975
-101.77763 85.169304 23.781097 15.1385
-101.39962 61.890915 -3.2633402 5
-101.42244 62.326759 -3.4288433 5
-101.39805 62.775135 -3.4349277 5
-101.35522 63.21838 -3.4400451 5
-101.30895 63.663025 -3.4455669 5
-101.2308 64.114685 -3.2868352 3.6666667
-101.2337 64.547287 -3.2120602 3
-101.56356 65.08474 -3.4822309 5
-101.40295 66.225792 -3.2261488 2
-101.42442 66.602165 -3.2244036 1.4285715
-101.38725 66.972458 -3.3094101 2.8571429
-101.3371 67.350113 -3.2422168 0
-101.32745 67.795029 -3.3358779 2.6666667
-101.48378 68.295616 -3.2937748 3.5
-101.51073 68.680397 -3.3126922 5
-101.39198 69.108978 -3.4174628 5
-101.35851 69.39743 -3.3301604 5
-101.5569 70.752777 -3.3130145 5
-101.41481 71.08577 -3.3187501 5
-101.32486 71.430885 -3.3298905 5
-101.50584 72.178612 -3.219007 4
-101.58012 72.749809 -3.326333 5
-101.22938 73.811958 -3.2084081 6
-101.23325 74.353714 -3.2356718 6
-101.35023 74.667534 -3.2382019 5
-101.29287 75.025101 -3.2253723 4.6666665
-101.39156 75.986755 -3.295898 4.6666665
-101.55431 76.338585 -3.2238057 7
-101.44045 76.479958 -3.283783 6
-101.34157 77.046928 -3.2733343 4.25
-101.21021 77.534203 -3.2332132 4
-101.32089 60.098141 -2.9343901 6.5
-101.26976 61.052666 -2.9167986 2.5
-101.46651 61.423843 -2.9272158 2.5
-101.31728 61.868313 -2.9364655 2.4000001
-101.46152 62.168324 -3.0076339 3.7
-101.36304 62.647758 -3.0416169 1.6666666
-101.38278 63.021996 -3.0568449 2.5555556
-101.40953 63.424473 -3.0662861 2.1111112
-101.35343 63.853146 -3.0607772 1.8571428
-101.42757 64.180161 -3.0684645 2.375
-101.37715 64.631607 -3.0773983 1.5
-101.39658 65.033585 -3.0802221 1.5
-101.3342 65.40271 -3.0506582 1.75
-101.43998 65.813866 -3.1223104 1.125
-101.39583 66.208336 -3.1034834 1.4
-101.42847 66.590309 -3.0969377 1.75
-101.50027 66.960533 -3.1090477 1.75
-101.55367 67.296341 -3.1066127 3
-101.26657 67.886612 -3.1100976 3
-101.41541 68.271584 -3.0396984 2
-101.3997 68.59034 -3.0781238 2
-101.21104 68.917099 -3.1362278 1
-101.40283 69.427864 -3.0968275 2.5454545
-101.37665 69.640381 -3.0829263 3.3333333
-101.51743 70.17955 -3.1271877 4.3333335
-101.39568 70.524742 -3.0770378 0.5714286
-101.36385 70.981956 -3.08513 1.8461539
-101.41299 71.41552 -3.0847712 2.1818182
-101.50436 71.868362 -3.0778675 2
-101.36667 72.157555 -3.1045732 1.9090909
-101.30087 72.538498 -3.1106744 2.3333333
-101.37708 73.005165 -3.0913887 2.9230769
-101.40054 73.278572 -3.0887115 3
-101.34501 73.708626 -3.0907972 3.5
-101.36897 74.24939 -3.0911279 4
-101.41361 74.565025 -3.1175926 3
-101.39516 75.02993 -3.1123183 3.875
-101.52665 75.500534 -2.9865158 5.2222223
-101.48557 75.800613 -3.0384541 5.6363635
-101.45408 76.104439 -3.0327363 5
-101.47698 76.689369 -3.0651064 6.3333335
-101.34861 76.969727 -3.1195719 5
-101.4994 77.248909 -3.1635475 4
-101.29839 60.214233 -2.7677619 5.75
-101.48607 60.620834 -2.7174582 3
-101.53025 61.411335 -2.7886264 2.6666667
-101.4561 75.465889 -2.5047185 6
-101.48431 75.927048 -2.6226666 6.1666665
-101.41285 76.213509 -2.58111 6.8000002
-101.32124 76.897224 -2.6566026 6
-101.34979 80.854813 -2.6012714 6
-101.21499 60.129742 -2.3257263 7
-101.35365 73.664795 -2.0133779 8.1219997
-101.42476 74.237518 -2.022321 8.1225004
-101.41959 75.490509 -2.319911 6.1666665
-101.38194 75.794083 -2.2892098 6.090909
-101.49244 76.103752 -2.2250535 6
-101.36732 76.779724 -2.3558998 7
-101.37337 76.93885 -2.2615399 6
-101.59689 77.581543 -2.0855198 7
-101.43996 77.81147 -2.0922561 7
-101.56869 78.941139 -2.0075705 7
-101.56147 79.369057 -2.0228238 7
-101.49313 79.771667 -2.0655525 7.5611248
-101.4411 82.569588 -2.1267197 7.2797813
-101.26727 60.161816 -1.6693351 8.1099997
-101.35868 72.932297 -1.7054746 7
-101.26318 73.387276 -1.6677781 8.0742493
-101.2477 73.862 -1.6405059 8.0994997
-101.51086 74.172539 -1.9860468 8.1195002
-101.56717 77.86618 -1.9310511 7
-101.26331 79.819618 -1.9915667 8.1134996
-101.54859 80.993134 -1.9997252 8.1145
-101.52499 82.546806 -1.936375 8.1099997
-101.40405 72.783264 -1.3676739 9.1260004
-101.31644 73.013733 -1.449729 8.2134542
-101.34158 73.389862 -1.3478554 8.1443119
-101.29445 73.73262 -1.5445646 8
-101.30795 74.291519 -1.3679501 8.0834999
-101.53737 78.59111 -1.3887181 8.1564999
-101.52969 78.959908 -1.3967619 8.1555004
-101.59319 79.304398 -1.4123592 8.1529999
-101.4118 79.759956 -1.3980134 8.2159166
-101.56706 80.313454 -1.3649713 8.1285
-101.54343 81.099342 -1.208395 9.1289997
-101.34243 82.576515 -1.4579942 8.2681866
-101.44506 73.497093 -1.0278691 9.1646461
-101.36658 73.705803 -1.0178113 9.1307859
-101.23676 74.310501 -1.0939091 9.1265001
-101.28529 74.45533 -1.0431352 9.1155005
-101.39736 79.846992 -0.94066292 9.0167713
-101.59587 80.340492 -0.81031436 9.1514997
-101.40365 81.018608 -0.88116062 8.9835625
-101.42519 82.594826 -0.90183645 8.5786543
-101.50187 61.908218 -0.68518168 8.0037498
-101.48471 62.286224 -0.49379998 8.0030003
-101.29221 73.564316 -0.4457626 8.1225004
-101.38634 73.810547 -0.68121821 9.7179899
-101.40884 74.213219 -0.43932635 11.044541
-101.40945 79.90657 -0.56700057 9.5104256
-101.45741 80.181427 -0.64049971 8.1304998
-101.44241 80.49971 -0.58253086 8.1344995
-101.41036 81.020271 -0.51237762 8.1576662
-101.33413 82.60379 -0.68071353 8.8335495
-101.36861 61.421711 -0.15543391 13.117857
-101.44022 61.85519 -0.20134957 13.127214
-101.45101 62.165844 -0.17115137 11.033834
-101.48048 62.424858 -0.28777578 8.0030003
-101.39992 73.528595 -0.099687174 11.402535
-101.46966 73.632812 -0.073079444 10.63975
-101.45738 74.268646 -0.33435643 10.689
-101.35513 79.91954 -0.32908151 9.9535913
-101.36944 81.071548 -0.36451039 10.11025
-101.45994 81.528595 -0.31464231 8
-101.39494 82.601456 -0.25827551 9.8696814
-101.40123 60.357132 0.17793071 13.989922
-101.38303 61.073536 0.0346325 15.058249
-101.33985 61.415031 0.11493303 14.718167
-101.35255 61.899277 0.1187347 14.364229
-101.42137 62.204437 0.16840996 12.389558
-101.29582 62.494484 0.19141324 10.306429
-101.32994 73.593643 0.038578216 13.1345
-101.35912 73.658875 0.12271737 11.993484
-101.40088 79.933121 0.14102641 10.937948
-101.51974 81.119179 0.1669963 10.723451
-101.40701 81.298386 0.27092126 10.677437
-101.47855 81.835289 0.11540062 8.6372499
-101.26818 82.306366 0.34444278 10.1065
-101.36164 82.563065 0.24491239 10.3544
-101.36623 62.341721 0.4882338 12.400126
-101.34601 62.584824 0.50050563 11.0391
-101.33504 81.355171 0.65258002 10.422833
-101.3912 82.227715 0.5777002 8.0264997
-101.32045 82.649933 0.46140012 10.251929
-101.58146 61.929779 1.1952586 15.0795
-101.41611 62.273884 0.94141376 11.705501
-101.33155 62.555843 0.91859269 13.021209
-101.47441 62.957447 1.0543256 12.086
-101.52351 81.345093 0.84776479 12.07125
-101.37548 82.644051 0.98980558 11.718125
-101.39366 61.878761 1.4187521 9.1151667
-101.48942 62.041481 1.3479129 14.082
-101.49517 81.359039 1.4912866 13.13625
-101.40467 82.632637 1.5133466 11.839441
-101.56566 61.062042 1.6873465 9.1184998
-101.48604 81.351288 1.6288586 13.138667
-101.43047 82.658867 1.7362212 12.888911
-101.28757 79.914436 2.3956158 12.164
-101.39552 82.673805 2.2273788 13.57597
-101.35064 79.911743 2.6074884 12.39725
-101.3159 80.001801 2.5977981 12.107501
-101.43126 80.537903 2.6116629 12.107166
-101.43235 81.099274 2.6132772 12.319851
-101.49974 82.369675 2.7771285 12
-101.38449 82.651176 2.6035984 12.803476
-101.45775 79.941124 3.0020101 13.639282
-101.49909 80.231377 3.0406928 12.841
-101.36118 80.671577 3.0081491 14.1129
-101.41512 81.13755 2.9987457 13.747125
-101.58094 81.91291 3.0081952 9
-101.3851 82.69902 2.9883344 14.124371
-101.44438 79.961136 3.3268754 14.572644
-101.34408 80.027061 3.4733799 13.386312
-101.39736 81.14669 3.2752001 12.496666
-101.49133 81.411919 3.498312 11.0815
-101.4466 81.639946 3.5995762 9
-101.43459 82.710335 3.3998797 13.713307
-101.47226 80.0299 3.8001101 13.801999
-101.39681 81.17379 3.9062076 11.834332
-101.42886 81.358612 3.8221543 12.11925
-101.34666 81.729858 3.6236789 9
-101.35712 82.385918 3.9560854 13
-101.39238 82.651062 3.7906513 13.04645
-101.30803 80.051857 4.1767826 15.11
-101.45319 81.367508 4.2274737 14.493917
-101.35928 81.912415 4.1364679 11.502334
-101.41264 82.170441 4.2384372 14.110572
-101.38676 82.573021 4.1166878 13.313449
-101.44905 81.481255 4.6385856 13.720857
-101.37585 82.517448 4.4905119 13.151375
-101.40772 81.498734 5.1290631 15.108
-101.43783 82.614792 5.0128474 13.5335
-101.36695 81.483864 5.4997673 15.107
-101.32066 82.604309 5.3258057 14
-101.3299 82.802025 5.6812859 15.108
-101.58932 80.079079 6.2929082 15.12175
-101.26709 80.996681 6.3444419 15.1145
-101.23607 81.318794 6.205646 15.109
-101.45882 82.576729 6.3312941 15
-101.58154 82.80307 6.2630301 13.1375
-101.49506 80.033997 6.618968 14.168
-101.31372 80.797714 6.4965167 15.13
-101.56654 81.009026 6.4200664 15.1215
-101.38691 82.658775 6.5656214 15
-101.53663 82.894821 6.5128479 15.116
-101.45496 80.048119 6.9152284 13.835834
-101.20755 80.602524 7.179553 15.128
-101.37398 81.20182 7.1795735 15.1285
-101.55475 81.861092 7.1174479 10.02975
-101.5735 82.018692 6.9449615 10
-101.4187 79.996536 7.2588596 14.128
-101.34357 80.091255 7.3219023 15.167
-101.24219 81.266708 7.3589191 14.1685
-101.23131 81.775444 7.48943 10
-101.52356 82.781898 7.5956693 15.165
-101.55054 80.097008 7.6971684 15.1675
-101.44593 81.322372 7.7582979 13.836166
-101.41306 82.680931 7.8735847 15.1655
-101.58964 80.09758 8.1816702 15.1685
-101.39495 81.981384 8.0810928 14.1695
-101.32639 82.203735 8.1432819 13.835834
-101.3838 82.742584 8.1020012 15.166
-101.40031 82.857109 8.0776777 12.0345
-101.49971 81.525146 8.9740953 14.1705
-101.51685 82.072968 10.89792 11
-101.27325 80.352982 11.30039 13.032
-101.52646 81.415367 11.807186 15.171
-101.59307 81.622353 12.039008 12.1315
-101.28621 82.109261 12.290748 15.1705
-101.40054 83.013611 12.363277 14.037
-101.40772 81.848633 12.53578 13.357166
-101.22541 82.756088 12.659472 14.035
-101.50317 81.515572 12.986313 15.166
-101.32263 82.194588 15.933311 13.0695
-101.40417 82.083694 16.291407 13.045166
-101.37596 83.253273 16.127184 13
-101.35056 83.052055 16.588045 13.693667
-101.48598 81.971016 16.832975 13.167
-101.44392 82.109032 16.910044 13
-101.4066 82.129402 19.079184 13.0285
-101.423 81.915565 19.482807 13.1595
-101.42738 82.223038 19.453924 13.4285
-101.24673 82.233162 19.920116 14
-101.28053 81.965523 20.276972 14.123
-101.23276 83.381889 20.141232 14.1355
-101.43648 82.185905 20.433844 14.13
-101.4004 79.208908 22.885273 15.176
-101.33907 82.254395 23.110552 14.057
-101.40985 82.216301 23.318727 14
-101.40064 83.799149 23.454401 15.139
-101.22176 82.253563 24.095968 15.112
-101.25607 83.664268 24.377056 15.13
-101.49821 82.028366 24.520506 15.039
-101.12278 67.368843 -3.8203993 6
-100.92683 60.805958 -3.2742729 5
-101.11819 61.585152 -3.2994485 5
-101.07722 62.185852 -3.3912838 5
-100.9069 62.650124 -3.3524833 5.5
-100.90479 63.115303 -3.3534713 5.5
-100.8848 63.602959 -3.415452 5
-101.0265 64.010315 -3.3103545 6
-101.18053 64.541176 -3.4553432 5
-101.14771 64.977089 -3.2941594 3.6666667
-101.16908 65.314316 -3.2169724 3
-100.89473 66.588188 -3.2152524 2
-100.90317 66.999313 -3.2894948 3.3333333
-101.12009 67.290314 -3.3328958 4
-101.06355 67.735062 -3.3513846 4
-101.01907 68.243896 -3.3121154 2.5999999
-101.17235 68.72319 -3.4314473 5
-100.97814 69.399605 -3.3635886 4.6666665
-101.04985 69.712158 -3.3184087 5
-100.88016 71.44709 -3.2078168 4
-101.10365 71.734459 -3.3287439 5
-100.89584 72.041267 -3.3293877 5
-100.9978 72.65844 -3.2125475 4
-101.06127 73.380165 -3.2109449 5.5
-100.97964 74.701164 -3.2063539 4
-100.90322 74.937698 -3.2253416 4.3333335
-100.97471 75.313492 -3.2189968 4.1999998
-101.16977 76.324104 -3.2591271 4
-100.90262 76.586067 -3.2464364 4.6666665
-101.00361 77.079796 -3.2468448 4
-101.00889 77.342026 -3.222235 4
-101.0048 60.603672 -2.9173036 4
-101.01606 61.005367 -3.0426526 5.3333335
-101.04909 61.452362 -3.0286627 3.2
-100.9482 62.171257 -3.0075395 2.1538463
-101.05659 62.53323 -3.1200495 2.2
-101.01613 62.912712 -3.1211102 3
-101.04688 63.315136 -3.1262302 3
-100.9301 63.781582 -3.1404593 2.4285715
-100.86396 64.340515 -3.1049519 2.3333333
-100.88108 64.706032 -3.1116188 2.3333333
-100.88649 65.065338 -3.1132901 2.3333333
-100.92844 65.563347 -3.0294998 3
-100.91102 65.856964 -3.1381974 2.3333333
-100.92574 66.194534 -3.1498194 2.3333333
-101.01125 66.663361 -3.0717282 3
-101.06409 67.048409 -3.0863507 3
-101.13793 67.384155 -3.0958238 3
-101.19258 67.638359 -3.1044402 3
-101.04141 68.29306 -3.0821412 3.2
-101.02347 68.601334 -3.0803361 4.75
-101.0134 68.954071 -3.1091003 4.6666665
-101.10156 69.390816 -3.0965135 5.1999998
-101.03999 69.889343 -3.127887 3.5999999
-100.97898 70.235817 -3.026159 3.125
-101.05419 70.624809 -3.0811012 2.1428571
-101.02404 71.013092 -3.0968118 1.3076923
-100.98544 71.330971 -3.1103158 1
-101.02235 71.81691 -3.1035151 1.7142857
-100.97053 72.17128 -3.1140525 1
-100.97249 72.612259 -3.1064625 3
-100.9635 72.967834 -3.0704882 2.6666667
-100.91955 73.479454 -2.9881005 3.9565217
-101.00999 73.721245 -2.9859912 3.5384614
-101.08032 74.279388 -3.0984542 3.4000001
-100.97474 74.593864 -3.0972688 3.5714285
-101.09404 75.110329 -3.1506033 3.3333333
-101.13167 76.240852 -3.1198888 5.1999998
-100.84734 76.737091 -2.9706788 5
-100.99229 76.971878 -3.0823634 4.9444447
-100.95811 77.397636 -3.1553192 4.2857141
-100.911 60.309067 -2.5180199 2.8965516
-100.90608 60.437584 -2.5891416 2.4736843
-100.97665 60.944805 -2.7385752 6
-100.95116 61.42268 -2.7845261 3
-101.01581 71.458687 -2.7215717 7
-100.91051 73.54554 -2.5873711 4.8000002
-100.92218 73.727165 -2.62095 5.5
-100.86971 76.814224 -2.6372414 6.3333335
-100.95403 60.302296 -2.2020426 4.9075904
-100.87888 60.429039 -2.1825268 4.3666668
-101.00958 73.059982 -2.029506 7.56075
-100.88805 73.541679 -2.2028883 5.6935687
-100.91306 73.753952 -2.2499287 6.125
-100.94891 76.919067 -2.2924898 6
-100.92108 77.407806 -2.2534177 6.25
-101.02464 77.811813 -2.1451168 7
-100.94238 78.030128 -2.026129 7
-101.06583 80.642578 -2.1073821 8.1217499
-101.05589 82.567482 -2.1343451 7
-100.97068 60.308788 -1.8068341 6.0950041
-100.96291 60.464092 -1.7581789 5.9258752
-101.04077 72.999062 -1.7646359 7.3789473
-100.89716 73.511276 -1.7782046 7.1538463
-100.9274 73.746292 -1.7868204 7.2553844
-101.03236 74.304649 -1.9297028 8.1125002
-101.19946 74.556625 -1.866359 8.1059999
-100.99209 60.300861 -1.3277128 7.3786669
-100.90065 60.465057 -1.3547968 7.1039042
-101.01778 73.088516 -1.4495838 8.0835562
-100.9627 73.393135 -1.4214035 8.0461178
-101.00027 73.7258 -1.4857446 8.1758337
-100.93066 74.648766 -1.5051873 8.1170006
-100.90646 75.020782 -1.3698282 7.775167
-100.93327 79.864822 -1.4810189 8.0339804
-101.04977 80.621284 -1.3797715 8.63025
-100.85295 81.052902 -1.5162522 8.1295004
-101.01234 82.608063 -1.4546775 8.1115847
-101.00109 60.339668 -1.1042807 8.0458384
-100.89938 60.487114 -1.0244784 8.1039076
-100.92328 61.010117 -0.93991572 8.0108128
-100.94311 61.235813 -0.82858163 8.5609999
-100.87989 73.194138 -0.85686082 9.1617498
-100.9683 73.435135 -1.0074437 9.3346672
-101.02644 73.710358 -0.99701488 9.3706903
-101.17059 74.207542 -1.0725563 9.1213331
-100.95273 79.906189 -0.93321157 9.0436134
-100.92477 80.030449 -0.93196535 8.0384998
-101.03145 81.08432 -0.88618684 9.1470003
-101.14737 81.756844 -0.8908233 8.0284996
-101.10764 82.605583 -0.8537066 9.0938749
-101.04784 82.867203 -0.96502101 8
-101.02754 60.280575 -0.51894349 9.070466
-100.91565 60.480831 -0.56632131 9.1857262
-100.91454 61.08823 -0.56656462 9.7752142
-100.94398 61.271557 -0.50810015 9.3830833
-100.93298 73.154381 -0.59587085 10.675722
-100.89902 73.291489 -0.66895938 10.284587
-101.01746 73.744888 -0.64725155 9.8932066
-101.10728 74.108192 -0.59563982 10.232334
-101.01266 79.921471 -0.60777205 9.2980642
-100.83355 80.026421 -0.75607049 8.1295004
-100.99855 80.641533 -0.7292617 8.1292496
-100.88084 81.102959 -0.57393891 8.1709995
-101.02045 82.636475 -0.6071049 8.5377855
-101.06106 82.829674 -0.45727062 8.0299997
-100.98389 60.279671 -0.29365823 9.6359882
-100.88519 60.536888 -0.22633822 10.115641
-100.86895 61.119717 -0.25610498 11.531334
-100.92146 61.433926 -0.17017935 13.618344
-100.98443 61.842037 -0.1630466 13.496682
-100.94575 62.068657 -0.14028585 13.382084
-101.12651 62.671982 -0.10893706 8.0030003
-100.99905 72.724617 -0.065229066 8.1300001
-100.95876 73.016922 -0.087986633 8.1300001
-100.95161 73.495934 -0.14204109 10.974401
-100.9817 73.690552 -0.24742164 11.380281
-100.92528 74.059853 -0.094303653 11.7199
-100.94118 79.933502 -0.29525265 9.7967272
-100.97937 81.107109 -0.28818327 10.134501
-101.19136 81.517494 -0.39292026 8
-101.02511 82.622131 -0.29608095 10.015134
-100.98774 60.2873 0.13277309 12.824716
-100.94517 60.575943 0.095610552 11.264626
-100.98816 61.878502 0.098591693 12.700331
-101.03989 62.177216 0.2072463 12.516974
-101.01359 62.487026 0.20236641 10.793751
-100.90311 62.82489 0.12286497 14.013
-100.86908 72.797508 0.28365535 10.1705
-100.93807 73.077194 0.24492177 10.555572
-100.91771 73.448715 0.15879115 12.485928
-101.03595 73.655556 0.13426019 12.562641
-100.8863 74.09845 0.29726788 10
-101.04086 79.943451 0.083251499 10.801143
-100.87625 80.002098 0.055998426 10.128
-101.0321 81.318085 0.24412467 10.142167
-101.02059 81.800888 0.3170068 8.1555004
-101.00303 82.277145 0.28049701 9.3326006
-101.01064 82.600266 0.27260935 10.55703
-101.03221 82.840508 0.17195001 8.0279999
-100.99955 62.159592 0.55245888 12.844053
-101.06762 62.530571 0.52946401 11.983651
-100.91343 73.040802 0.53821701 13.910583
-100.88802 73.310471 0.49491566 12.088388
-101.04493 81.325981 0.6428026 11.308751
-100.84959 81.623032 0.75445575 8.0249996
-101.02974 82.258148 0.4167321 9.6241245
-100.90656 82.552155 0.67196798 9.8944006
-100.94109 61.997391 1.0702144 11.0855
-100.97227 62.24847 1.0680159 13.026305
-100.93832 62.473343 1.0350815 12.260301
-100.99982 81.358391 0.8953104 11.945807
-100.97551 81.853516 0.89632595 9.0843334
-100.86034 82.297836 0.81869692 9.5130005
-100.96918 82.652252 0.98983878 11.650455
-100.96581 61.907581 1.4118644 12.426333
-100.96503 62.295662 1.2066848 12.599625
-100.866 80.02697 1.5236285 11.124
-100.95708 81.423126 1.4450433 12.496858
-100.99268 82.668564 1.5132611 11.976455
-100.97701 81.363899 1.9031436 14.135834
-101.01073 82.686882 1.7467437 12.515675
-101.09739 79.912163 2.3523674 11.1665
-101.05243 81.156174 2.3660171 12.1065
-100.98341 82.693283 2.2254415 13.331429
-100.99157 79.949196 2.6226015 13.636806
-100.97875 80.10041 2.5765178 12.1173
-101.11084 80.614456 2.7259545 12.774166
-100.95663 81.116852 2.5608158 14.166391
-101.07979 82.713959 2.6371975 13.263201
-100.95274 79.964745 2.9136348 14.589454
-101.07092 80.033577 3.1012273 13.1435
-101.16653 80.628807 2.8424666 15.12
-101.04587 81.104118 2.9271283 12.886998
-101.10751 81.83287 3.0354934 9.0190001
-101.04133 82.708725 2.9218073 14.127319
-100.95033 79.968971 3.3377247 10.5815
-100.95889 80.06279 3.3431346 12.890057
-100.90363 80.622589 3.2883086 11.1285
-101.12414 80.873642 3.2603731 11.131
-101.08114 81.238068 3.5705526 12.452666
-101.01871 81.695488 3.5139098 9
-101.05857 82.721664 3.4460855 13.708301
-101.14204 82.891579 3.4845529 9.026
-101.0713 80.075188 3.7356789 13.486187
-101.18783 81.162163 3.6902447 14.1605
-100.95918 82.710846 3.8057184 14.23245
-100.91004 82.914505 3.7609658 10
-101.04173 80.028168 4.0187335 14.1065
-100.97334 81.392906 4.2345338 12.831944
-101.11394 81.918526 4.2660451 12.6655
-101.01174 82.61969 4.239759 13.606199
-100.99682 81.428352 4.4970021 14.88625
-100.94806 82.196541 4.5247407 12.664001
-101.00932 82.532791 4.5373583 15.052834
-101.12685 81.167053 4.8771148 11.1495
-101.01278 81.528481 4.9893374 14.13625
-100.83274 81.902802 4.9319224 12
-100.98978 82.117989 4.9034176 12.066999
-100.87011 82.617363 5.0187402 11.51875
-101.04246 82.846489 5.1940923 14.11
-101.04693 81.431686 5.2904377 13.821167
-101.07792 82.535759 5.2200952 14
-100.93804 82.861229 5.3537779 14.11925
-101.19596 82.791008 5.883307 15.1075
-100.92676 80.12011 6.218832 15.128001
-100.92522 80.607491 6.2935243 13.1325
-100.91702 80.886528 6.3161955 14.1235
-101.02963 81.350075 6.250989 15.114625
-101.15513 82.755402 6.2782836 15.134
-100.94035 82.831757 6.1507673 14.6906
-100.9078 80.029564 6.6239009 13.169833
-100.97546 80.410416 6.4947371 15.132
-101.09215 81.020897 6.5269165 15.1325
-101.02229 82.625137 6.5861945 14
-100.90878 82.876488 6.6089444 14.470301
-101.13428 79.996117 6.9901171 14.14925
-101.19726 81.4002 6.9834104 10.1095
-101.06741 81.903603 7.0101566 10.0285
-101.16824 82.08609 6.9337068 10
-101.11303 82.757545 7.0930595 13.1695
-101.17101 82.85006 6.8700538 12
-101.01078 80.274368 7.2866068 14.1305
-101.03964 80.642776 7.3263683 14.1285
-101.19001 81.294693 7.455832 14.169
-101.02493 81.745026 7.4487014 10
-101.05672 82.81945 7.6186686 13.17
-101.13376 81.325569 8.0338192 12.0345
-101.10408 81.932236 8.1931133 15.167
-100.91205 82.156929 8.3572693 13.67
-101.14096 82.651512 8.1622496 14.667749
-100.9411 81.86425 8.4701118 13.1705
-100.88567 82.026947 8.5465345 13.171
-101.05801 82.539055 8.4193172 13.168
-100.82292 82.62851 8.914443 11.5285
-100.89062 80.114601 10.237514 14.1715
-101.19531 80.050774 10.54653 14.172
-100.96249 81.599327 10.992356 11
-101.05388 81.962807 11.086505 11
-101.09372 82.105011 10.878424 11
-100.92419 82.889496 11.028985 15.17
-100.89104 81.838768 11.399719 11
-101.01571 80.43354 11.672201 13.0315
-100.84926 81.659309 11.715335 13.031
-100.96367 82.924683 12.050004 15.17
-100.86236 83.54998 12.378055 12
-101.15945 81.520363 12.544094 15.1685
-101.00217 81.748543 12.574178 14.603251
-101.03465 82.242882 12.44006 12.059999
-100.9073 82.587593 12.469578 15.16925
-100.96503 82.879539 12.622396 14.035
-100.90982 83.462204 12.614148 12
-101.08584 83.728432 12.635475 12.118
-100.99632 83.427399 12.980855 12.067249
-100.84823 84.252144 13.111434 11.0235
-100.9999 80.254128 14.984278 15.0355
-100.90911 81.659058 14.995293 12
-101.04395 82.09948 15.109924 12
-101.02617 82.154099 15.898976 13
-101.09591 82.057419 16.173634 13
-101.02547 83.492363 16.589487 13.05725
-100.80772 84.789482 16.680254 13
-101.10535 81.9002 16.808372 15.031
-100.97471 82.173233 16.853012 14.01525
-100.96157 82.486443 16.911186 13.1615
-100.90793 82.878319 16.851244 15.0305
-100.96372 83.970932 17.251272 12.1585
-100.85762 84.249794 17.229876 12.1585
-101.01183 82.149895 19.111759 13
-101.09961 80.64386 19.263988 14.0255
-100.97413 82.100174 19.206633 13
-100.83891 83.53299 19.591324 14
-100.80162 83.979294 19.255795 13.159
-100.90106 82.215538 19.902899 14
-101.09516 83.498856 19.77581 14
-101.11136 81.667252 20.16235 13.1585
-101.12981 82.268059 20.240641 14.1375
-101.1545 83.956497 20.317316 14.1145
-101.08485 81.851463 20.51532 14.036
-101.10777 83.124428 20.567659 15.026
-100.80586 83.388733 20.453186 14.1315
-100.94041 82.326729 23.321095 14.048333
-100.98022 82.44474 23.498415 14.1455
-100.6694 60.049728 -3.2462113 5
-100.45883 60.515678 -3.2323623 5
-100.78806 62.145287 -3.2882993 6
-100.44316 65.939423 -3.2050974 1
-100.42753 66.359352 -3.2205489 1
-100.78996 67.553909 -3.2521701 2
-100.71676 67.927147 -3.2656567 2
-100.57697 68.278168 -3.3076386 2.8333333
-100.45842 69.88118 -3.4212327 5
-100.70765 70.196129 -3.3124559 5
-100.6664 70.736427 -3.335175 5
-100.58282 71.079002 -3.3455479 5
-100.6778 71.756317 -3.2123427 4
-100.47549 72.766365 -3.2294297 6
-100.50464 74.217606 -3.2888756 5
-100.44804 74.650192 -3.2625077 5.6666665
-100.56453 75.052132 -3.242264 5
-100.57117 75.560806 -3.2319176 5
-100.59961 75.950447 -3.2937334 5.6666665
-100.45617 76.489586 -3.2417774 4
-100.48779 77.036346 -3.2787986 4.6666665
-100.58143 77.389259 -3.2502232 4
-100.68736 60.333363 -2.913775 3.6363637
-100.69169 60.514713 -3.0497622 4.6666665
-100.70239 60.982643 -2.9424062 4.6666665
-100.52525 61.430588 -2.9457774 3.8333333
-100.53214 61.771915 -2.9492862 4.5
-100.59736 62.137444 -3.0108294 2.4166667
-100.53919 62.987476 -3.1402967 1
-100.62394 63.392139 -3.1429164 1
-100.5629 63.974461 -3.1439984 0
-100.52618 64.337547 -3.1630702 0.5
-100.55633 64.761993 -3.1679833 0.5
-100.51001 65.036171 -3.1466594 2
-100.47881 65.421593 -3.1072142 5
-100.41608 65.713768 -3.151484 2.5
-100.423 67.306313 -3.1229274 4
-100.46308 67.812347 -3.1592469 2.3333333
-100.56522 68.263069 -3.1167114 2.5
-100.55606 68.53923 -3.1040108 2.8
-100.50983 69.017929 -3.1256592 2.2857144
-100.65744 69.430916 -3.1112895 4
-100.63658 69.787788 -3.0526907 4.1999998
-100.62496 70.218475 -3.0896652 2.25
-100.64346 70.715454 -3.1120629 1.8888888
-100.55201 71.034645 -3.1078198 0.8888889
-100.59557 71.346359 -3.1203947 0.71428573
-100.60686 71.796082 -3.1059251 1.8181819
-100.55367 72.191154 -3.1064267 2.8
-100.63825 72.602264 -3.0977483 2.4000001
-100.54494 73.019699 -3.1117573 3.0999999
-100.61958 73.465591 -2.9845545 3.9333332
-100.62117 73.668823 -2.954155 4.1666665
-100.52983 74.260994 -3.0647807 3.6666667
-100.54552 74.707954 -3.1317229 3.2
