# .PCD v0.7 - Point Cloud Data file format
VERSION 0.7
FIELDS x y z intensity
SIZE 4 4 4 4
TYPE F F F F
COUNT 1 1 1 1
WIDTH 1254
HEIGHT 1
VIEWPOINT 0 0 0 1 0 0 0
POINTS 1254
DATA ascii
-55.353306 -51.000206 -0.05956031 4
-55.381779 -50.669853 -0.063298032 2.5
-55.323112 -50.088909 -0.085018747 2.6666667
-55.398342 -49.780788 -0.1107637 4.1999998
-55.420773 -49.420143 -0.092037357 3
-55.41399 -48.995499 -0.11238328 2
-55.541321 -48.496838 -0.12874563 3.6666667
-55.495655 -48.260574 -0.18076514 4.2720003
-55.533524 -47.731503 -0.22810818 4.6666665
-55.396931 -47.37468 -0.21121459 4.0107498
-55.230019 -47.052139 -0.2016212 3
-55.394058 -46.712791 -0.21419957 2.5999999
-55.517017 -46.175159 -0.23160233 5.6167998
-55.243561 -45.94561 -0.22338395 3
-55.449768 -45.365173 -0.23235966 2.5
-55.463848 -45.032608 -0.28962192 4
-55.412735 -44.685833 -0.17414851 4.0111108
-55.303112 -43.841793 -0.39845061 2
-55.397449 -42.895706 -0.23114875 4.03125
-55.495296 -42.770866 -0.013875497 4
-55.401649 -59.716476 0.33762008 3.4000001
-55.381596 -59.463646 0.3653048 2.5
-55.423214 -59.023678 0.31420147 3.75
-55.37648 -58.63892 0.30746236 3.7
-55.434837 -58.239361 0.32988033 3.6666667
-55.389538 -57.853142 0.30635881 3
-55.428543 -57.358723 0.278918 3.7142856
-55.434654 -57.040623 0.28103793 3.7777777
-55.382278 -56.618347 0.24049819 3.875
-55.457798 -56.205685 0.28822228 3.6410255
-55.380547 -55.774693 0.1873357 3.6666667
-55.464607 -55.420769 0.22265656 3.4545455
-55.472233 -55.030174 0.21479973 3.96875
-55.462444 -54.647289 0.18096155 3.46875
-55.526703 -54.20779 0.24093634 3.1632652
-55.521751 -53.748356 0.19313434 3.6333334
-55.470905 -53.383472 0.1701466 3.3636363
-55.480244 -53.069672 0.11199158 3.5999999
-55.519821 -52.642418 0.15984896 3.2156863
-55.557602 -52.250854 0.19041283 3.4285715
-55.533501 -51.763149 0.22426236 3.7333333
-55.577877 -51.352627 0.19477031 6.5395002
-55.599083 -50.88372 0.29635164 5
-55.516636 -50.688232 0.073148571 3.5
-55.563881 -50.137192 0.10797491 5
-55.579659 -46.394043 0.39156806 6
-55.587234 -45.9095 0.34872496 6
-55.589016 -45.43837 0.30712664 6
-55.399727 -44.871834 0.080623709 6
-55.403812 -44.677048 0.13010588 4.2307692
-55.406887 -42.867016 0.13490596 3.2222221
-55.413254 -42.779686 0.078346521 4.5
-55.371254 -34.470539 0.39746371 5
-55.366215 -34.202866 0.25891212 4.4000001
-55.457741 -33.855934 0.2847285 4.5
-55.427654 -33.396683 0.25386953 4.75
-55.509674 -33.172268 0.20897231 5
-55.393814 -32.620277 0.21417767 4.25
-55.372173 -32.221367 0.15025885 4
-55.471508 -31.784388 0.15646936 4
-55.373203 -31.546829 0.19793501 4
-55.388664 -30.214464 0.10873506 3
-55.556889 -59.658333 0.63136691 3.6363637
-55.460667 -59.414375 0.63400108 3.0833335
-55.440506 -58.990078 0.58705521 3.5961537
-55.447392 -58.611919 0.60256398 3.6350877
-55.451107 -58.243103 0.65430021 3.9210527
-55.463608 -57.781231 0.58870912 3.3888891
-55.478909 -57.339359 0.61767727 3.714875
-55.481468 -56.996754 0.57704878 2.6722221
-55.498516 -56.634609 0.6222747 3.25
-55.510563 -56.211285 0.67159277 2.7
-55.517319 -55.840328 0.67773837 2.8888891
-55.518623 -55.329376 0.65056998 3.3836579
-55.545666 -55.007866 0.67391807 2.873651
-55.548344 -54.581932 0.66902995 3.0744843
-55.542946 -54.258175 0.66353315 2.9837964
-55.568218 -53.773533 0.65944505 2.6047618
-55.575211 -53.38575 0.68047351 3.0091047
-55.574036 -52.98415 0.64170092 2.8769231
-55.585361 -52.579323 0.61107194 3.6616163
-55.590137 -52.291954 0.63239884 4.0694442
-55.586277 -51.896366 0.54827976 4.8333335
-55.597008 -51.532711 0.46630904 0
-55.42448 -50.625469 0.65083247 6.5
-55.549091 -50.221504 0.75575906 6
-55.582745 -49.75341 0.74097645 6
-55.561863 -49.455074 0.68822855 6
-55.562672 -49.105614 0.62568462 6.5
-55.549232 -48.491531 0.56756878 6.5
-55.549294 -48.142334 0.54606479 6
-55.565155 -47.70089 0.50696027 6
-55.567238 -47.29557 0.47121838 6
-55.571686 -46.862576 0.43299115 6
-55.499016 -46.744217 0.50134337 7
-55.524269 -46.294865 0.49712062 7
-55.462761 -44.847168 0.48399851 7
-55.454544 -44.670666 0.5404883 6
-55.206764 -42.689095 0.76941967 6
-55.424877 -42.316864 0.76958197 6
-55.383453 -41.870121 0.70415109 5.5
-55.538815 -41.465668 0.64439213 5
-55.361065 -40.986492 0.63681269 5.1999998
-55.355991 -40.125248 0.566172 5
-55.405575 -39.952942 0.58396053 5
-55.304882 -39.109329 0.68340802 6
-55.261921 -38.483562 0.62834322 6
-55.463249 -38.087456 0.5397774 5
-55.397579 -37.675068 0.53307176 5
-55.37384 -37.416874 0.52583408 5.3333335
-55.528122 -36.227528 0.49463254 5.6666665
-55.216316 -35.813965 0.48991963 6
-55.552078 -59.657349 1.0285636 2.531884
-55.494644 -59.452488 0.99966383 3.3979716
-55.454243 -58.983997 0.95876396 3.9537499
-55.46262 -58.620781 1.0036148 4.6473198
-55.467339 -58.21542 1.0108156 4.2719049
-55.468353 -57.81403 0.9677459 3.4521739
-55.48344 -57.375484 0.9752093 3.0972221
-55.490551 -57.008804 0.96905357 3.2227273
-55.500999 -56.543217 0.95916712 3.0595238
-55.517132 -56.212498 0.9746995 3.3711903
-55.52655 -55.817692 0.96159399 2.6961038
-55.530174 -55.402836 0.96268564 3.5839999
-55.554943 -55.001888 1.0000702 3.9227552
-55.549591 -54.601234 0.91451031 3.7100694
-55.555611 -54.263046 0.93719339 4.1309524
-55.565681 -53.766651 0.91671354 3.8055556
-55.575645 -53.368599 0.89346886 3.8333333
-55.574471 -53.004158 0.92427611 4.5
-55.569511 -52.532043 0.93266302 5.625
-55.584911 -52.255428 1.0231503 5.0064096
-55.546486 -51.832886 0.93184382 6
-55.55027 -51.401993 0.88409019 6
-55.531448 -51.041618 0.82799667 6
-55.571815 -50.70155 0.8319487 6
-55.572403 -46.378105 1.18002 7
-55.581093 -45.886497 1.153565 7
-55.588821 -45.380787 1.1263548 7
-55.564014 -45.076618 0.90340638 8.0115004
-55.553242 -42.75317 1.0134087 6
-55.550156 -59.65176 1.3953785 4.948276
-55.516315 -59.458256 1.4210895 5.4316058
-55.474182 -58.994446 1.3577235 5.6115508
-55.50124 -58.603199 1.3595889 5.7838459
-55.550728 -58.209793 1.3651567 4.8727274
-55.553017 -57.791828 1.374119 4.9157596
-55.572395 -57.394329 1.3785465 5.1111112
-55.576881 -56.928108 1.3421603 5.0149126
-55.584187 -56.567196 1.4126322 5.538095
-55.586487 -56.328606 1.3912468 5.4911108
-55.593842 -55.776436 1.2776314 5.5
-55.590153 -55.335304 1.3846153 5.0625
-55.565422 -52.556313 1.5169427 7
-55.58503 -52.239906 1.4349931 6.5530305
-55.563004 -51.857773 1.4359645 6.7857141
-55.561325 -51.375961 1.4591929 7
-55.538681 -51.033352 1.4322592 7
-55.567963 -50.557903 1.4074892 7
-55.546959 -50.190498 1.3872997 7
-55.532848 -49.822723 1.5374898 7.75
-55.545361 -49.297161 1.4783725 7.5999999
-55.59539 -48.863354 1.3181975 7
-55.552517 -48.650211 1.4820393 7.75
-55.560852 -48.133564 1.4708343 7.822
-55.585033 -47.665379 1.4157172 7.6666665
-55.573963 -47.401249 1.4051569 7.7011666
-55.579323 -46.928741 1.3388144 7.5
-55.495003 -46.41217 1.4481037 8
-55.361778 -45.92025 1.3291416 8.0872498
-55.566364 -44.987541 1.4297022 7.5
-55.28434 -44.648888 1.4129375 6
-55.44796 -42.814278 1.2171781 6
-55.556519 -59.652977 1.8133333 6.5
-55.510002 -59.423 1.7779026 6.5881538
-55.4687 -58.980236 1.7955706 7.0191026
-55.497673 -58.595798 1.8466341 7.2630243
-55.551334 -58.25576 1.7918365 6.837676
-55.563797 -57.775066 1.741503 6.7458329
-55.564991 -57.376217 1.7959006 7.233108
-55.575462 -57.02248 1.7558274 7.0045886
-55.577007 -56.613079 1.8251821 7.4404473
-55.570477 -56.307205 1.8323066 7.5902462
-55.582104 -55.735271 1.8369728 7.8600831
-55.566044 -55.378235 1.8870032 8.178072
-55.599392 -55.122536 1.8614936 8.0754995
-55.527424 -54.597115 1.8411559 8.0522499
-55.595394 -54.366123 1.8474262 8.25
-55.587086 -52.208118 1.794535 8.1874466
-55.553326 -51.840691 1.8041388 8.2363634
-55.550877 -51.389576 1.9811718 8.2721252
-55.485062 -51.016674 1.7151845 8.0221004
-55.520538 -50.469685 1.7111579 8
-55.548515 -50.14114 1.8604189 8.034667
-55.58762 -49.854385 1.9781348 8
-55.585423 -49.444412 1.982891 8
-55.53632 -48.97686 1.8690706 8.6948328
-55.559399 -48.444763 1.8966161 8.5
-55.564945 -48.224346 1.8444488 9.0293341
-55.559956 -47.892414 1.9311579 8.5
-55.545513 -47.420555 1.8916782 8.5
-55.560349 -47.143715 1.9001795 8.5430002
-55.568035 -46.626595 1.9716005 8
-55.563526 -46.144321 1.8085017 8.6946669
-55.577835 -45.687447 1.9534752 8
-55.586681 -45.16721 1.9434394 8
-55.56332 -59.640446 2.2002788 8.5
-55.501457 -59.433464 2.1709743 8.3817997
-55.45631 -58.997555 2.113749 8.2714281
-55.49316 -58.634567 2.1604393 8.5930996
-55.544209 -58.21817 2.0871778 8.2901907
-55.55302 -57.761806 2.0807691 8.1071424
-55.558811 -57.375465 2.0616868 8.3893604
-55.53685 -57.04393 2.1243496 8.0053997
-55.564793 -56.578453 2.1009598 8.3550558
-55.585514 -56.260277 2.0368898 8.1719294
-55.585876 -55.82663 2.0727394 8.0061255
-55.597225 -55.359497 2.0664434 8.0057507
-55.5359 -52.513142 2.0395377 8
-55.583221 -52.200211 2.2103455 10.010822
-55.564316 -51.863159 2.1323283 9.1625004
-55.547939 -51.363194 2.0641329 8.5395002
-55.533119 -51.029427 2.0285668 8
-55.558685 -50.527184 2.0755563 8.3596668
-55.521439 -50.100517 2.0388474 8
-55.5257 -49.44302 2.0260942 8
-55.528511 -49.094337 2.0193367 8
-55.54427 -48.309967 2.0041449 8
-55.582726 -46.880661 2.3962262 9
-55.411499 -46.238609 2.2835374 8.5292501
-55.506348 -45.800678 2.3529899 9
-55.545666 -44.921299 2.2844672 9
-55.212132 -34.984566 2.1919084 6
-55.479729 -34.00074 2.2116027 6
-55.560673 -59.627129 2.5934424 10.294118
-55.51194 -59.428757 2.6078317 10.004587
-55.45784 -58.979191 2.5732737 9.715909
-55.490471 -58.608139 2.568367 10.032258
-55.490376 -58.381081 2.5510781 10.5
-55.528919 -52.459484 2.5829737 9
-55.580959 -52.20013 2.5973551 11.285125
-55.571957 -51.828068 2.6136544 11.082231
-55.554741 -51.465874 2.6208558 10.498015
-55.507103 -50.960716 2.6522031 9
-55.516453 -50.67477 2.650948 9.0276251
-55.522854 -50.249596 2.642061 9.0115557
-55.484451 -49.731785 2.5994282 8.666667
-55.487705 -49.297066 2.6183429 8.333333
-55.542595 -49.077789 2.5995343 9
-55.554314 -48.593376 2.5741117 9
-55.565727 -48.118519 2.5484593 9
-55.535587 -47.915195 2.5879035 9.0366669
-55.577213 -47.429291 2.4968801 9.0207005
-55.56506 -47.007156 2.7430429 9
-55.569828 -46.562565 2.7497449 9
-55.57513 -46.098007 2.7567637 9
-55.579338 -45.621338 2.7639732 9
-55.587154 -45.104973 2.7718155 9
-55.546787 -59.627705 3.0212898 11.531875
-55.510303 -59.428097 3.0147343 11.545027
-55.459225 -58.999897 2.9920967 10.968393
-55.491814 -58.60693 2.9831667 11.148026
-55.483437 -58.362339 2.9873183 12.25
-55.56778 -52.465103 3.0355179 10
-55.571884 -52.191559 2.9782133 12.303398
-55.58617 -51.814007 3.0151918 12.023016
-55.583107 -51.415497 3.0489271 11.036646
-55.564991 -50.982048 3.1257536 10
-55.558723 -50.473103 3.1989162 10
-55.582298 -50.22295 3.1372356 10
-55.424774 -45.444569 3.0841274 8.0815001
-55.390797 -44.869267 3.1612461 8
-55.480885 -43.351948 3.1997986 7
-55.562809 -59.617611 3.3486612 14.5
-55.500175 -59.394314 3.3917975 12.745793
-55.459633 -58.961517 3.3827744 11.562401
-55.484428 -58.586472 3.3759656 11.635593
-55.494259 -58.351891 3.4020026 12.8
-55.524296 -52.440727 3.3808069 10.5
-55.571655 -52.196663 3.3988395 12.409838
-55.581348 -51.80069 3.4477296 12.688334
-55.571896 -51.475685 3.3844647 12.537037
-55.547844 -51.009357 3.4430254 10.5
-55.505062 -50.703323 3.3258064 10
-55.531612 -50.173374 3.3056252 10
-55.542267 -49.787476 3.3012946 10
-55.540283 -49.470474 3.4124689 10
-55.530754 -48.936104 3.455503 10
-55.54348 -48.517612 3.4479506 10
-55.550175 -48.307384 3.4139931 10
-55.543198 -47.860916 3.4572031 10.022
-55.57056 -47.383289 3.3864639 10
-55.582268 -46.980015 3.3804283 10.025875
-55.457264 -46.581375 3.2857559 8.5161247
-55.521751 -46.194225 3.3948743 9.2076006
-55.502861 -45.72113 3.2806594 10
-55.395943 -45.383133 3.4169381 7.9356537
-55.410423 -44.864037 3.3375213 8
-55.338207 -43.336605 3.2694411 7
-55.508213 -59.397015 3.8004069 12.0748
-55.458073 -58.995937 3.7986627 12.701361
-55.495922 -58.590549 3.7988083 12.224787
-55.514771 -58.37994 3.7852979 13.666667
-55.556507 -52.451126 3.791857 11.5
-55.555977 -52.172661 3.7994514 13
-55.580032 -51.821663 3.8051577 13.5
-55.52824 -51.415886 3.8328698 11.633334
-55.542652 -50.992798 3.7546146 11
-55.481583 -50.6618 3.7928874 10.444358
-55.510273 -50.207104 3.7551193 10.5
-55.537807 -49.845921 3.7839503 10.701333
-55.508251 -49.396881 3.8265178 10.521125
-55.515137 -48.989845 3.881393 10
-55.585239 -48.796371 3.9372313 11
-55.534321 -48.334751 3.8942003 10.333333
-55.5648 -47.932499 3.8137395 10
-55.512268 -47.202816 3.7755432 10
-55.577057 -46.75235 3.7564948 10
-55.450951 -46.127209 3.7311587 9.3508329
-55.522808 -45.902012 3.6897752 10.084
-55.437313 -45.255329 3.8749187 7.1111112
-55.502834 -45.034485 3.7444723 8.5
-55.507519 -59.392151 4.2070441 12.104278
-55.459816 -58.979794 4.1794968 12.95535
-55.497421 -58.563019 4.2016058 12.29165
-55.499947 -58.39592 4.2075038 11.8
-55.549805 -52.443745 4.1763129 12.333333
-55.562252 -52.181973 4.2009611 12.6039
-55.574196 -51.781006 4.2357068 12.875
-55.5877 -51.404274 4.2117929 12.969696
-55.565243 -51.028507 4.2315779 12.166667
-55.578072 -50.612137 4.2398634 11.2
-55.556484 -50.250256 4.1672454 11.666667
-55.544785 -49.808525 4.1974678 11.5
-55.550537 -49.448875 4.2336574 11.5
-55.522655 -49.000954 4.1080747 11
-55.529507 -48.617996 4.1401758 11
-55.535675 -48.224991 4.1731324 11
-55.551563 -47.797417 4.3201976 11
-55.575718 -47.377941 4.2614045 11
-55.553059 -47.073006 4.2973356 11
-55.53067 -46.575481 4.3002071 11
-55.545979 -46.096355 4.2663689 11
-55.500648 -45.620594 4.207098 11
-55.505802 -45.062939 4.1083388 9.666667
-55.512203 -59.376148 4.6233439 11.133956
-55.461212 -58.971245 4.5929112 13.004392
-55.490021 -58.550205 4.5819068 11.600944
-55.471661 -58.380844 4.5713029 11.251562
-55.552513 -52.419212 4.5795245 13
-55.551929 -52.170105 4.5583663 13.714286
-55.569168 -51.823212 4.5939345 13.6
-55.574242 -51.402996 4.6176081 13.625
-55.529594 -51.027885 4.7115149 12.666667
-55.505341 -50.692867 4.7118778 11.75
-55.511135 -50.142204 4.577909 11.6
-55.494957 -49.829266 4.6412258 11.666667
-55.52898 -49.407562 4.5790472 11.571428
-55.513313 -49.012409 4.5535946 11.4
-55.473377 -48.684971 4.6039267 11.333333
-55.527184 -48.235538 4.5362039 11.333333
-55.55056 -47.676521 4.6777277 11.555
-55.508209 -47.467808 4.6310992 11.5
-55.440166 -47.063461 4.4198852 11
-55.347744 -45.295326 4.6812 8.0804996
-55.442467 -45.05685 4.6361666 8.0483332
-55.599701 -44.549446 4.6703129 10
-55.228783 -59.760963 5.1226373 8
-55.497952 -59.364765 4.9596391 11.213223
-55.475937 -58.996136 5.0345225 12.9035
-55.505367 -58.578335 4.9987593 12.818182
-55.513664 -58.360504 4.9925013 12.285714
-55.298672 -53.038826 5.1267347 8.0749998
-55.551243 -52.422077 5.0190735 14
-55.530113 -52.226688 4.9589109 13.098863
-55.538357 -51.758583 5.0168486 13.4375
-55.503159 -51.332199 4.9721704 12.714286
-55.478275 -51.01775 4.9314685 13
-55.476093 -50.518967 4.8907905 12.2
-55.503811 -50.208538 4.9983888 12.370167
-55.481777 -49.820415 4.9633298 12.333333
-55.571831 -49.50869 5.0836072 13
-55.553795 -48.968803 4.9509821 12.5
-55.51952 -48.275551 4.8966093 12
-55.524418 -47.875893 4.9440012 12
-55.531059 -47.452553 4.9942789 12
-55.541046 -46.995747 5.048645 12
-55.575768 -46.60421 5.1734362 12
-55.594257 -46.125931 5.0860538 12
-55.49799 -45.300201 4.9286494 9
-55.418594 -45.152664 4.9618635 8.392909
-55.556042 -44.764107 4.9990096 12
-55.256805 -59.71035 5.2136111 8.1000004
-55.492863 -59.323563 5.4061942 12.432589
-55.450764 -58.990154 5.4221692 13.098272
-55.47567 -58.59795 5.3620844 13.692307
-55.540779 -58.359097 5.3951197 11.893375
-55.549374 -57.708138 5.5350194 8.1569996
-55.233067 -52.998569 5.4063001 8.5405006
-55.545204 -52.19009 5.3474069 13.647546
-55.587009 -51.831108 5.4086032 14.2
-55.563282 -51.457897 5.3742919 13.6
-55.547131 -51.034283 5.4194908 12.625299
-55.559692 -50.642284 5.3936934 13.428572
-55.528805 -50.244465 5.373457 12.333333
-55.538033 -49.773941 5.4920125 13.5
-55.53421 -49.290035 5.3326783 13
-55.542553 -48.953274 5.4443521 12.5
-55.528988 -48.654514 5.4784741 12.666667
-55.533047 -48.222328 5.4305558 12.333333
-55.540199 -47.738731 5.4012771 11.4024
-55.533192 -47.390785 5.3055387 12
-55.499142 -47.054504 5.3362389 12
-55.467369 -46.513565 5.317955 12
-55.488369 -46.040527 5.2315631 12
-55.596569 -45.789951 5.5830965 11
-55.579079 -45.289909 5.5528493 10.04125
-55.422886 -45.046135 5.4225669 8.5593634
-55.532097 -44.659119 5.519443 9.8063002
-55.484123 -59.317059 5.8426566 12.823529
-55.436485 -58.928356 5.8143373 13.680833
-55.459049 -58.579731 5.8281713 12.636364
-55.533981 -58.381359 5.8160481 12.444445
-55.271351 -53.070885 5.7279787 9.0113754
-55.254078 -52.754601 5.6383715 9
-55.508167 -52.220097 5.7289295 13.917545
-55.555222 -51.821159 5.7549624 13.857142
-55.534054 -51.382652 5.8765235 13.875
-55.566742 -51.052135 5.8847995 14.166667
-55.513359 -50.582962 5.8343458 13.428572
-55.535686 -50.111115 5.7648773 13.25
-55.46291 -49.73877 5.8592229 12.25
-55.528316 -49.415047 5.7240696 12.5
-55.494984 -49.04052 5.8278332 12
-55.515598 -48.682613 5.8121772 13.333333
-55.507133 -48.231773 5.7811232 11.7775
-55.544258 -47.851433 5.7616897 11.666667
-55.559872 -47.381401 5.7148514 10.669833
-55.498062 -47.000595 5.8366318 10.77275
-55.562656 -46.709511 5.7061634 11
-55.580227 -46.220287 5.652307 10.25175
-55.465199 -45.832664 5.7368951 10.5305
-55.599041 -45.529648 5.8924422 13
-55.422222 -45.12508 5.7955718 8.8846149
-55.564838 -44.644272 5.763895 12
-55.451138 -59.319908 6.1870165 12.285714
-55.480141 -59.064522 6.2408853 13.166667
-55.481968 -58.544537 6.1990809 12.4
-55.453091 -58.342651 6.134985 10.8054
-55.324463 -52.540497 6.3347192 11.085
-55.430695 -52.260075 6.2172976 13.6
-55.486519 -51.820648 6.1932464 13.428572
-55.538475 -51.395947 6.0799265 13.510062
-55.39027 -50.965458 6.1821389 13.036834
-55.545387 -50.588455 6.126647 15
-55.451832 -50.148575 6.1588326 12.870286
-55.562225 -49.842205 6.1320009 12.4509
-55.475193 -49.344078 6.1023202 12.54225
-55.546333 -49.015411 6.3040686 14.5
-55.506065 -48.608036 6.3099375 14
-55.486359 -48.23774 6.2577281 12.400701
-55.57616 -47.786308 6.1890135 13.5
-55.565865 -47.331463 6.2046318 13
-55.527351 -46.990841 6.2837949 13.333333
-55.5881 -46.669273 6.0597744 13
-55.453632 -46.363926 6.2765636 13
-55.472099 -45.87878 6.1705713 13
-55.497959 -45.459354 6.0792899 13
-55.453442 -45.082699 6.1486583 9.5628004
-55.42981 -59.31031 6.6007481 12.769231
-55.466053 -59.03791 6.5753574 12.307693
-55.479527 -58.546623 6.5752621 11.858071
-55.52562 -58.331703 6.574944 13.222222
-55.233143 -53.002583 6.6013279 10
-55.204803 -52.737648 6.4974818 10
-55.49184 -52.210236 6.5629897 13.009
-55.54076 -51.701614 6.5902395 11.096
-55.557751 -51.372551 6.6086841 13.218401
-55.473301 -50.939892 6.5276885 15
-55.568638 -50.616089 6.7188759 13.75
-55.503342 -49.914375 6.6576614 14
-55.530235 -49.434685 6.573648 13.666667
-55.52243 -49.011414 6.5543442 13.5
-55.501495 -48.605297 6.5957818 14
-55.537109 -48.164536 6.5897655 14
-55.457291 -47.867542 6.5394063 13.5
-55.470501 -47.384342 6.5199075 13.5
-55.529301 -46.972229 6.6193438 14
-55.59013 -45.392929 6.7871184 14
-55.447403 -45.06963 6.6587205 10.012417
-55.454247 -59.280506 6.9761109 11.752812
-55.499214 -59.103344 6.9952288 12
-55.405449 -58.590355 6.9018998 12.7945
-55.575188 -58.327393 7.0767617 12.5
-55.510315 -54.169884 7.1803541 12.1205
-55.507759 -53.545898 7.1595054 12.1255
-55.515675 -52.217167 6.9575763 14
-55.561665 -51.894745 7.0156817 12
-55.535149 -51.356056 6.9675488 13.5
-55.538403 -51.049946 6.9035673 13.25
-55.454922 -50.5452 6.9088883 13
-55.293186 -50.24044 7.1251636 13
-55.414513 -49.675335 6.8731956 13.666667
-55.494167 -49.308762 6.8928566 15
-55.340553 -49.004864 6.8542328 13
-55.49921 -48.769535 7.0138006 15
-55.507763 -48.205635 7.140564 15
-55.549477 -47.833599 6.8394542 14.37
-55.571014 -47.053684 7.0807033 14.25
-55.592419 -46.622562 7.0140553 14.333333
-55.557354 -46.340523 7.028522 14
-55.518314 -45.793861 7.0109229 14
-55.487015 -45.306095 7.0087433 14
-55.412258 -45.006939 7.0139375 10.2324
-55.413994 -59.292759 7.3329539 12.4103
-55.46508 -59.120735 7.4135199 13.666667
-55.469799 -58.559235 7.4296775 12.75
-55.491982 -58.32177 7.424304 12.079
-55.59845 -56.759056 7.5628524 12
-55.448376 -54.881359 7.3680525 12.12525
-55.535995 -54.059265 7.4099197 12.1275
-55.246525 -52.910915 7.3664551 10.358167
-55.45966 -52.214687 7.4019423 14.714286
-55.361355 -51.721764 7.2482991 13
-55.23597 -51.534859 7.4091115 13
-55.266083 -50.881748 7.2658348 13
-55.520706 -50.658031 7.5335231 14.370167
-55.509483 -48.608799 7.5092006 14
-55.547134 -48.166115 7.3472514 14
-55.532677 -47.730297 7.2667084 14.25
-55.480038 -47.323772 7.3703389 14.333333
-55.526974 -46.931 7.4275751 15
-55.431183 -46.749615 7.37641 14
-55.522163 -46.282936 7.4217405 13
-55.316647 -45.410065 7.2808084 10.277375
-55.439079 -45.035603 7.364615 9.6574497
-55.576351 -44.456543 7.3913813 13
-55.208687 -59.768673 7.8799124 11
-55.443439 -59.356098 7.8803086 11.670501
-55.365868 -59.089256 7.8755145 13.4
-55.353325 -58.621979 7.7815599 12.0371
-55.492577 -58.252335 7.795393 12
-55.448963 -57.860363 7.949151 12
-55.491959 -57.525375 7.8550568 13.531875
-55.388714 -57.011353 7.7832146 13.10475
-55.41367 -56.669678 7.7938657 13.032499
-55.528919 -56.131371 7.7253289 12.07125
-55.502796 -55.364998 7.8513913 13.753501
-55.403427 -55.126774 7.8322687 13.087833
-55.460209 -54.552494 7.8955379 14.091749
-55.311638 -53.674881 7.8878222 13.1045
-55.538719 -53.573063 7.759675 15.028
-55.508984 -52.662392 7.6850672 15
-55.582623 -52.223679 7.7618179 15.088
-55.587051 -51.879662 7.9036503 11
-55.583828 -51.459785 7.8898706 13
-55.576435 -50.972607 7.7403936 11.0345
-55.510796 -50.448086 7.9377689 13
-55.466713 -49.753979 7.8018365 14
-55.507973 -49.262897 7.6274238 14
-55.469131 -48.968494 7.876636 13
-55.577976 -48.419937 7.8643608 12
-55.481945 -48.319431 7.7902222 12
-55.509453 -47.852356 7.77985 13.0275
-55.536758 -47.206688 7.781354 12
-55.51693 -46.601116 7.8797088 12.75125
-55.577805 -46.243019 7.8173456 13.5
-55.476635 -45.75745 7.8510723 11.018666
-55.456039 -45.37492 7.8433275 11.4104
-55.416492 -45.006176 7.7387962 10.476191
-55.417404 -44.698444 7.7019386 10.666667
-55.438747 -59.768402 8.2039394 12.644899
-55.479729 -59.441658 8.1942282 12.686889
-55.541924 -59.121735 8.1747093 12.4
-55.491131 -58.574337 8.1543293 12.333333
-55.458874 -58.346905 8.0949116 13
-55.441204 -57.831268 8.1609306 13.5
-55.444878 -57.466309 8.105011 14.0445
-55.438034 -57.162277 8.386941 15.0875
-55.378048 -54.20657 8.1345072 14.099501
-55.528961 -53.199654 8.3463945 15.0885
-55.214905 -52.799355 8.3408718 12
-55.457783 -52.059074 8.1380892 13.123
-55.568474 -51.852554 8.2349377 12.2
-55.516605 -51.379501 8.2137508 12.781625
-55.485836 -50.951767 8.11098 13.2
-55.423588 -50.619289 8.2388592 13.5
-55.429619 -50.165672 8.0889339 13.666667
-55.531948 -49.673073 8.0297756 12
-55.433372 -49.509331 8.0413189 13
-55.546791 -48.084061 8.3423214 15
-55.546852 -47.452763 8.2150698 15
-55.578075 -47.071228 8.0462294 15
-55.482735 -46.699406 8.2528114 15
-55.447109 -46.137684 8.2318058 15
-55.465839 -45.661057 8.0928373 15
-55.544304 -45.305492 8.275588 15.1095
-55.439251 -45.032288 8.2492876 11.395124
-55.580029 -59.935013 8.5026064 13.0845
-55.430176 -59.416023 8.5685072 13.083
-55.3508 -58.532356 8.7005558 14.024125
-55.503471 -58.271034 8.6817379 12
-55.416466 -57.721523 8.5581446 14.333333
-55.442657 -56.988617 8.6361618 15.088
-55.52676 -54.532108 8.4449739 15.0885
-55.441078 -53.709244 8.4449482 13.1205
-55.224602 -51.314075 8.5418901 14
-55.361515 -50.531387 8.5815878 14.1105
-55.491631 -49.100536 8.6970291 15
-55.52906 -48.629066 8.5017433 15
-55.479233 -48.365997 8.5969143 15
-55.444073 -47.749748 8.5596361 15
-55.410076 -47.159733 8.5302048 15
-55.409653 -44.949814 8.5676432 12.11555
-55.470215 -44.597252 8.5460405 12.5
-55.559391 -44.383667 8.6716022 14
-55.362587 -59.746933 8.8680906 15.0875
-55.368103 -59.338989 9.0329542 15.088
-55.381992 -58.825806 9.1567583 11
-55.453762 -58.2337 8.9884768 11.646714
-55.400978 -57.767056 9.0747576 11.5
-55.459255 -57.458443 8.9555635 11
-55.414013 -56.980614 9.0793724 12.066626
-55.536682 -55.891632 9.036705 12.0615
-55.46508 -54.579418 8.9657021 12.0625
-55.527252 -53.231377 9.1993027 12.0385
-55.589748 -51.748966 9.0425091 12
-55.547806 -51.573166 9.152915 12.0345
-55.47134 -50.402046 9.0209455 15
-55.408943 -50.133598 9.11411 15
-55.491573 -49.788048 8.8410559 15
-55.371422 -49.421589 9.0483112 15
-55.563728 -49.186424 8.8519049 14.1245
-55.340977 -48.787193 9.0056829 15
-55.367584 -48.243256 8.8468037 15
-55.471027 -47.685394 8.968133 15.11
-55.585873 -46.409592 9.0845146 15.119
-55.44595 -44.944664 9.0459061 10.952381
-55.506504 -44.782963 8.9336872 10
-55.359146 -59.944527 9.4769993 13.04425
-55.354408 -59.518135 9.3148298 11
-55.42984 -58.981056 9.4197226 12.367
-55.357525 -58.738842 9.2783346 11
-55.508453 -58.205303 9.4802704 13.433858
-55.482548 -56.884693 9.4886103 13.350125
-55.585419 -56.697777 9.3934603 15.089
-55.540157 -53.356518 9.5267162 12
-55.527889 -52.879944 9.4561901 12.035
-55.539501 -52.65004 9.3385344 12.01775
-55.574421 -52.095085 9.4840126 12.678333
-55.546482 -51.805729 9.4529266 12.8246
-55.537491 -51.440838 9.4313393 13
-55.536758 -51.0406 9.3691006 13.732356
-55.398682 -50.684795 9.4326925 14.666667
-55.578568 -50.240204 9.3564949 14
-55.435966 -49.829571 9.2858238 14.5
-55.594612 -49.232796 9.5601234 11
-55.420467 -44.93502 9.3574276 11.833333
-55.531738 -44.384293 9.3625851 15
-55.565834 -59.801575 9.7850075 14.0845
-55.429371 -59.36219 9.8984308 14.083
-55.49654 -58.605789 9.7532997 13.04175
-55.380447 -58.233524 9.6511946 13.375999
-55.518929 -57.954205 9.713253 14
-55.536198 -52.234901 9.6491213 14.1265
-55.359783 -51.861809 9.8307724 14.5
-55.47184 -51.300552 9.7790995 12.75
-55.583073 -50.642937 9.8754768 12
-55.514439 -50.202888 9.708868 12.370167
-55.595459 -49.604263 9.602397 11
-55.583496 -49.338005 9.8007898 13.0355
-55.579346 -48.896652 9.8934727 13.017
-55.531948 -48.264118 9.8677645 12.333333
-55.575008 -47.888924 9.81499 13
-55.521591 -47.115791 9.7949409 13
-55.550579 -46.523781 9.772584 13.042
-55.556107 -46.07542 9.625515 13
-55.412201 -44.913239 9.8466034 11.913851
-55.377956 -44.68536 9.8634834 11.296822
-55.530373 -44.352921 9.6559143 15
-55.450809 -59.558678 10.099159 13.079
-55.374542 -59.077057 10.096003 15.0895
-55.526371 -58.608471 10.222646 14.039249
-55.459229 -58.199471 10.22832 12
-55.252934 -57.72298 10.142521 15.0875
-55.558311 -56.842167 10.06048 12.038
-55.541588 -56.699776 10.207516 12.01875
-55.461563 -55.024849 10.227638 14.1235
-55.471935 -54.513283 10.215056 14.127
-55.561298 -51.757236 10.269499 13.019751
-55.568722 -51.425522 10.3577 13.07975
-55.531063 -50.943615 10.256841 13.706666
-55.591156 -50.578144 10.224201 13
-55.588699 -50.220486 10.290117 13.0265
-55.508636 -49.479149 10.160281 13.028167
-55.548336 -49.062702 10.054417 14.06225
-55.226738 -46.352638 10.132174 11.0215
-55.401684 -44.892544 10.176271 13.270124
-55.367012 -44.732647 10.128245 12.857699
-55.581944 -59.897804 10.792463 11.077
-55.379948 -58.93866 10.758292 12
-55.386234 -58.524712 10.614183 12
-55.4659 -58.183594 10.558324 12
-55.540737 -57.810184 10.60772 13.4
-55.39341 -57.021461 10.598921 14.0605
-55.345276 -56.201889 10.615532 14.126
-55.225922 -53.625858 10.70279 15.111
-55.540562 -53.331131 10.794789 13.036
-55.425022 -52.537651 10.662606 13.01775
-55.520496 -51.801735 10.635775 13.53925
-55.55426 -51.355156 10.564403 13.00575
-55.569447 -50.960274 10.602295 13.531625
-55.566483 -50.647732 10.555029 13
-55.581284 -50.093765 10.488626 13
-55.558147 -49.866261 10.594066 14.362167
-55.597687 -49.303253 10.445881 15
-55.59639 -48.813652 10.437547 14
-55.412483 -44.874409 10.514704 13.663751
-55.418106 -44.708344 10.626472 11.631101
-55.343475 -59.800751 10.998482 12
-55.357147 -59.574608 10.981351 12
-55.380054 -58.849251 10.846882 12
-55.466465 -58.514633 10.99727 14.28825
-55.475918 -58.23291 11.102062 14
-55.42799 -57.949451 11.110663 14.064
-55.472759 -57.560436 10.931198 14
-55.400799 -57.04969 10.848101 14.1275
-55.487915 -56.6334 11.199471 13.0395
-55.27557 -53.341084 10.927144 15.117
-55.367214 -52.62801 11.142204 15.1165
-55.531509 -52.161053 10.899974 13.035
-55.552853 -51.813541 10.951094 14.2
-55.546906 -51.364941 10.930735 14.022125
-55.552853 -51.10907 10.879175 14
-55.571957 -50.5783 11.130266 14
-55.575428 -49.774158 11.151169 14
-55.564796 -49.416359 10.982216 14.01775
-55.596382 -49.149734 11.028411 14
-55.567623 -48.746181 11.032516 14.034
-55.230186 -45.316517 11.155521 10.333333
-55.386066 -44.869938 10.979481 12.357142
-55.34481 -59.771202 11.307245 14.104
-55.350864 -59.304657 11.326215 14.60475
-55.294022 -59.148163 11.314964 14.5925
-55.452477 -58.557629 11.52377 13.911583
-55.426277 -58.268341 11.479967 13.509875
-55.440903 -56.587662 11.564839 13.0375
-55.534184 -54.166695 11.209657 11.076
-55.528091 -53.792297 11.304586 13.1005
-55.40659 -52.401375 11.33634 15.1145
-55.528152 -51.790894 11.476532 14
-55.512341 -51.593235 11.519586 14
-55.532249 -50.983559 11.547012 14
-55.54958 -50.587082 11.232152 14
-55.568352 -50.214211 11.482763 14
-55.584335 -49.758091 11.499617 14
-55.59259 -49.369762 11.500516 14
-55.59465 -48.983105 11.383595 13
-55.59507 -48.622955 11.546459 14
-55.592537 -48.275665 11.451847 14
-55.587353 -46.244278 11.556471 14
-55.293484 -45.400902 11.354195 10
-55.407394 -44.842941 11.408105 14.142858
-55.408173 -44.789883 11.412881 14.440666
-55.440056 -59.543594 11.926968 14.079
-55.450443 -58.635994 11.803871 13.539249
-55.358093 -58.090668 11.88377 13
-55.399063 -57.765842 11.91653 13
-55.402187 -57.403984 11.904303 13
-55.41534 -57.142143 11.929528 13
-55.489983 -56.620575 11.794283 13.009
-55.531799 -55.756142 11.9049 13.09725
-55.4482 -53.0839 11.847478 14.0385
-55.427197 -52.658028 11.988306 14.036
-55.428406 -52.304947 11.922787 14.0355
-55.517391 -51.656364 11.863045 14.017
-55.511616 -51.422153 11.787584 14.0115
-55.536701 -51.088261 11.83892 14
-55.552116 -50.619331 11.780404 14
-55.559418 -50.1791 11.702185 14
-55.568386 -49.674404 11.648692 14
-55.580292 -49.319489 11.734135 14
-55.590794 -48.761806 11.934381 15
-55.56591 -48.356892 11.92957 14
-55.558849 -47.797325 11.88833 14
-55.584885 -47.397305 11.679983 14.51825
-55.531803 -47.097565 11.843315 14
-55.544285 -46.574505 11.740072 14
-55.542458 -46.356434 11.894118 14.084
-55.337486 -45.307537 11.660159 10
-55.304779 -44.836388 11.85871 12.333333
-55.501659 -44.66787 11.733829 15.1555
-55.474964 -44.339325 11.97955 11
-55.346378 -58.609318 12.270003 13
-55.349991 -58.093468 12.204801 13
-55.436779 -57.903908 12.221542 14.0175
-55.374088 -57.533333 12.095679 13
-55.405273 -53.789993 12.201475 12.074
-55.485626 -52.645348 12.238878 14.017
-55.502052 -51.771404 12.157745 14
-55.553795 -51.308823 12.075548 14.0395
-55.559399 -49.798862 12.233812 14.53975
-55.524765 -49.418003 12.213046 14.345166
-55.551895 -49.011818 12.144341 14.333333
-55.539112 -48.679558 12.192399 14.678
-55.58252 -46.870682 12.212495 14.086
-55.358356 -46.35001 12.326327 11.0095
-55.207668 -45.965157 12.317761 11.005
-55.451515 -44.87236 12.072045 12
-55.394409 -44.613811 12.177633 11.894737
-55.309929 -59.628811 12.530953 13
-55.30645 -59.46349 12.593969 13
-55.388931 -58.634426 12.500272 13.707001
-55.44384 -58.361603 12.669882 15.124
-55.210934 -57.704742 12.594908 15
-55.281914 -57.406288 12.660226 13.538
-55.553375 -55.333351 12.759481 14.0795
-55.347939 -55.033207 12.505201 14.038
-55.545792 -54.078335 12.566069 14.0795
-55.467289 -53.733147 12.6333 14.0505
-55.446793 -53.298779 12.406345 14.0345
-55.565533 -51.402664 12.497561 14.07975
-55.522465 -50.638714 12.541644 15
-55.545284 -50.347076 12.587921 14.540751
-55.563148 -49.678551 12.588881 15
-55.54578 -49.299782 12.620227 14.694833
-55.588284 -49.015587 12.655284 15
-55.598305 -48.49926 12.58028 14.084499
-55.394344 -44.68763 12.549596 12.859082
-55.339596 -59.773972 13.063855 15.104
-55.378639 -59.257004 13.019162 15.101
-55.277367 -59.150406 12.998689 15.1265
-55.540699 -58.745228 13.060261 13.08025
-55.362175 -58.159706 13.0341 15.064
-55.414185 -56.849407 13.123072 14.08
-55.381199 -56.548126 13.09214 14.036751
-55.56192 -55.71534 12.849154 15.078
-55.531952 -53.681892 12.928465 15.128
-55.483803 -52.950878 12.846829 14.08
-55.396534 -52.425362 13.140014 12.0745
-55.472961 -51.644238 12.981957 15.012333
-55.460735 -51.414604 13.156822 15.0345
-55.512947 -51.044804 13.073375 14.696167
-55.539303 -50.714806 13.094861 14.08475
-55.553581 -50.185074 12.96151 15.0085
-55.466923 -49.742912 12.908235 13.670001
-55.567696 -49.283497 12.897679 15
-55.578785 -48.849415 12.883991 13.1695
-55.590122 -47.348774 13.017381 13
-55.408276 -44.965649 12.936453 12
-55.35857 -44.721771 12.914032 12
-55.590927 -58.691299 13.396206 15.0835
-55.355743 -58.103737 13.470258 14
-55.527756 -57.6008 13.313656 15.0785
-55.312107 -57.051498 13.34168 15.158
-55.483498 -56.644901 13.409463 14
-55.480057 -53.692619 13.58009 13.58175
-55.453384 -53.422337 13.450821 14.56075
-55.51947 -53.04512 13.560922 15.0355
-55.482979 -51.743237 13.46537 15.017
-55.497902 -51.325459 13.450562 14.389999
-55.515301 -51.166595 13.277803 15
-55.536182 -50.602234 13.228428 15.01725
-55.559185 -49.779778 13.452599 13.085
-55.554882 -48.880016 13.362988 13
-55.580513 -48.370754 13.249117 13
-55.565674 -47.542938 13.263212 14.1675
-55.301666 -45.225578 13.512603 12
-55.522133 -44.96582 13.452097 13.5
-55.421192 -44.647057 13.45022 12.5
-55.469734 -59.624702 13.813627 15.079
-55.373951 -58.609608 13.862388 13.679749
-55.375046 -58.085384 13.747426 14.00875
-55.284554 -57.861256 13.806134 14
-55.521294 -57.501007 13.707686 14.018
-55.316128 -56.929092 13.829489 14.166
-55.524998 -52.868134 13.625777 15
-55.386295 -52.570507 13.691187 13
-55.496555 -49.549633 13.761745 14.168
-55.579296 -47.908558 13.973764 14.584249
-55.512512 -47.025219 13.906106 15
-55.558418 -46.568562 13.803247 15
-55.558517 -46.343002 13.999043 15.084
-55.440796 -44.592396 13.856553 13.717834
-55.266479 -59.43951 14.193522 14
-55.265816 -59.11541 14.242647 14
-55.398815 -58.500896 14.170477 13.873668
-55.210472 -58.315407 14.215159 11.178
-55.409637 -57.880741 14.006409 14
-55.595444 -57.211891 14.07565 14.0855
-55.378365 -56.621098 14.155716 15.0395
-55.465183 -53.622124 14.193855 14
-55.587097 -52.462234 14.113698 13.0735
-55.560528 -52.296288 14.350332 14.082
-55.586189 -49.989822 14.396051 15.0795
-55.522228 -49.443272 14.179268 14.584249
-55.548779 -48.939014 14.178734 15
-55.465195 -48.68417 14.290977 15
-55.582233 -48.374519 14.015797 15
-55.540478 -47.673302 14.06014 15
-55.59 -46.679802 14.26096 15.126
-55.552608 -45.849857 14.200991 15.1665
-55.401131 -44.614964 14.218915 12.428572
-55.539837 -44.237038 14.256289 13.5
-55.580849 -58.46347 14.602337 13.584
-55.280354 -58.387482 14.581815 13
-55.574673 -57.546967 14.414841 13
-55.341278 -56.820004 14.498365 14.1625
-55.384762 -56.634068 14.564192 14.746999
-55.499306 -55.472908 14.627462 13.171
-55.576149 -52.605167 14.411232 13.171
-55.548363 -51.247337 14.754092 15.0805
-55.516411 -50.198788 14.552248 14.169
-55.47998 -49.234188 14.669724 15.0845
-55.544945 -48.721436 14.764502 14.1695
-55.512321 -48.209099 14.538448 14.667749
-55.501076 -47.677216 14.709936 15.167
-55.582611 -46.255184 14.663703 14
-55.396118 -44.569847 14.535337 13
-55.416325 -44.345322 14.70342 14.5
-55.589481 -43.923553 14.663438 14
-55.33242 -57.319473 15.016171 15
-55.330624 -56.488689 14.874713 15
-55.442715 -56.24012 14.862215 15
-55.464748 -55.879154 14.831014 15.0345
-55.595638 -55.548367 14.864665 15.0355
-55.390675 -55.158936 14.865331 13.1715
-55.305363 -53.553219 15.172138 14.0775
-55.432896 -52.568745 15.153599 14.1695
-55.488285 -50.647469 15.084576 14.1695
-55.569412 -47.681992 15.139594 14
-55.533672 -47.429657 14.989818 15.1675
-55.566479 -47.125538 14.994313 14
-55.594109 -46.731094 14.841975 14
-55.589439 -46.349079 14.979697 14
-55.326496 -45.253838 14.816399 13.0325
-55.219257 -45.159256 15.147119 11
-55.396133 -44.653244 14.884851 13
-55.475616 -44.388741 15.095237 13.029
-55.589199 -43.935837 14.810832 14
-55.271858 -58.565113 15.562364 15
-55.274055 -58.298946 15.361264 15
-55.292084 -57.86507 15.377288 15.011666
-55.29557 -57.387794 15.3446 15.035749
-55.306976 -57.066471 15.361928 13.085751
-55.414631 -53.612984 15.290078 14.0765
-55.456726 -51.160824 15.392375 14.17
-55.514809 -49.968121 15.366771 14.17
-55.477509 -49.464966 15.567335 15.168
-55.591816 -47.229809 15.269941 15.168
-55.278225 -45.258026 15.333492 11
-55.435959 -44.901909 15.347542 13
-55.378136 -44.711109 15.217932 13
-55.578434 -44.36409 15.411835 15
-55.228775 -59.985504 15.904245 15
-55.24136 -59.426804 15.882144 15
-55.239147 -59.076145 15.942958 15
-55.4217 -58.602291 15.859447 13.7235
-55.311478 -57.970226 15.752192 13.172
-55.374779 -53.479252 15.73006 15
-55.519825 -51.712112 15.656477 15.0885
-55.488068 -50.723442 15.846761 14.1705
-55.504597 -49.276859 15.847223 15.1685
-55.553577 -47.8507 15.80155 15.1685
-55.599258 -46.059715 15.732746 15.1685
-55.219269 -45.31572 15.628428 11
-55.363564 -44.959961 15.905627 13
-55.407578 -44.428898 15.888857 14
-55.531357 -44.296562 15.840023 15
-55.546284 -58.60392 16.232298 15
-55.436363 -56.789715 16.062811 15.167
-55.591335 -53.158825 16.211809 14.1705
-55.399067 -51.649811 16.189287 15.1685
-55.508484 -50.55114 16.353369 14.171
-55.507092 -48.17651 16.341866 15.169
-55.569637 -46.21685 16.165613 13
-55.436829 -45.761856 16.07165 13
-55.594288 -45.274151 16.306618 15
-55.592865 -44.808479 16.168411 15
-55.35495 -44.526596 16.305397 14.291
-55.504276 -56.601212 16.642406 14.1705
-55.446793 -52.058613 16.644745 15.169
-55.473907 -50.068951 16.438068 15.169
-55.508221 -48.586002 16.670176 15.1695
-55.553364 -46.652172 16.711277 15
-55.581322 -46.140133 16.630711 15
-55.580402 -45.732887 16.441128 15
-55.291229 -44.497272 16.694136 13.727273
-55.518173 -44.091148 16.485767 13
-55.448582 -43.884872 16.68207 15
-55.452255 -52.140766 16.937187 15.077666
-55.464317 -50.574818 17.04388 15.1695
-55.552135 -47.052876 16.96574 15
-55.552547 -46.516434 16.807041 15
-55.573166 -46.245533 16.97505 15
-55.57769 -45.700432 16.815393 15
-55.574512 -45.012016 16.934841 14.5
-55.463055 -44.518089 16.881718 14.090909
-55.511467 -43.930897 16.887705 15
-55.234455 -59.162689 17.291199 14.171
-55.482513 -58.339043 17.352711 12.5
-55.53896 -56.614128 17.551735 15.159
-55.348301 -55.98061 17.544273 14.1715
-55.413662 -51.031475 17.385046 15.17
-55.492729 -49.881298 17.369549 15.17
-55.599594 -47.439415 17.339245 15
-55.289455 -45.304543 17.338953 14.0325
-55.362751 -44.463718 17.502674 14.010834
-55.341259 -44.383385 17.310102 14.0315
-55.25771 -58.960693 17.715612 14.1715
-55.416721 -58.280518 17.680435 14
-55.240963 -56.64703 17.627932 15.1695
-55.314716 -55.123058 17.904673 15.17
-55.463367 -50.615932 17.905556 15.1705
-55.491005 -49.37466 17.937115 15.1705
-55.38953 -44.919502 17.807491 14
-55.239521 -44.470268 17.731241 13
-55.425266 -44.339302 17.704121 14.51475
-55.288128 -57.374802 18.17819 15.17
-55.242073 -56.96183 18.335981 15.076
-55.296272 -56.628418 18.015244 14.0765
-55.335655 -53.749111 18.187109 15.1705
-55.221443 -53.581268 18.206072 15.074
-55.398197 -52.561695 18.159025 15.1705
-55.39719 -44.981674 18.299789 13
-55.347424 -44.533737 18.207079 15
-55.21508 -58.028481 18.754095 15.1705
-55.559479 -52.941792 18.741865 15.171
-55.461758 -50.329868 18.556196 15.171
-55.245525 -49.279964 18.670357 14.031
-55.286507 -44.446365 18.651606 14.75
-55.43795 -43.990742 18.783857 14
-55.294121 -56.53537 18.951075 14.168
-55.533459 -52.951508 18.99227 15.171
-55.59383 -45.552654 19.128281 14
-55.282497 -44.493221 19.019331 15
-55.213463 -59.103287 19.558163 15.171
-55.421059 -57.954498 19.456747 15.171
-55.500637 -52.167381 19.303501 15.0745
-55.282085 -45.101593 19.341978 12
-55.328976 -44.47398 19.256081 15
-55.373707 -58.699047 19.623573 14.06
-55.448906 -58.223328 19.949789 13
-55.231865 -45.160393 19.687874 12
-55.459309 -44.508892 19.73233 15
-55.30138 -44.340019 19.773344 15.0315
-55.493851 -58.23637 20.219961 13.79225
-55.522778 -46.131065 20.197224 12.017166
-55.346336 -45.036079 20.120173 12.875
-55.371731 -44.453072 20.204418 15.0295
-55.483448 -44.343212 20.159021 14.514999
-55.331757 -58.23848 20.456547 14
-55.425484 -44.962883 20.717424 13.694167
-55.281357 -44.618797 20.410057 15
-55.430698 -44.877872 20.902061 14.333333
-55.420422 -44.566154 21.060568 15
-55.356407 -43.885094 21.11904 15
-55.397861 -44.995567 21.444504 13
-55.366631 -44.753437 21.256235 15
-55.208134 -58.153793 21.895796 14.178
-55.203735 -45.085438 21.852768 14.0845
-55.294006 -44.939911 22.184752 13
-55.480045 -58.811649 22.634142 15.06
-55.521709 -58.159401 22.548674 15.169
-55.58115 -45.270538 22.653416 13
-55.353031 -45.10136 22.580578 13.361333
-55.378319 -58.180424 23.300009 15
-55.561314 -58.605679 23.873531 15.045
-55.462254 -57.941605 23.752905 14.0335
-55.209915 -45.241631 23.969599 13.043
-55.351849 -44.956303 23.744963 13
-55.368126 -44.937843 24.149731 13.5
-55.315685 -44.920414 24.535774 14
-55.341045 -44.999359 25.007421 14.5415
-55.384514 -44.879436 25.439045 14
-55.358047 -45.02063 25.959864 15.084
-55.401588 -44.898674 26.213377 14
-55.358692 -45.067547 26.717932 14
-55.431 -45.003857 26.867392 14
-55.491142 -44.852356 27.237146 15
-55.414742 -45.906605 28.740143 14
-55.366032 -45.53381 28.740454 15
-55.385181 -45.630737 29.382374 15
-55.26263 -44.862541 29.500874 15
-55.203678 -45.470219 29.616331 15
-55.458172 -44.809757 30.157944 15
-55.555698 -44.858047 30.450254 15
-55.405251 -44.949078 31.032833 15
-55.408306 -44.945679 31.229582 15
-55.268841 -44.823456 32.319038 15
-55.486858 -45.814346 32.455917 15
-55.325161 -44.827152 32.503422 15
-55.324337 -44.745628 32.598186 15
-54.838936 -45.945732 -1.7807494 7
-54.837559 -34.028633 -1.2404701 5
-55.102962 -33.802174 -1.2416521 5
-54.833138 -33.294033 -1.2392237 5
-55.133362 -32.960701 -1.239996 5
-55.100304 -30.542635 -1.2709224 4.5
-54.993629 -30.20042 -1.262928 4.6666665
-54.864883 -35.270119 -1.0345336 5
-54.882137 -34.997307 -0.94911885 5
-55.022961 -34.561222 -1.0562549 4.3333335
-54.906258 -34.2579 -0.92076653 2
-55.031624 -33.723324 -0.92946762 3.1666667
-54.997135 -33.475807 -0.98798054 2.25
-54.937469 -32.941032 -0.99022436 2.5999999
-54.933376 -32.536709 -1.0341944 2.8
-54.931805 -32.222042 -1.0428717 2.25
-55.094288 -31.663078 -1.0768021 4.3333335
-54.963451 -31.430151 -1.1026893 3.1666667
-55.050812 -31.107584 -1.0397092 3
-54.968555 -30.555056 -1.1073124 2.8
-55.06052 -30.267088 -1.0954937 2
-55.02779 -50.514977 -0.70004064 6
-55.004215 -44.808681 -0.4060598 6
-54.933292 -44.516472 -0.43017405 2.5
-55.072121 -44.24538 -0.44640952 4
-55.070347 -43.762474 -0.4595266 2
-55.091766 -43.369812 -0.44814488 4
-54.978851 -42.897358 -0.4922106 5.2857141
-55.102264 -42.771324 -0.44185936 4
-55.032307 -42.2215 -0.45239484 2.6666667
-55.026646 -41.78606 -0.49682617 4
-54.926743 -41.308666 -0.49511719 2
-55.001957 -41.093891 -0.51003724 1.8333334
-54.948944 -40.600719 -0.55070436 3.6666667
-54.922325 -40.123047 -0.53998131 2.25
-55.014091 -39.843559 -0.55435395 3
-55.031029 -39.292091 -0.57856005 2
-55.049324 -38.955959 -0.6160304 3
-55.013195 -38.6744 -0.62180126 2.5
-55.091606 -38.17107 -0.62807435 2.75
-55.004391 -37.842709 -0.6509288 2.5999999
-55.162052 -37.572216 -0.66750175 4
-55.031601 -37.01532 -0.67812794 3.1111112
-55.013981 -36.553139 -0.70232016 2
-54.879906 -36.19429 -0.68821448 3.5
-54.990353 -35.783768 -0.75804991 3.25
-54.939087 -35.360935 -0.75465935 2.5999999
-55.042427 -35.05246 -0.76225001 2.5
-55.033924 -34.777702 -0.78214288 2
-55.127029 -52.929237 -0.020298503 5.5
-55.074711 -52.133938 -0.039427578 3.6666667
-55.01973 -51.795349 -0.053300735 2.75
-55.01796 -51.376213 -0.055473618 3.5
-55.000378 -50.977608 -0.067269064 2.2
-55.009232 -50.567028 -0.10875836 3.6666667
-54.977127 -50.183155 -0.12184349 3.1666667
-55.017899 -49.696266 -0.12352744 3
-55.177132 -49.323692 -0.11065587 3
-54.992359 -49.003929 -0.14390631 3
-55.09296 -48.651958 -0.14897601 2.6666667
-55.13974 -48.113346 -0.16472495 3
-54.987823 -47.824402 -0.18864745 2.2
-55.100929 -47.32058 -0.21870588 3.5
-54.956413 -46.978916 -0.2585555 3.2857144
-54.994473 -46.679626 -0.23583212 1.5
-55.066128 -46.225632 -0.25847077 4
-55.04911 -45.716541 -0.24597394 2.6666667
-54.989162 -45.00156 -0.26473022 2.6666667
-55.053059 -44.6978 -0.15047111 4.1999998
-55.046814 -42.87331 -0.13073289 4.9000001
-55.050888 -42.774784 -0.007898733 4.5
-55.012978 -59.806389 0.32711643 4
-54.943897 -59.375751 0.34110367 3.1666667
-55.028252 -59.077316 0.31945869 4.4000001
-54.952881 -58.593422 0.27639037 3.1666667
-54.957161 -58.216148 0.23744169 4
-55.003632 -57.786697 0.23156904 3.4000001
-55.035812 -57.566799 0.23862901 2.5
-55.007061 -56.870667 0.18234251 3.2
-54.972576 -56.580593 0.18520375 2.4285715
-54.942738 -56.196861 0.18257216 3.5
-55.005581 -55.724087 0.14322917 2.5
-55.13953 -55.315689 0.12115689 3
-55.053303 -55.002026 0.10482392 3
-54.960045 -54.591358 0.059063975 3.6666667
-55.024837 -54.118469 0.056148756 3
-55.09008 -53.777012 0.068492673 3
-55.009148 -53.382412 0.052709688 4.1666665
-55.073917 -52.997917 0.053351596 2.25
-55.093426 -52.672466 0.023129245 4
-54.971863 -52.201237 0.016251501 2
-54.932522 -44.89307 0.17847481 6
-55.006649 -44.688953 0.19002555 4.681818
-54.89267 -42.871456 0.19652268 4.4615383
-54.898109 -42.74086 0.24453601 4
-55.00246 -34.460754 0.35142297 5.6666665
-54.994537 -34.186287 0.25819448 4.6666665
-55.022076 -33.719425 0.25315359 4.5999999
-55.040203 -33.3545 0.19830164 4
-55.001858 -32.996941 0.22461216 4.75
-55.006207 -32.581406 0.17979118 4.5
-54.95414 -32.220531 0.13137925 4.6666665
-55.170589 -31.831846 0.14339362 4
-54.944302 -31.486599 0.13954464 5
-55.022263 -30.974146 0.14370655 5.5
-54.817142 -30.540302 0.11795475 5.5
-54.993576 -30.147778 0.094910771 3.5
-54.859798 -59.979122 0.40267441 2
-55.02026 -58.723274 0.61199963 7
-54.889523 -44.700695 0.48383534 5
-54.980644 -42.850906 0.42540249 6
-54.999283 -41.693169 0.6932615 5.5
-55.099663 -41.384277 0.63408339 5
-54.962315 -40.953045 0.62068462 5.1666665
-54.835205 -40.582241 0.69928122 6
-54.990211 -40.10984 0.54554242 5
-55.048649 -39.930908 0.61379629 5
-54.903412 -39.553238 0.51595467 5
-54.938984 -38.145947 0.5636493 5.3333335
-54.867626 -37.743565 0.47997111 5
-55.11055 -37.437023 0.52688003 5.5
-54.868389 -37.092747 0.54127353 6
-55.018784 -35.444939 0.45891413 5.3333335
-54.919548 -59.540112 1.0747145 8.0135002
-54.909534 -59.168926 1.1130787 8.0109997
-55.11795 -45.941135 1.1786593 8.1709995
-55.017303 -45.554504 1.1846638 7
-55.105194 -42.802387 1.1869642 6
-55.100906 -42.768803 0.98154575 6
-55.180042 -58.671276 1.2084246 8
-54.99778 -44.653465 1.5368028 6.6666665
-55.017399 -42.834415 1.3304912 6
-54.939735 -42.764786 1.518428 6
-55.147781 -58.678623 1.984772 8
-55.043076 -42.754646 1.644583 7
-55.190681 -50.89724 2.1045122 8.0644999
-55.05732 -34.391785 2.216162 6
-54.92841 -58.895607 2.7189932 7
-55.02837 -55.98526 2.6519711 8.0699997
-55.018291 -54.051575 2.4747281 8.0784998
-54.990719 -50.146591 2.6459718 7
-55.033855 -45.546604 2.6858189 8.0834999
-55.177818 -34.549068 2.5708747 6
-55.170422 -58.658127 2.8981209 9
-55.15984 -58.64917 3.3602028 9
-54.840649 -47.757122 3.530612 7
-55.001175 -45.781315 3.5091469 8.0165005
-55.023415 -45.432396 3.3774531 7.7166505
-54.896713 -45.147232 3.3928611 7
-54.94775 -59.102272 3.7030833 8.0839996
-54.914135 -47.773354 3.9792511 7
-54.873749 -47.051857 3.8478377 8.0200005
-54.96661 -46.102333 3.8987484 7.5097499
-55.073097 -45.930374 3.7019103 7.5262499
-54.991005 -45.377548 3.8792765 7.2264996
-54.828472 -59.524734 4.2502499 8.0179996
-54.869919 -49.940285 4.0601034 7
-54.845654 -49.386448 4.1409454 7
-54.841412 -49.060246 4.1573768 7.2721252
-54.930626 -48.565205 4.1627359 7.3333335
-54.894451 -48.211136 4.1301403 7.1999998
