# .PCD v0.7 - Point Cloud Data file format
VERSION 0.7
FIELDS x y z intensity
SIZE 4 4 4 4
TYPE F F F F
COUNT 1 1 1 1
WIDTH 1268
HEIGHT 1
VIEWPOINT 0 0 0 1 0 0 0
POINTS 1268
DATA ascii
-87.374786 47.72543 1.4797994 10.940269
-87.314896 48.328468 1.3141167 11.033501
-87.273827 48.476833 1.2660096 11.0057
-87.378113 45.186596 1.7688849 11.044
-87.312202 45.484108 1.8251084 10.0245
-87.418419 45.659489 1.6516812 11.049
-87.293091 46.229908 1.6935775 9.7980003
-87.307152 46.621426 1.9279491 9.1409998
-87.473579 47.445843 1.7721629 9.0775003
-87.452759 47.849926 1.9017591 11.7439
-87.283821 48.285259 1.9215707 11.9511
-87.589272 40.035961 2.3565459 7
-87.243469 45.987247 2.3758163 12.0525
-87.253891 46.107521 2.0745001 9.1285
-87.581009 47.192799 2.1116509 12.045
-87.495552 47.344761 2.2827909 12.044666
-87.431892 47.852448 2.1501224 12.02461
-87.337128 48.148327 2.0577314 12.0275
-87.424088 43.951675 2.4898255 9.0094995
-87.523674 44.958858 2.4047449 9.0404997
-87.29924 46.164131 2.5913248 8.1665001
-87.275009 46.594055 2.7757499 9.715167
-87.501495 47.020344 2.6710687 11.072999
-87.455933 47.379467 2.6780648 12.038374
-87.260277 47.66486 2.5104911 11.3815
-87.316948 45.760715 2.9014895 8.6432495
-87.455986 46.188564 3.0042918 12.066999
-87.484024 46.665016 3.0136771 12.541167
-87.306564 46.966164 3.0007336 12.027
-87.393356 47.372246 2.868597 12.539291
-87.266846 46.386147 3.2397254 10.1685
-87.414711 46.744572 3.2653015 13.0615
-87.338913 47.029789 3.2649436 10.299251
-87.502617 47.513096 3.3241324 10.0545
-87.339867 45.915443 3.6481929 10.0435
-87.258003 47.281742 3.617456 9.1195002
-87.02977 50.135559 -3.6121793 7
-86.919472 50.374969 -3.4861407 7
-86.836136 49.593964 -2.9388435 7
-87.194931 50.931458 -3.0549071 7
-86.939499 56.157909 -2.8133273 4
-86.953529 56.71088 -2.8369541 4
-86.990608 56.895725 -2.849462 5
-87.064316 57.282299 -2.8512003 5
-86.940933 57.731617 -2.8473876 5
-86.960335 58.113247 -2.8500669 5
-87.033913 58.657787 -2.8577511 4.5
-86.98027 59.007496 -2.8583937 2.9444444
-86.937393 59.341904 -2.8813403 2
-87.019157 59.873699 -2.9023936 3.4000001
-86.995567 32.340267 -2.5723479 7
-87.139221 33.338844 -2.5197651 7
-86.814583 49.152836 -2.4078681 5
-87.073135 49.379253 -2.4026396 5
-87.021805 49.839783 -2.4543991 5.6666665
-87.011131 50.300869 -2.4747043 5
-87.068962 50.515793 -2.4984276 5.2222223
-87.093391 50.971996 -2.5833175 5.5
-86.929428 51.413822 -2.5673835 5.3333335
-87.093224 51.844753 -2.5474284 5
-87.03698 52.617802 -2.5974061 6
-87.052231 52.982471 -2.6230829 5
-87.080345 53.456699 -2.5940595 4.8333335
-86.985558 53.770306 -2.5866251 4.5
-87.041023 54.142342 -2.605125 4.3000002
-86.804802 54.423183 -2.6342564 4
-86.9701 55.020454 -2.6734216 4.5714288
-87.042839 55.447998 -2.7020218 4.4285712
-87.018433 55.716442 -2.7271621 3.75
-87.076042 56.123478 -2.725235 3
-86.929642 56.601906 -2.7301276 3.1666667
-87.067299 56.851353 -2.7788928 4
-87.056053 57.362671 -2.7614887 3
-87.113701 57.8414 -2.7734993 3.25
-87.027969 58.11454 -2.7600629 3.3333333
-87.024818 58.52829 -2.7653964 3
-86.909866 58.943417 -2.4277558 7
-87.106293 32.924877 -2.2557693 7
-87.074249 44.182842 -2.0067344 6
-87.056252 45.882114 -2.0916049 6
-86.998306 46.31741 -2.1440239 6
-86.969505 46.705162 -2.1594658 6.3333335
-87.019897 46.938042 -2.0794082 6
-86.979172 47.307171 -2.1668279 6.25
-87.052025 47.667786 -2.2320652 6.3333335
-87.179253 48.390999 -2.3255627 6
-86.938499 48.526318 -2.3270583 7
-86.882027 49.376884 -2.2921381 5.8000002
-87.070427 49.862118 -2.3941185 5
-86.926178 56.276356 -2.2618172 7
-86.882324 58.48354 -2.3086891 7
-86.91922 41.491928 -1.6171893 7
-86.936127 42.262211 -1.6489567 8.0965004
-87.109329 43.780788 -1.9032142 6.5
-86.958138 44.177471 -1.9364169 6
-87.000572 44.536831 -1.9304031 6
-87.038025 45.441196 -1.9559441 6
-87.077621 46.444958 -1.9778873 6
-87.011314 46.825905 -1.7059385 7
-87.040642 48.707218 -1.944343 7
-86.967613 39.979069 -1.2391206 7
-87.069801 40.360981 -1.2395866 7
-87.079269 40.59428 -1.2658551 7
-86.992012 40.889637 -1.3229233 7
-86.890656 42.345409 -1.4921415 7
-86.955627 33.230053 -0.85265625 7
-86.979225 37.580563 -1.0390258 7
-87.055031 37.949581 -0.98743248 7
-87.027 38.165367 -1.0183903 7
-86.921867 38.574703 -1.0799242 7
-86.897079 39.128407 -1.0984601 7
-87.074295 39.48082 -1.1321959 7
-87.035561 39.76585 -1.0954634 7
-87.199837 40.025227 -0.99923104 7
-87.130852 46.733322 -0.88205689 8.0684996
-86.933533 48.499355 -0.88883638 8.0620003
-87.02047 31.705584 -0.52639693 7
-86.979599 32.931042 -0.65607107 7
-87.063026 40.408512 -0.73337656 8.0679998
-87.095131 41.058582 -0.49903533 8.0450001
-86.839317 41.716946 -0.76278526 7
-86.816605 45.938015 -0.7736125 7
-86.931778 46.395905 -0.53767985 8.0485001
-87.041924 46.466103 -0.50783008 8.0405998
-86.910484 47.421009 -0.52451867 8.0465002
-87.120331 47.99308 -0.61907846 8.1330004
-86.995705 31.972685 -0.21218741 7
-86.891853 39.584332 -0.038731329 8.0620003
-86.942932 40.210186 -0.11645678 8.0309496
-86.996605 40.504597 -0.2151646 8.0629005
-86.912605 41.079861 -0.34107319 8.1334991
-86.809875 46.284351 -0.00057531334 8
-87.097443 46.518764 -0.30522534 8.0664997
-86.953087 47.757359 -0.31029487 7
-87.028206 48.032333 -0.29898852 8.1289997
-87.047058 38.405087 0.39934054 8.0220003
-86.823723 39.158039 0.086975902 8.1610003
-86.91906 39.389042 0.16496322 8.0255003
-86.994873 39.817734 0.16582403 8.0443335
-87.021812 40.208466 0.13535088 8.0552502
-87.07888 40.50613 0.24280739 8.0723743
-86.945366 41.018024 0.096055686 8.1265001
-86.981346 46.34407 0.16821367 8.9635
-86.872002 46.538883 0.26322478 8.2090836
-87.028542 46.877628 0.38632441 8.1239996
-86.903366 47.372387 0.24315439 8.5527496
-87.060966 47.834576 0.17299473 9.0710011
-86.98967 48.197243 0.20834108 9.0255003
-87.184906 38.872692 0.45946473 8.0170002
-87.119965 39.294201 0.43388402 8.0305004
-87.085052 39.6992 0.5767343 8.1122494
-86.919594 40.355904 0.73430181 8.1275005
-87.002441 40.653347 0.6262973 7.9722137
-86.982361 41.170338 0.64600897 8.1459999
-86.949776 41.440868 0.68634641 8.1169996
-87.040092 45.094769 0.60837072 8.1750002
-87.108109 45.32972 0.43817827 8.0139999
-86.909698 46.517879 0.64358032 8.1184998
-87.154205 47.431274 0.73786104 10.050167
-87.141548 47.829823 0.63809979 9.4068327
-87.033386 48.227837 0.68366748 9.9394436
-86.994827 48.514133 0.6531198 9.8417177
-87.154602 49.197128 0.65744394 8.1134996
-87.177002 39.551376 0.95766282 8.1230001
-87.038773 40.037956 0.96274763 8.1210003
-87.130745 40.740406 0.9336102 8.1235008
-87.074593 44.211964 1.1583068 9.05375
-87.046379 44.454227 1.1608295 10.0615
-86.893623 44.95364 1.0857072 9.0375004
-86.944145 45.649242 0.9718793 8.1540003
-86.899467 46.603138 1.037972 9.0827503
-87.051399 47.287533 0.876504 10.0635
-87.011589 47.747826 0.91893005 9.4812279
-87.019028 48.190041 0.8893503 9.9133749
-86.985207 48.54221 0.97270554 9.4440832
-87.18663 39.917187 1.5220956 8.1075001
-86.88459 44.555069 1.5245178 9.0317497
-86.948509 44.848156 1.2039229 9.0555
-87.184975 45.30645 1.2169503 9.0509996
-87.062035 45.980778 1.4354695 9.0284996
-87.087845 46.137547 1.48965 9.8655834
-86.970261 46.77528 1.5991662 11.058
-87.074379 46.885647 1.4445169 8.1005001
-87.042122 47.410114 1.4326355 9.8990002
-87.009254 47.760689 1.4591305 9.6784163
-86.948845 48.264141 1.5326865 10.840849
-86.994995 48.522839 1.3110845 10.856239
-87.02243 44.703518 1.9849178 9.0469999
-87.171349 45.009899 1.6772573 10.0265
-86.83947 46.007854 1.8343077 8.1239996
-87.020813 46.790432 1.6560444 11.062
-86.993057 47.42384 1.8030721 10.054
-87.113373 47.872231 1.685509 11.022334
-86.984764 48.303249 1.8822597 11.676343
-87.042107 48.472279 1.8316379 11.655328
-87.017174 44.883953 2.0622373 9.0469999
-87.16375 46.232533 2.2855773 12.0495
-87.087593 46.621441 2.3812463 9.8774376
-86.83149 47.459747 2.3845277 10.0085
-87.042847 47.823223 2.2888479 11.254313
-86.945084 48.16013 2.1534793 12.023432
-86.917877 48.436012 2.0244644 12
-87.137833 45.087132 2.5821631 9.04
-87.013054 45.96526 2.612072 9.1199999
-87.022591 46.708675 2.6089084 10.56525
-87.099861 46.925846 2.5455008 12.051167
-87.071686 47.44017 2.6162457 12.333929
-86.924683 47.735081 2.4966629 11.957188
-86.890907 45.893848 2.8696558 9.1225004
-86.991089 46.571369 3.0839553 11.0205
-86.979347 47.037464 2.9426877 11.47536
-87.053047 47.36211 2.914381 11.201167
-86.928566 47.707409 2.8890562 10.05225
-87.035805 46.683254 3.3093264 11.31475
-87.038086 47.013142 3.3072264 11.55375
-87.151756 47.390926 3.5530493 9.1525002
-86.940514 46.325542 3.7892349 9.1079998
-86.833488 46.274166 4.0496311 9.1120005
-86.417976 50.804928 -3.6779928 7
-86.795357 51.3218 -3.7586935 7
-86.538139 51.092129 -3.5324667 7
-86.424576 56.769108 -3.4980278 7
-86.740166 50.132298 -2.8583331 7
-86.457848 56.337582 -2.8147302 4
-86.600471 56.458866 -2.8265581 4.6666665
-86.676796 57.376503 -2.8360188 4
-86.591431 58.620026 -2.8465114 3.5714285
-86.581116 58.992622 -2.8432987 2.7777777
-86.63942 59.390049 -2.8660064 3.5454545
-86.409637 59.693096 -2.8580811 1
-86.791306 34.677456 -2.4839828 7
-86.566322 41.321659 -2.4910264 7
-86.520935 49.144176 -2.4117315 5
-86.61776 49.401165 -2.4062538 5
-86.609871 49.904877 -2.41751 5.4285712
-86.601341 50.208843 -2.5352759 5.5555553
-86.627449 50.580662 -2.4787917 5.2222223
-86.730377 50.898109 -2.5209162 5
-86.689964 51.709644 -2.576751 5.5
-86.57341 52.173103 -2.5917926 5.3333335
-86.582993 52.880177 -2.6081638 5.5
-86.530228 53.52095 -2.6046591 4
-86.595856 53.753014 -2.6018679 4.5
-86.61187 54.210266 -2.5948222 4
-86.638748 54.584167 -2.6214535 5
-86.518295 55.094971 -2.6757593 4.6666665
-86.619087 55.358376 -2.7045519 4.5
-86.597267 55.864071 -2.7270308 4
-86.556877 56.097027 -2.7276361 3.5714285
-86.610703 56.627785 -2.7352927 3.1428571
-86.522644 56.974255 -2.7657495 3.25
-86.563957 57.817039 -2.7518816 2.6666667
-86.635109 58.177795 -2.7701664 2.8333333
-86.644379 58.429188 -2.7785261 2.4000001
-86.560989 44.18037 -2.0001411 6
-86.716827 45.112038 -2.2312629 6
-86.651161 45.374805 -2.041923 6
-86.705841 45.784061 -2.0399919 6
-86.673508 46.175873 -2.0821254 6
-86.640152 47.418415 -2.2614172 6.4000001
-86.537621 47.795204 -2.1846557 6.6666665
-86.737717 48.070976 -2.2805555 6
-86.602524 48.640797 -2.3551488 6
-86.501617 49.419807 -2.3506753 5.6666665
-86.626358 49.763775 -2.3874822 5
-86.622414 56.757122 -2.2941391 7
-86.427139 58.46439 -2.3903418 7
-86.754845 41.797718 -1.8082783 8.0924997
-86.764885 42.658199 -1.6320907 7
-86.564735 42.958675 -1.7424375 7
-86.683319 43.808483 -1.9114923 6.5
-86.604324 44.185547 -1.9473258 6
-86.580933 44.59948 -1.9555999 6
-86.506279 45.395679 -1.9735149 6
-86.404526 47.078552 -1.9511496 7
-86.629669 47.658604 -1.9483589 7
-86.502571 39.917278 -1.2062209 7
-86.534447 40.166168 -1.2512873 7
-86.718933 40.785324 -1.3031372 7
-86.572838 40.982567 -1.3349329 7
-86.68737 41.87241 -1.5535156 7
-86.548615 37.895245 -0.97533971 7
-86.632607 38.305046 -1.0605538 7
-86.651543 38.677998 -1.0777634 7
-86.608177 39.002472 -1.0993937 7
-86.524582 39.3433 -1.134107 7
-86.522003 39.807907 -1.1567652 7
-86.680542 40.062473 -1.1313829 7
-86.757011 41.561253 -0.85056537 8.0679998
-86.517426 30.451477 -0.72958302 7
-86.49765 31.209249 -0.75976348 7
-86.766884 33.688023 -0.62479693 7
-86.42308 39.85358 -0.65295279 8.0594997
-86.647133 40.229374 -0.50773895 8.0625
-86.631821 40.749016 -0.43276739 8.0586662
-86.743782 40.966473 -0.40654227 8.0565004
-86.429817 41.86285 -0.47055438 8.0445004
-86.600914 46.325459 -0.45157769 8.033
-86.696167 46.44791 -0.43388245 8.0314999
-86.638412 47.58083 -0.52170801 8.0602503
-86.683121 48.236111 -0.68350083 7
-86.556793 31.019024 -0.26964325 7
-86.575928 39.132286 -0.12578811 8.12325
-86.68396 39.407364 -0.050080899 8.0350008
-86.663261 39.858906 -0.19550373 7.8672996
-86.697472 40.109291 -0.20343569 8.0949001
-86.737595 40.60606 -0.0089841262 8.1359997
-86.525009 40.877319 -0.20340772 8.0823336
-86.400429 44.65786 -0.37332925 8.0354996
-86.644974 46.181076 -0.18785276 8.0144997
-86.565605 47.824677 -0.043288261 8.474556
-86.485863 48.048187 -0.16415799 8.0139999
-86.726952 39.368446 0.081131138 8.0302505
-86.7342 39.794968 0.10787535 8.0279999
-86.650627 42.760216 0.31325179 8.0045004
-86.436813 44.075264 0.28637654 8.0459995
-86.650169 46.162258 0.17988238 8.7706432
-86.515869 46.983459 0.23979443 9.0450001
-86.600288 47.512707 0.13985649 8.950388
-86.533554 47.850914 0.07819812 8.8331423
-86.654778 48.211418 0.2056623 9.0287781
-86.700302 48.48703 0.25437331 9.0384998
-86.770714 40.664886 0.72962087 8.1315002
-86.604668 41.170135 0.71222854 8.1274996
-86.51738 41.265327 0.58985543 8.1394997
-86.726357 41.851437 0.5881871 8.1215
-86.417374 46.919128 0.42190588 8.0500002
-86.504272 47.273918 0.51906145 8.5287495
-86.541565 47.869335 0.71368724 9.0239
-86.615463 48.202633 0.68539 9.8561249
-86.676514 48.478127 0.60947824 9.5093336
-86.638069 41.653858 1.0358863 7
-86.62719 44.795849 0.88399792 9.0255003
-86.539421 44.907909 0.99470502 9.4354
-86.444298 45.287746 0.8410787 8.0380001
-86.534203 45.951099 0.96514928 9.5535002
-86.605675 46.282551 0.94757444 8.4141665
-86.577087 46.709656 1.0148973 9.071125
-86.409264 47.123375 1.0232193 10.0315
-86.607849 47.360523 0.90375268 9.0690002
-86.60733 47.845657 1.0660073 9.2242002
-86.559456 48.201416 1.0142817 9.2652731
-86.622688 48.528065 1.0377619 9.6342306
-86.544769 48.849655 1.0486727 8.033
-86.534714 46.221577 1.4762071 8.6938334
-86.627274 46.637722 1.3676744 9.1610003
-86.695526 47.004623 1.4133453 9.0522499
-86.659912 47.502899 1.3915009 9.1169996
-86.492409 47.85862 1.3957272 9.2157993
-86.634132 48.292076 1.3368763 9.8088455
-86.620575 48.501595 1.3429158 10.718266
-86.462456 45.393795 1.8176446 9.5357494
-86.552589 46.135197 1.7123485 8.8776245
-86.636917 47.41029 1.7982272 9.2888746
-86.576103 48.306873 1.8724746 11.1405
-86.563408 48.464211 1.7778953 10.198042
-86.759422 46.982471 2.2752666 9.0644999
-86.57518 47.423382 2.2454591 10.4159
-86.643295 47.68568 2.1988251 10
-86.585846 48.197647 2.1742978 11.312203
-86.415855 48.42606 2.0064621 12.0565
-86.682922 45.470776 2.5154529 12.0545
-86.746239 46.260059 2.6008418 9.1444998
-86.673264 46.672989 2.6330373 9.1191664
-86.518684 46.976868 2.6069326 11.060333
-86.591194 47.394611 2.4932723 10.868834
-86.683716 47.80542 2.5053954 10.681834
-86.405708 46.314167 3.021723 10.0145
-86.607841 46.660927 2.9830256 11.921089
-86.653008 47.026497 2.8709135 11.970054
-86.708366 47.273235 2.8916435 11.040501
-86.653099 46.605793 3.3413539 11.040501
-86.51619 46.138699 3.894273 9.1064997
-86.412209 47.794399 5.2574911 9.1619997
-86.24659 51.62228 -3.4268637 7
-86.379219 30.107229 -2.912291 7
-86.194542 49.699203 -2.8126774 7
-86.137749 50.130878 -2.9989188 7
-86.132362 50.685066 -2.9118884 7
-86.100754 56.116695 -2.807898 6
-86.070244 56.748695 -2.8134503 4
-86.382538 56.972721 -2.8291085 4
-86.149956 58.199245 -2.8259578 3.25
-86.22683 58.531876 -2.8359694 3.1666667
-86.200714 59.034565 -2.8513603 1.4
-86.221237 59.392494 -2.8973546 2.6666667
-86.191666 59.739506 -2.8732705 3
-86.230049 49.144531 -2.415499 5
-86.185081 49.424534 -2.4114888 5
-86.202278 49.827843 -2.4385035 5
-86.213554 50.127941 -2.4665015 5.25
-86.185783 50.653534 -2.5004926 5.3333335
-86.24057 50.96986 -2.5430799 5.5714288
-86.154816 51.256966 -2.507643 5
-86.320396 52.20882 -2.5585587 5
-86.241814 52.570446 -2.595618 5.4000001
-86.157341 52.914009 -2.6747897 6
-86.21386 53.520412 -2.6118522 4.5
-86.227844 53.802174 -2.6053314 4.5
-86.194977 54.185459 -2.6048195 4.1666665
-86.200142 54.53027 -2.6198559 4
-86.228989 55.038219 -2.6667795 4.25
-86.186127 55.334667 -2.6803458 4
-86.140747 55.693272 -2.7340145 4.5
-86.159035 56.184994 -2.7424397 3.9285715
-86.205803 56.672737 -2.7354734 3
-86.041214 56.984875 -2.7601712 3
-86.23378 57.278713 -2.7454057 4
-86.074776 57.893635 -2.7644341 2.8333333
-86.258247 58.083057 -2.7632258 2.4285715
-86.296806 58.493679 -2.7996545 2
-86.157761 45.375706 -2.0385237 6
-86.258934 45.990559 -2.102386 6
-86.300079 46.033413 -2.0654323 6
-86.259178 46.624653 -2.2142205 7
-86.205162 46.994038 -2.1756926 6.25
-86.369858 47.415745 -2.2350881 6
-86.235054 47.84383 -2.2970595 6
-86.143692 49.00769 -2.3874316 5.6666665
-86.175194 49.683132 -2.3672075 5.5
-86.291565 54.241344 -2.3464062 7
-86.086365 55.141613 -2.2527535 7
-86.061478 58.127983 -2.3893003 7
-86.152321 42.298168 -1.7269908 7
-86.242622 42.411022 -1.824638 7
-86.299141 42.938602 -1.792743 7.5440001
-86.203049 44.183712 -1.937657 6
-86.28804 44.507942 -1.95056 6
-86.163551 44.83622 -1.9622478 6
-86.132668 45.38829 -1.9787794 6
-86.102936 47.968094 -1.906818 7
-86.306427 35.696091 -1.2601168 7
-86.23912 39.82732 -1.2303773 7
-86.372955 40.409313 -1.242891 7
-86.132309 40.985664 -1.3601418 7
-86.335602 42.340847 -1.5096529 7
-86.184669 30.897142 -0.80524331 7
-86.152863 37.664955 -0.94468385 7
-86.230057 38.191204 -1.013461 7
-86.164146 38.579884 -1.0628814 7
-86.191223 39.033218 -1.0964519 7
-86.150642 39.411129 -1.0863261 7
-86.18602 39.784096 -1.146848 7
-86.215279 40.128265 -1.176897 7
-86.157394 31.395189 -0.6370787 7
-86.22226 35.793301 -0.74114823 8.0688
-86.147293 36.10342 -0.67541909 8.0690002
-86.068268 44.214985 -0.48349714 8.0512495
-86.138596 44.650143 -0.46107444 8.0492001
-86.094704 44.846462 -0.52909952 8.0565004
-86.327095 31.370672 -0.24247169 7
-86.034195 37.265167 -0.12574159 8.1344995
-86.134621 43.782806 -0.13572089 8.0165005
-86.183609 44.093449 -0.1831461 8.0507507
-86.009125 44.615643 -0.29220611 8.0790005
-86.187729 44.807384 -0.1750949 8.0275002
-86.062408 47.287319 -0.22337903 8.0205002
-86.220596 47.888931 -0.12347288 8.1597662
-86.076935 48.110565 -0.051808376 8.0450001
-86.18277 43.8209 0.016230058 8.0190001
-86.234367 44.154911 0.16309533 8.0480003
-86.044151 44.418034 0.15741177 8.0474997
-86.387367 45.047813 0.27880383 9.0705004
-86.073746 47.041775 0.23627977 8.6202497
-86.102425 47.433571 0.20895196 8.2762222
-86.184776 47.800529 0.090564907 8.8569536
-86.197693 48.166092 0.3022761 8.0410004
-86.006836 45.706291 0.46918806 8.1444998
-86.243439 46.742783 0.42411235 8.0080004
-86.199005 47.114853 0.51922899 8.8140001
-86.195618 47.535877 0.66354567 9.3566666
-86.183289 47.803036 0.67918789 9.5154791
-86.292534 48.184757 0.60120726 8.8688326
-86.35054 48.513599 0.46383038 9
-86.11216 45.286961 0.97844166 9.0229998
-86.016197 45.697582 1.1581546 9.0544996
-86.143555 46.905594 1.1274219 9.0085001
-86.172173 47.512302 0.99840659 9.7633753
-86.252296 47.795891 0.99000341 9.1878567
-86.337654 48.123508 1.0378758 9.5201664
-86.321846 48.536011 0.94529301 10.069667
-86.2407 44.556149 1.3513695 8.5212498
-86.144661 44.984051 1.3296926 9.0500002
-86.286812 45.446064 1.4835975 9.0944996
-86.234283 46.222382 1.3652016 8.7880001
-86.166077 46.921207 1.3616289 8.8513756
-86.173706 47.344185 1.2499177 9.0238752
-86.150658 47.820904 1.3963954 10.297878
-86.2202 48.179245 1.4026605 9.2830563
-86.234329 48.556664 1.3292074 10.519425
-86.210381 44.760693 1.8385926 9.0459995
-86.26416 44.998341 1.8751568 9.5438747
-86.116356 45.300861 1.8464394 11.037749
-86.271233 45.684826 1.6590257 10.026
-86.204613 46.18037 1.7297252 10.0125
-86.155983 46.58934 1.8716242 10.0215
-86.166031 47.578297 1.8161664 10.023
-86.230934 47.719093 1.7479192 9.5412502
-86.211899 48.210728 1.818398 11.110613
-86.275948 48.455467 1.833598 11.151001
-86.248665 45.666927 2.3196037 9.04
-86.136269 46.691608 2.1342232 9.0635004
-86.162262 47.137493 2.0999389 9.0529995
-86.11573 47.440174 2.2168822 11.116158
-86.24041 47.83157 2.1071434 11.2039
-86.251297 48.32692 2.1053486 11.422
-86.166527 48.444313 2.0529144 11.2
-86.158257 45.402576 2.7928762 9.1204996
-86.032417 46.640842 2.7772584 10.010166
-86.182442 46.963947 2.6009407 11.5275
-86.156387 47.348755 2.4889784 10.51175
-86.303589 48.132214 2.4297493 9.0375004
-86.325684 48.44302 2.4587967 9.0377502
-86.011528 45.157139 2.8793261 10.0535
-86.228531 46.294868 3.0082827 11.945824
-86.233917 46.594139 2.9798465 12.255712
-86.216545 46.963642 2.8914151 10.051
-86.301201 47.380802 3.1871533 10.0555
-86.265205 46.699696 3.4531319 10.05
-86.097496 46.945065 3.5916104 9.1190004
-86.380699 46.404408 3.9294178 9.1105003
-86.38987 47.864365 3.9830878 9.1204996
-85.924896 50.360611 -2.8457441 7
-85.735191 50.78019 -3.0412378 7
-85.762291 51.335018 -2.9517903 7
-85.814514 56.514248 -2.8193831 5
-85.64785 56.903477 -2.8376617 5.5
-85.621307 57.207802 -2.857805 6
-85.780846 57.798592 -2.8288529 4.5
-85.770782 58.243042 -2.8461487 3.25
-85.94397 58.574673 -2.815928 2.5
-85.815674 58.979893 -2.8281322 2.4545455
-85.680031 59.334526 -2.8493407 2
-85.742996 59.770615 -2.9589465 5
-85.891846 34.657734 -2.4951985 7
-85.854935 48.115959 -2.532516 6
-85.694435 48.795708 -2.5494788 7
-85.775124 49.16544 -2.4002218 6
-85.79361 49.297382 -2.5272868 5.6666665
-85.812035 49.704723 -2.414506 5
-85.758179 50.185505 -2.4556587 5.125
-85.876335 50.609524 -2.4592831 5.5
-85.902672 50.960274 -2.5160294 5.3333335
-85.83242 51.382195 -2.5761859 5.6666665
-85.698273 51.813473 -2.5590267 5.5
-85.869194 52.226971 -2.5732684 5.25
-85.634598 52.473412 -2.5481594 5
-85.784103 53.006626 -2.5953338 5.3333335
-85.886101 53.470222 -2.6167641 4.5999999
-85.805901 53.823883 -2.6010265 4
-85.90329 54.286133 -2.6140656 4
-85.741707 54.607815 -2.6553981 4.75
-85.796577 55.050861 -2.6711757 4.3333335
-85.846474 55.403534 -2.6881657 4
-85.795456 55.86414 -2.7030773 4.3333335
-85.756645 56.14883 -2.7275262 3.2
-85.83017 56.565331 -2.7385635 3.75
-85.735771 56.98151 -2.7460415 3.6666667
-85.637123 57.46685 -2.7568736 3
-85.780846 57.885925 -2.7736487 2.5999999
-85.786201 58.09861 -2.778897 2.8
-85.717728 58.421371 -2.792201 2
-85.696411 36.777191 -2.1633039 7
-85.76088 45.498245 -2.0226462 6.25
-85.755264 45.681519 -2.0659766 6
-85.897491 46.075039 -2.0972898 6
-85.904236 46.597996 -2.2349827 6
-85.834534 46.98867 -2.1635196 6.3333335
-85.841385 47.483696 -2.2719235 6
-85.840561 48.789478 -2.0172646 7
-85.959732 49.198338 -2.39413 5
-85.663094 49.256069 -2.3914626 5
-85.759254 49.729996 -2.3804855 5
-85.949341 50.001804 -2.3552001 6
-85.728394 57.108414 -2.2752414 7
-85.824387 57.964943 -2.2801702 7
-85.934326 42.440166 -1.7184938 8.0970001
-85.807419 43.389145 -1.7968302 7
-85.912735 43.79108 -1.846204 7
-85.972595 44.154995 -1.8636608 7
-85.842697 44.74263 -1.8809774 6.2994285
-85.808449 44.946941 -1.9407599 6.1999998
-85.828812 45.414558 -1.9577472 6.25
-85.916779 32.113186 -1.3009727 7
-85.70237 39.842949 -1.3611088 7
-85.905991 40.485512 -1.2413056 7
-85.71891 41.552094 -1.5118754 7
-85.897057 41.626652 -1.4915953 7
-85.815125 42.35741 -1.5264597 7
-85.72261 44.725548 -1.4355427 7
-85.705673 44.935982 -1.3174884 7
-85.759628 36.319649 -0.90558594 7
-85.76458 36.471195 -0.86803436 8.0708342
-85.860001 37.422836 -0.94624048 7
-85.905197 37.945477 -0.97697932 7
-85.788361 38.282791 -1.0244528 7
-85.77755 38.628887 -1.055126 7
-85.827454 38.920109 -1.0835582 7
-85.746056 39.420761 -1.1440324 7
-85.953079 39.798092 -1.1530287 7
-85.697693 40.25927 -1.1332573 7
-85.993393 44.2747 -0.94825774 8.0714998
-85.793198 44.727524 -0.88155937 7
-85.632492 44.961502 -0.96122372 7
-85.906754 30.254036 -0.58503073 7
-85.704369 31.358009 -0.54463047 7
-85.764481 33.320953 -0.64065766 7
-85.723534 36.388351 -0.77728391 8.0690002
-85.935577 36.957005 -0.66191983 7
-85.846855 37.361191 -0.46817157 7
-85.696747 43.996078 -0.72151971 7
-85.795486 44.318104 -0.56938261 8.0560627
-85.812126 44.625778 -0.48654726 7.9791999
-85.746635 44.904903 -0.53965282 7.7033334
-85.612434 45.795605 -0.60687453 8.1339998
-85.966415 48.109295 -0.45337486 8.0640001
-85.793594 48.487057 -0.55530721 8.0629997
-85.746994 36.191994 -0.048103485 8.1044998
-85.781792 36.469757 -0.20635773 8.0605001
-85.650505 37.041389 -0.056787536 7
-85.975815 37.328865 -0.032488372 8.1300001
-85.890907 43.847256 -0.34218124 7
-85.742317 44.252495 -0.28895932 8.0640001
-85.768936 44.668049 -0.36374986 8.0493326
-85.832687 44.935715 -0.38226637 8.0430002
-85.726585 47.094032 -0.13725883 8.0240622
-85.782494 47.38076 -0.1132059 8.0161247
-85.840286 47.836258 -0.15493023 8.1794996
-85.739815 48.024254 -0.23635253 8
-85.700348 36.23317 0.1761888 8.0472507
-85.794319 37.115463 0.1260597 7.7346668
-85.839592 37.389622 0.11405856 8.1298332
-85.848488 44.283413 0.09006308 8.0465002
-85.671471 45.488556 0.14471574 7
-85.82579 46.553612 0.28455025 9
-85.691833 47.000984 0.23310167 8.5389996
-85.744591 47.412678 0.12633173 8.4401255
-85.834984 47.755844 0.091326445 8.8611889
-85.84639 48.154007 0.14865623 8.0415001
-85.85247 48.568432 0.31442118 8.1455002
-85.855347 35.058113 0.42703268 8.0235004
-85.80732 44.569839 0.59227067 8.1485004
-85.931305 44.920856 0.40434921 7
-85.717133 45.763775 0.45341724 8.1175003
-85.80072 46.29826 0.72262067 8.0380001
-85.679398 47.078468 0.78004962 9.7929993
-85.732552 47.400635 0.64321643 8.8965559
-85.859642 47.773914 0.71404964 9.2272062
-85.722153 48.333023 0.68124717 8.1125002
-85.644135 48.548599 0.48057649 8.1280003
-85.794945 45.417248 0.92091721 9.0220003
-85.771088 46.702393 1.101047 8.8417501
-85.779625 46.985188 0.97693944 9.2615948
-85.798203 47.42868 1.0332865 8.9760523
-85.767464 47.733398 0.97228616 9.5350647
-85.669876 36.390095 1.2433599 8.1079998
-85.722664 44.947239 1.2816271 9.0150843
-85.728729 45.380074 1.3934752 8.5415001
-85.72773 46.177288 1.4573916 8.6859169
-85.898117 46.61034 1.2967048 9.1622143
-85.833588 46.948135 1.4308386 9.3895006
-85.898163 47.39159 1.4173269 9.0618334
-85.842392 47.780323 1.4386687 9.6121845
-85.92334 48.017143 1.5251672 10.344833
-85.827728 44.990841 1.6313454 9.1735001
-85.799278 45.335892 1.8496003 9.2903757
-85.635925 45.818466 1.6926919 10.382833
-85.780083 46.280941 1.7415712 10.2268
-85.725716 46.538208 1.7774143 9.0514994
-85.676155 46.991165 1.7668434 9.9004374
-85.705009 47.471954 1.7987615 10.341
-85.793037 47.821732 1.7581141 10.314346
-85.83242 48.106903 1.694551 10.294357
-85.996284 45.986954 2.2142744 9.1379995
-85.667915 46.232563 2.3075454 10.019
-85.68737 46.545372 2.1663685 10.25
-85.672661 47.020752 2.2891753 9.487875
-85.80249 47.47385 2.171869 11.440166
-85.642464 47.666298 2.1200469 12.054
-85.798431 45.270138 2.7217505 9.0955
-85.815971 46.291615 2.5934534 10.540625
-85.763275 46.578072 2.6482558 10.333563
-85.759911 47.053871 2.6223438 10.2336
-85.835365 47.361252 2.5544159 10.694749
-85.781563 46.355789 3.0512266 12.37361
-85.767426 46.53455 2.9343987 11.62397
-85.975578 46.801807 2.9578736 10.049
-85.749878 47.251724 3.1424184 9.1499996
-85.792168 46.385067 3.262923 13.05825
-85.668571 46.580482 3.5335097 10.046
-85.869713 47.750164 3.4858968 10.062
-85.592644 56.73037 -3.6824217 7
-85.250854 58.908985 -3.6391082 7
-85.585869 54.472904 -3.2491741 7
-85.469437 57.325405 -3.4659784 7
-85.590485 58.176102 -3.5953259 7
-85.222115 50.706593 -2.8234723 7
-85.529686 50.989471 -2.8866477 7
-85.207298 56.56974 -2.8048613 5
-85.343384 57.576984 -2.8033192 3
-85.393753 57.827473 -2.835988 4.25
-85.426056 58.202827 -2.86989 3
-85.41021 58.58704 -2.8143981 2
-85.315796 59.093277 -2.8240108 1.5
-85.395279 59.403595 -2.8466444 2.125
-85.340218 59.780991 -2.8482573 2.8333333
-85.416595 32.110291 -2.5470161 7
-85.443924 32.893963 -2.4866829 7
-85.424706 49.360123 -2.4153194 5.5
-85.39019 49.798405 -2.4195933 5.25
-85.502663 50.232773 -2.5303774 5.5
-85.252731 50.528378 -2.4236813 5
-85.528275 51.085209 -2.4819682 5.4000001
-85.346329 51.436874 -2.5274398 5.2857141
-85.310699 51.939976 -2.534416 5.3333335
-85.46492 52.098122 -2.5935304 5.75
-85.381111 52.404663 -2.6120553 6
-85.357521 52.942101 -2.5695915 5
-85.460213 53.39896 -2.6234455 5
-85.412666 53.778202 -2.6245563 4.4000001
-85.361443 54.120846 -2.6385705 4.6666665
-85.357124 54.633972 -2.6293924 4.3333335
-85.354462 54.862007 -2.664938 4.1999998
-85.412689 55.457832 -2.7192724 4.5
-85.429153 55.762215 -2.7669845 4
-85.425987 56.156357 -2.7077665 3.5
-85.484535 56.632877 -2.7453611 3.4285715
-85.430969 57.024639 -2.7385445 3.5
-85.327873 57.381248 -2.7437859 3.7142856
-85.418846 57.816917 -2.7836008 3.2
-85.391388 58.171753 -2.7898557 2
-85.407539 58.530468 -2.7828596 3.1428571
-85.284073 37.087318 -2.1905291 7
-85.33091 45.455139 -2.0418313 6
-85.370728 45.711533 -2.0508227 6
-85.511337 46.139633 -2.111151 6
-85.528976 46.584244 -2.2721913 6.5
-85.444405 47.118221 -2.1301436 6.3333335
-85.529312 47.573853 -2.276552 6
-85.215744 47.633514 -2.2588177 7
-85.538506 49.140846 -2.3663743 6
-85.228516 49.23542 -2.3943701 5
-85.471931 49.722229 -2.3788233 5
-85.399567 50.59642 -2.3818259 5.6666665
-85.231453 50.820721 -2.3896117 6
-85.390594 54.191082 -2.2142704 7
-85.364326 55.870468 -2.2239308 7
-85.302895 56.320175 -2.2618914 7
-85.242119 42.209583 -1.9973427 8.1055002
-85.380127 43.446949 -1.8709129 7
-85.400894 44.134285 -1.9374398 6.1999998
-85.383965 44.650558 -1.9411796 6.1428571
-85.514801 44.952339 -1.9351448 6
-85.521339 45.351048 -1.9415566 6
-85.271744 46.542988 -1.9440545 7
-85.314774 47.280365 -1.9423975 7
-85.342667 31.958799 -1.3683299 7
-85.332092 40.149178 -1.3210732 7
-85.401741 41.087051 -1.3952044 7
-85.25045 41.541367 -1.5122722 7
-85.287003 41.68792 -1.5394653 7
-85.421371 42.068153 -1.5728295 7
-85.541458 44.417469 -1.5238249 7
-85.531006 44.971676 -1.4526862 7
-85.51619 45.307983 -1.5414393 7
-85.290833 30.713758 -0.82642686 7
-85.373627 37.426353 -0.92259312 7
-85.292862 37.967979 -0.97833997 7
-85.327415 38.283207 -0.99557644 7
-85.385658 38.595901 -0.98732305 7
-85.278267 39.150124 -1.0951699 7
-85.344025 39.544483 -1.1303085 7
-85.449844 39.790264 -1.1532967 7
-85.246208 40.177055 -1.1321646 7
-85.511345 43.899166 -0.93118906 8.0719995
-85.469421 44.642563 -0.90570414 8.0699997
-85.344849 31.160393 -0.782134 7
-85.465874 36.594395 -0.55923015 7
-85.473801 44.261501 -0.52533376 8.0594997
-85.383698 44.650181 -0.44986683 8.0479002
-85.420219 44.902393 -0.42994633 8.0424995
-85.40992 45.798096 -0.61144829 7.3776665
-85.486504 48.445557 -0.5105468 8.0544996
-85.493904 30.651129 -0.32614064 7
-85.38047 31.167305 -0.24877833 7
-85.439644 35.917393 -0.16986483 8.0671663
-85.44371 36.155849 -0.1390214 7.8750839
-85.515656 36.59684 -0.026068546 8.0539999
-85.426689 37.154602 -0.18714862 7.5664997
-85.489861 37.225498 -0.011624244 7
-85.587883 44.004936 -0.26766503 8.0109997
-85.400169 44.627129 -0.15619935 8.0489998
-85.418869 44.9622 -0.39561263 8.0365
-85.485466 45.530571 -0.11000311 8.1374998
-85.422905 46.988476 -0.10271966 8.0272779
-85.537399 47.375996 -0.15946585 8
-85.58535 47.840816 -0.1916945 8.0039167
-85.531883 36.0868 0.0079485783 8.0419998
-85.506706 36.607327 0.047253463 8.0535002
-85.514328 37.132435 0.10185395 7.7525001
-85.337593 37.445339 0.10910515 7.3794999
-85.399002 44.774719 0.14428632 8.0459995
-85.333115 45.131042 0.1041051 7
-85.346169 46.732479 0.15667082 8.5752497
-85.349983 47.017567 0.11331669 8.6129065
-85.438461 47.280205 0.1552214 9.0450716
-85.593506 47.869335 0.065043673 9.0710001
-85.534935 49.350616 0.24216735 8.1447506
-85.291428 36.830929 0.61470401 8.1339998
-85.51503 37.380905 0.72919804 8.1175003
-85.526871 45.948952 0.70018452 9.0264997
-85.305 46.27924 0.5873667 9
-85.363785 46.718647 0.60764134 8.8532
-85.401115 47.03022 0.69808978 9.1083097
-85.443382 47.310608 0.6436156 8.9226999
-85.446358 47.6217 0.76759601 9
-85.488998 36.565071 1.1033543 8.1094999
-85.494247 44.723099 0.92000723 8.092
-85.309853 45.733273 0.9774729 9.0481005
-85.354492 46.196487 1.0104278 9.0473995
-85.384842 46.691315 0.99134618 9.4080248
-85.465805 46.881554 0.90294302 9.3265743
-85.548721 47.531784 0.95769739 8.0395002
-85.598091 47.673183 0.8740747 10
-85.36161 49.024685 1.1076671 8.0305004
-85.383301 45.465733 1.4089624 9.0869999
-85.404579 45.817745 1.4633274 8.8824997
-85.444916 46.258129 1.4690518 9.2714996
-85.379784 46.684875 1.4700274 10.124474
-85.381676 46.87035 1.4426306 9.9573908
-85.370186 47.334202 1.4911457 8.1199999
-85.596367 47.619194 1.5886738 11
-85.578049 49.239399 1.5193917 8.0249996
-85.496506 45.014221 1.6971308 9.5930004
-85.413864 45.410172 1.8463639 10.0245
-85.336967 45.884411 1.8449577 9.8338995
-85.465775 46.197639 1.6863614 9.6722994
-85.440666 46.667122 1.7803341 9.6304073
-85.404274 47.045712 1.7428519 9.6616821
-85.395973 47.430328 1.7655026 9.8913889
-85.458168 47.745651 1.6951015 10.1475
-85.365669 48.940365 1.7633405 8.0223341
-85.348358 46.208008 2.1526587 10.847916
-85.439644 46.593292 2.1618094 9.2592278
-85.491745 46.874607 2.2745547 9.6480007
-85.395218 47.399677 2.1704264 11.47392
-85.511559 47.658752 2.1066058 11.8375
-85.400879 36.760242 2.4287109 7
-85.440605 45.808163 2.6067183 10.325714
-85.360138 46.210773 2.6734061 10.457334
-85.510254 46.639473 2.5734208 10.305722
-85.447197 47.054585 2.5465519 9.6487865
-85.435188 47.379124 2.4280233 10.0374
-85.366486 45.814411 2.9225187 10.8185
-85.346054 46.236553 2.9038391 10.201454
-85.417961 46.528446 2.9748871 12.065471
-85.440094 47.026688 2.9904251 9.1305008
-85.33329 47.280167 2.8841784 9.1453333
-85.314087 48.178429 2.9672279 9.1125002
-85.363571 48.503819 3.0346589 9.1160002
-85.401604 46.163773 3.3489614 10.0503
-85.314018 46.506569 3.4621403 10.04375
-85.404312 47.448872 3.2436585 9.1335001
-85.159859 59.674454 -3.6648958 7
-85.161636 56.497211 -3.469861 7
-85.03656 31.573957 -2.8031092 7
-85.094528 57.537811 -2.8097844 4
-84.97126 57.897236 -2.8525753 3
-85.01828 58.231915 -2.807992 3.5
-84.974289 58.514664 -2.8075905 2.75
-84.980949 59.060165 -2.8333144 2.6666667
-84.943726 59.454105 -2.8196039 1.4
-85.116241 59.861977 -2.8635414 2.4000001
-85.088661 33.135738 -2.5632961 7
-84.891815 49.160278 -2.7012651 7.5557499
-84.979347 49.348938 -2.4179058 5
-84.986 49.798721 -2.4450252 5.5714288
-85.158188 50.06525 -2.4926784 5
-85.004372 50.611469 -2.4750385 5
-84.914291 50.976742 -2.4582353 5.5
-85.033867 51.453094 -2.4841051 5.5
-84.99955 51.722046 -2.5562599 5.6666665
-85.078667 52.160301 -2.5843787 5.4000001
-84.89534 52.646942 -2.6350694 5.6666665
-85.150154 52.972847 -2.5600221 5
-84.815689 53.21661 -2.5736635 5
-84.985252 53.767941 -2.61252 4.5555553
-85.052963 54.227825 -2.7036853 5.5
-84.94886 54.688087 -2.6402087 4
-85.030357 55.036522 -2.6854482 4.5
-85.032898 55.30114 -2.7313743 4.75
-85.023369 55.831966 -2.6989205 4
-85.062317 56.230801 -2.7284958 3.625
-84.975853 56.546543 -2.7393231 3.4000001
-84.849289 57.045547 -2.7729912 4
-84.962311 57.393623 -2.7581568 3.4285715
-85.047623 57.895901 -2.7758679 2.5
-85.004074 58.110989 -2.7753136 2
-85.003952 59.033089 -2.7985637 4
-84.992622 45.069061 -2.0984666 6
-84.930855 45.518673 -2.0478237 6
-84.959953 45.64122 -2.0790052 6
-85.085457 46.204712 -2.1463211 6
-84.819481 46.503384 -2.2162836 6
-84.84549 47.130234 -2.1971741 6
-85.053467 47.259392 -2.2249918 6
-84.994492 47.840805 -2.3019452 6
-85.005531 48.834763 -2.3503923 6
-84.886421 49.568424 -2.3811665 5
-85.120956 49.694309 -2.3846855 5
-84.873482 50.519154 -2.3908195 5
-84.854294 55.110909 -2.2692461 7
-85.113792 41.588974 -1.812049 7
-84.802162 42.186501 -1.6554487 8.0970001
-85.032539 42.492973 -1.703234 7
-84.983406 42.848969 -1.7557446 7
-84.928101 43.929482 -1.8826662 6.5
-84.950615 44.18964 -1.9426335 6
-84.952103 44.584232 -1.9417822 6
-85.070496 45.023392 -1.9658256 6
-85.158005 45.293411 -1.9397018 6
-84.856148 48.136829 -1.9814332 7
-85.147896 39.703224 -1.2172021 7
-85.021278 40.129475 -1.2508745 7
-85.019829 40.427711 -1.2301935 7
-85.035027 40.952713 -1.3661144 7
-84.833122 42.113487 -1.5948117 7
-85.06414 42.967182 -1.3311285 7
-85.121399 44.093925 -1.4319562 7
-84.812424 31.007994 -0.81487083 7
-85.057846 36.529449 -0.91145158 7
-85.10994 37.322289 -0.90742135 8.0695
-85.081963 38.30772 -1.0462598 7
-84.948952 38.737007 -1.1017127 7
-84.992172 39.064152 -1.0956182 7
-85.046249 39.488491 -1.090633 7
-84.96788 39.739399 -1.1450917 7
-85.090523 32.595375 -0.71029985 7
-85.06823 34.54142 -0.70364064 7
-84.957535 37.654675 -0.53195196 8.0459995
-85.187302 45.886425 -0.77454102 8.0489998
-85.056763 31.287155 -0.27143699 7
-85.090179 37.338676 -0.23595624 7.5666871
-85.077538 44.759556 -0.38855061 8.0369997
-85.105766 44.89465 -0.16355306 8.0272503
-85.067482 45.825253 -0.24674088 8.1274996
-85.026649 46.688362 -0.034525767 8
-85.06015 46.935894 -0.10342342 8.0150003
-84.836227 47.677654 -0.088557847 8.0100002
-84.80513 37.139774 0.17194632 8.125
-85.011505 37.262501 0.06538225 8.1265001
-84.939903 37.945004 0.19482586 7
-85.191544 45.436787 0.23159407 7
-85.030464 46.266224 0.3762635 8.6966667
-84.988251 46.668007 0.12403822 8.4267969
-85.065468 46.917439 0.18173714 8.8861418
-85.103363 47.284 0.21618308 9.0337505
-84.851448 32.929859 0.44319645 8.1464996
-85.01461 45.698818 0.57624847 8.8714285
-84.996368 46.314789 0.63201129 8.0389996
-85.003441 46.571243 0.62652916 8.5916109
-85.064545 46.974976 0.59556341 9.0036869
-85.08564 48.303959 0.4496049 8.1494999
-84.991318 45.846748 0.98316425 8.9431505
-85.035568 46.191341 1.058117 9.1019163
-85.118202 46.57859 1.0661495 9.3793573
-85.129501 46.98629 0.92657584 8.5524998
-84.902817 47.230724 0.94857144 8.1105003
-85.061241 45.457523 1.3817211 9.1619997
-85.02343 45.702129 1.4342006 9.4546671
-85.048157 46.219391 1.3232855 9.5058336
-85.044685 46.587872 1.4307061 9.7230186
-85.101379 46.938335 1.4730577 9.720212
-85.012421 47.273342 1.4571456 8.0255003
-84.997116 48.194221 1.5699998 8.0240002
-84.950233 45.776581 1.8974687 10.52875
-84.946724 46.301743 1.8119438 10.386167
-85.063095 46.685913 1.7208679 10.225933
-85.119781 46.847359 1.6913577 10.006001
-84.892311 48.229679 1.8276136 9.0415001
-85.004166 45.84333 2.2261624 10.021
-84.918457 46.233704 2.2803354 11.033524
-85.063866 46.51902 2.2354395 9.5780001
-84.970848 47.369976 2.1450045 9.9378004
-85.089256 47.633671 2.1105564 9.060833
-85.066879 45.895451 2.6641569 9.7146664
-85.017998 46.188522 2.5267735 10.441401
-84.884468 46.463425 2.4244671 9.0389996
-84.870239 47.302238 2.6933205 9.1409998
-85.178391 48.284225 2.6897569 9.1140003
-85.043762 46.317047 2.9382918 11.761625
-85.115562 46.459099 3.0095389 11.4348
-85.13546 47.434532 3.1642892 9.033
-85.127144 45.960144 3.3976743 9.0600004
-85.190468 47.602406 3.9563091 9.1199999
-84.727173 55.06395 -3.324548 7
-84.405441 56.551151 -3.3829057 7
-84.551361 58.728325 -3.5672367 7
-84.643387 57.188953 -2.8161767 6
-84.575851 58.344524 -2.8034379 2
-84.710785 58.557011 -2.8575203 3.5
-84.633423 59.005909 -2.8302977 2.2857144
-84.63575 59.421059 -2.8272383 2.5
-84.559509 59.792809 -2.8489068 2.4000001
-84.678436 47.591484 -2.4979959 6
-84.600571 49.439816 -2.4157338 5
-84.640862 49.810875 -2.459038 5
-84.587746 50.18586 -2.4672732 6
-84.650642 50.664707 -2.4527636 5
-84.5914 50.870758 -2.4189138 5
-84.590141 51.357468 -2.4537628 6
-84.539856 51.790359 -2.5622661 5.4000001
-84.632042 52.253571 -2.5528772 5
-84.723503 52.536499 -2.5802131 5
-84.528503 52.85437 -2.6815517 6
-84.48539 53.355873 -2.6197271 5.25
-84.614632 53.828938 -2.6085751 4.2857141
-84.568832 54.210415 -2.644891 4.3333335
-84.686356 54.554234 -2.695821 4.6666665
-84.581543 54.929932 -2.6718135 4.3333335
-84.625946 55.314667 -2.710453 4.5
-84.642624 55.889992 -2.720319 4.4000001
-84.59153 56.1884 -2.7041588 3.2857144
-84.665123 56.624485 -2.7432256 4
-84.560425 57.043087 -2.7406828 3.5714285
-84.736549 57.285255 -2.7882509 3.5
-84.545097 57.863575 -2.7622473 2.8571429
-84.712959 58.075253 -2.7745531 2
-84.696281 59.484348 -2.6939423 4.3333335
-84.580383 59.887589 -2.4960442 7
-84.725304 37.458317 -2.360496 7
-84.527161 44.906284 -2.0083637 6
-84.510674 45.533897 -2.0469198 6
-84.551147 45.666443 -2.0931282 6
-84.704041 46.203415 -2.1504889 6
-84.719894 46.516014 -2.1591752 6.5
-84.707336 46.890228 -2.0844498 7
-84.604187 47.335953 -2.2456369 6
-84.475815 48.13002 -2.3269508 6
-84.523964 49.407806 -2.3903081 5
-84.619179 50.380035 -2.3935807 5
-84.557724 55.322681 -2.1422639 7
-84.641876 57.096889 -2.3227842 7
-84.664871 57.366318 -2.3465061 7
-84.415428 42.555199 -1.7287717 7
-84.453766 43.346397 -1.8031317 7
-84.570999 43.930336 -1.9333755 6
-84.573563 44.220535 -1.9435524 6
-84.57946 44.519283 -1.9438413 6
-84.761749 45.064201 -1.98195 6
-84.79332 45.329311 -1.6341395 7
-84.427216 46.85873 -1.9963319 7
-84.677635 47.342915 -1.8589921 7
-84.62159 40.157246 -1.3490297 7
-84.443909 40.530388 -1.2852323 7
-84.665154 41.398701 -1.5315526 7
-84.414375 30.517395 -0.8464033 7
-84.567848 34.18885 -1.1037284 8.0644999
-84.613266 37.747223 -0.94937092 7
-84.581482 38.249187 -1.0244321 7
-84.724197 38.56514 -0.99685627 7
-84.750832 39.020157 -1.0857967 7
-84.675346 39.485104 -1.1345835 7
-84.570297 39.7882 -1.1594175 7
-84.786583 40.174561 -1.1322024 7
-84.723602 30.103153 -0.68095589 7
-84.761063 30.940819 -0.78712004 7
-84.524635 31.224043 -0.5716399 7
-84.418205 30.471581 -0.37642214 7
-84.67852 33.038628 -0.23708515 7
-84.719955 46.332176 0.28020823 8.6444988
-84.709633 46.596832 0.1897786 9.0392494
-84.720245 45.06144 0.4211494 8.0474997
-84.645271 45.91404 0.43991876 8.0559998
-84.79805 46.288414 0.46789816 9
-84.743477 46.563549 0.61275691 9.0168333
-84.765831 48.655113 0.54925811 8.1120005
-84.731583 45.837357 1.0619439 10.0355
-84.769936 46.24498 1.0635543 10.034
-84.45224 47.549049 1.0357418 9.0550003
-84.748138 47.910027 0.83515739 8.1145
-84.794342 49.035263 1.0959129 9.0544996
-84.755493 46.218632 1.2766486 10
-84.777046 46.766602 1.5639275 10.025
-84.448944 47.718887 1.3753771 9.0497503
-84.726006 46.54636 1.6423103 10.0245
-84.521301 47.646774 1.6822019 9.1470003
-84.712769 46.201199 2.1343882 11.360166
-84.696541 46.226383 2.4958806 11.53125
-84.772743 47.332199 2.6450737 9.1134996
-84.605385 47.41259 2.9840455 9.1280003
-84.120071 54.104843 -4.0489221 7
-84.128242 58.033112 -4.2265358 7
-84.124802 58.112553 -3.8313899 7
-84.23687 59.47126 -3.6084206 7
-84.365448 52.455399 -3.0726118 7
-84.373718 54.776413 -2.8201816 6
-84.098633 55.110611 -2.8441842 6
-84.273102 57.550064 -2.8225675 3
-84.275604 58.193199 -2.8625832 4
-84.210213 58.53231 -2.9915066 6
-84.25042 58.990585 -2.8632717 2.6666667
-84.23558 59.32774 -2.8210163 1.2857143
-84.224129 59.859142 -2.8472056 2.875
-84.057495 32.223045 -2.5399249 7
-84.383919 34.308018 -2.597471 7
-84.327454 48.164314 -2.7086334 7
-84.166801 49.447952 -2.4279141 5
-84.304779 49.680588 -2.4778891 5
-84.150757 50.041897 -2.4632187 5.6666665
-84.198402 50.462566 -2.486434 5.6666665
-84.156555 50.847675 -2.4499745 5
-84.212463 51.423782 -2.4662752 6
-84.184807 51.733131 -2.5281186 5.125
-84.13501 52.13039 -2.6116891 5.5714288
-84.205528 52.614628 -2.5654545 5
-84.229347 53.404636 -2.6827881 5.8000002
-84.182991 53.758064 -2.5990818 4.25
-84.244118 54.304489 -2.6471698 4.1999998
-84.147522 54.593605 -2.6879106 4.8000002
-84.178886 55.027809 -2.6846688 4
-84.16404 55.355049 -2.6844122 4
-84.270256 55.757771 -2.7287331 4.5
-84.21006 56.233185 -2.6989205 3.6666667
-84.19281 56.516098 -2.716387 3.5999999
-84.237778 57.035553 -2.7571549 3.75
-84.096436 57.466446 -2.7493391 4
-84.035332 57.848621 -2.7755136 3
-84.250267 58.213161 -2.7817931 2.5555556
-84.170502 58.561111 -2.7943273 3.25
-84.084953 58.836777 -2.7883682 3.3333333
-84.137054 44.906731 -2.0187392 6
-84.133972 45.563065 -2.0633543 6
-84.184128 45.774414 -2.1046667 6
-84.178238 46.26511 -2.175483 6
-84.19278 46.981529 -2.2513547 6.5
-84.349899 47.333412 -2.2229586 6
-84.082901 48.286678 -2.3470128 6
-84.391006 48.606647 -2.3317811 6
-84.27198 49.540421 -2.3854578 5
-84.048126 50.381046 -2.3838487 5
-84.318977 50.438206 -2.3850608 5
-84.245506 51.576843 -2.2329993 7
-84.345703 55.707428 -2.2350342 7
-84.204147 56.334156 -2.297971 7
-84.372818 59.395271 -2.3637669 7
-84.245438 44.259975 -1.9428806 6
-84.153282 44.501663 -1.9367399 6.1666665
-84.369133 45.052525 -1.9737455 6
-84.083862 46.884506 -1.9372578 7
-84.257645 48.342533 -1.9309008 7
-84.153404 40.301907 -1.2439972 7
-84.095139 40.911842 -1.3749313 7
-84.112549 32.678139 -1.1454087 8.0684996
-84.303421 37.336472 -0.99983591 8.0559998
-84.058601 37.688301 -0.96672767 7
-84.135117 38.356033 -1.0750163 7
-84.261917 38.612576 -1.0640764 7
-84.277336 39.08506 -1.0884122 7
-84.276047 39.460556 -1.110024 7
-84.174446 39.834072 -1.1577041 7
-84.330498 40.164375 -1.1322818 7
-84.02919 30.2684 -0.658871 7
-84.02301 36.344604 -0.41201454 7
-84.175247 36.760124 -0.52140868 7
-84.200539 37.563644 -0.48186997 7.5292501
-84.139091 39.927856 -0.45400223 8.0614996
-84.047386 40.192627 -0.50802928 8.0625
-84.061226 40.58342 -0.57222688 8.0622501
-84.262009 48.021515 -0.54277331 8.0454998
-84.390984 30.415117 -0.36523071 7
-84.39669 30.926596 -0.28389162 7
-84.190445 37.18858 -0.37288538 8.1315002
-84.077103 40.25618 -0.29354239 8.0515003
-84.13298 42.148247 0.35966581 8.0749998
-84.275398 45.071941 1.826195 8.0240002
-83.836594 58.873547 -3.872757 7
-83.802864 52.595352 -3.2168 7
-83.886543 52.01012 -3.0205135 7
-83.644035 53.820602 -3.1542337 7
-83.940079 55.49527 -2.8598552 6
-83.810638 55.896301 -2.8737657 6
-83.65876 56.287247 -2.8897357 6
-83.815567 57.348236 -2.804966 3
-83.904388 57.988701 -2.8039794 4.5
-83.822525 58.084236 -2.8006833 2
-83.819496 58.586353 -2.8229148 3.3333333
-83.812675 59.044941 -2.8380916 3.3333333
-83.80304 59.352764 -2.8399963 2.2666667
-83.830894 59.879208 -2.9195278 2.6666667
-83.671631 32.851112 -2.7946155 7
-83.930862 34.691925 -2.4690263 7
-83.784416 41.041786 -2.5105259 7
-83.812431 47.56263 -2.579308 7
-83.792839 48.410164 -2.7844794 7
-83.764114 49.46468 -2.4494143 5
-83.798866 49.621185 -2.4717698 5.5
-83.758209 50.117725 -2.467067 5
-83.884674 50.641689 -2.4948382 5.6666665
-83.86689 51.07164 -2.4920039 5.5
-83.758324 51.36058 -2.5200868 5
-83.720734 51.911251 -2.5239916 5
-83.791977 52.308178 -2.5649426 5.3333335
-83.863319 52.677109 -2.6775107 6
-83.769348 52.999638 -2.6423724 5.3333335
-83.611824 53.283401 -2.584327 5
-83.828201 53.828972 -2.6391594 4.5555553
-83.750351 54.185589 -2.65558 4.5
-83.864731 54.576725 -2.6802402 4
-83.816116 54.896847 -2.6933293 4.5
-83.797646 55.427582 -2.6954486 4.3333335
-83.818657 56.309124 -2.7059114 3.4285715
-83.772224 56.641724 -2.7460101 4.1666665
-83.832672 56.849571 -2.7368841 3.4285715
-83.940132 57.366955 -2.7485976 3
-83.828171 57.793514 -2.76197 3.5999999
-83.846069 58.076096 -2.7595029 2.5
-83.724625 58.75869 -2.7703297 2
-83.685623 59.611881 -2.4741478 7
-83.715553 42.52356 -2.098007 8.1059999
-83.684174 44.582512 -2.173758 6
-83.862709 45.0023 -2.0178599 6
-83.904808 45.312607 -2.0230427 6
-83.782738 45.730396 -2.0881104 6
-83.851593 46.002937 -2.2571127 7
-83.932098 46.590858 -2.1596043 6
-83.856125 47.463501 -2.2638521 6
-83.700912 48.450928 -2.3667681 6
-83.729782 48.833309 -2.3639376 6
-83.780319 49.478832 -2.3914053 5
-83.658691 50.19141 -2.3889303 5
-83.769951 50.851128 -2.2092316 7
-83.643715 53.641312 -2.3109877 7
-83.780296 54.605251 -2.2395008 7
-83.865898 42.387527 -1.7132699 8.0974998
-83.967705 42.582485 -1.6658224 7
-83.804482 42.977974 -1.8008481 8.0885
-83.874756 43.620579 -1.8994157 7
-83.875572 44.283901 -1.9436084 6
-83.78688 44.533127 -1.9360279 6
-83.791321 45.0984 -1.9525669 6
-83.819626 46.295395 -1.9353553 7
-83.833008 32.322403 -1.320129 7
-83.737885 40.168655 -1.2468587 7
-83.680618 40.99234 -1.3718755 7
-83.983925 41.463348 -1.5096945 7
-83.678444 42.627476 -1.5993774 7
-83.960922 43.446198 -1.3350188 7
-83.702438 34.888214 -1.0655172 8.0640001
-83.699089 37.541527 -0.9519664 7
-83.82959 39.010387 -1.1006355 7
-83.796173 39.474178 -1.1272724 7
-83.723976 39.840363 -1.1652491 7
-83.879494 40.128464 -1.1321787 7
-83.653252 30.124262 -0.6385867 7
-83.670654 30.765602 -0.79087824 7
-83.982185 31.06711 -0.61301166 7
-83.725586 36.869663 -0.5157575 7
-83.909004 39.965927 -0.68094915 8.066
-83.939209 40.230259 -0.64533693 8.0668335
-83.778648 40.689781 -0.727965 8.0687504
-83.791016 40.858688 -0.5869171 8.0634995
-83.683571 41.487171 -0.51687121 8.1322498
-83.883209 40.335297 -0.22975147 8.0460005
-83.841621 40.629845 -0.28681621 8.0501423
-83.734238 40.901482 -0.30668333 8.0640717
-83.76413 41.306931 -0.32287127 7.8908997
-83.991394 41.673138 -0.18004049 8.1285
