# .PCD v0.7 - Point Cloud Data file format
VERSION 0.7
FIELDS x y z intensity
SIZE 4 4 4 4
TYPE F F F F
COUNT 1 1 1 1
WIDTH 1246
HEIGHT 1
VIEWPOINT 0 0 0 1 0 0 0
POINTS 1246
DATA ascii
-68.271584 0.93551707 4.0533319 11.1535
-68.274597 1.5921257 4.2888479 11.1555
-68.216599 1.7679722 4.1779656 9.9889288
-68.123634 2.5959795 4.2033329 10.85925
-68.196976 3.0436792 4.1697712 11.486428
-68.17099 3.3576081 4.2223663 11.745334
-68.204987 3.7610085 4.1191392 11.4731
-68.162201 4.1626191 4.1383443 10.512501
-68.284882 5.0509691 4.1348095 11.073
-68.026695 5.8771958 4.3015351 10.0615
-68.388145 6.7117014 4.3405943 11.1505
-68.205307 7.0149026 4.3604474 10.603625
-68.301575 7.4116173 4.327457 11.1495
-68.161263 7.9165597 4.2173309 11.1465
-68.203949 8.7437754 4.2592158 12.086
-68.143639 2.2984784 4.6535792 11.716834
-68.172859 2.6185234 4.6532922 11.593318
-68.247612 2.959609 4.5015726 11.369166
-68.034401 3.3992217 4.6801777 11.369834
-68.218605 3.7208831 4.5452762 11.032001
-68.187286 4.0523248 4.5337977 11.023251
-68.39856 6.5073462 4.4607387 11.0525
-68.292511 7.1516895 4.499958 11.152
-68.280647 7.2944765 4.4220686 11.144751
-68.232437 7.9036374 4.5543876 10.136
-68.122726 8.5087576 4.4526086 12.0545
-68.200615 0.60927069 5.0532317 11.01325
-68.225693 0.91506451 5.0081153 11.683
-68.170578 1.4596916 5.0492616 12.024
-68.180092 2.3181081 4.9898233 12.028
-68.183746 2.6441107 4.9242048 11.407667
-68.087471 2.931072 5.0329003 11.041167
-68.174591 3.5849137 5.15415 12.015
-68.265434 3.9019592 5.1233554 12
-68.331985 4.9949579 5.0405931 11.6465
-68.393669 8.4190283 5.1255798 10.0045
-68.220329 8.935133 5.1293244 10.0045
-68.286446 0.14132516 5.4733081 12.4446
-68.168785 0.60340846 5.5031152 12.785376
-68.235924 0.9236601 5.416625 11.745714
-68.259163 1.466624 5.4034166 11.01
-68.208466 1.7328335 5.3232479 12.015166
-68.19474 2.1824367 5.5450897 11.02
-68.149857 2.5682445 5.4056549 12.218454
-68.153885 2.9445248 5.5271173 12.702001
-68.224106 3.4884417 5.4315133 12.5116
-68.266731 3.8129528 5.2976589 12.478168
-68.306488 4.0508003 5.3791728 12.126
-68.127296 6.1942406 5.4680691 10.114166
-68.126785 6.5356202 5.4742632 10.113299
-68.249222 6.896853 5.421463 10.115
-68.120377 7.2554717 5.4945269 10.347876
-68.212387 7.8516121 5.5374417 11.4545
-68.24894 8.5522242 5.4532967 12.145499
-68.198296 9.0214491 5.3194056 11.515285
-68.02813 9.6585712 5.4801435 12.168
-68.193794 0.20854248 5.7310052 12.554125
-68.137787 0.57501036 5.7489848 13.055751
-68.237762 0.95191324 5.7575407 13.3825
-68.208908 1.391469 5.7373757 12.4381
-68.111984 1.6735902 5.822978 13.298
-68.175453 2.3912616 5.6892848 12
-68.258629 2.6052101 5.6588669 12.443937
-68.284187 3.0232897 5.7734466 11.952084
-68.174988 3.3351951 5.9606271 11.6005
-68.186348 3.6945143 5.6731701 11.77675
-68.23983 4.2814708 5.8784904 13.1448
-68.187508 4.4194303 5.9005165 11.1465
-68.045059 1.1876283 6.2592235 14.072
-68.210693 1.597798 6.3318353 13.1565
-68.169907 1.858111 6.1817369 12.511571
-68.155602 2.2065058 6.1980562 12.8845
-68.08503 2.588212 6.1768289 13.0925
-68.139366 2.9261026 6.2424417 12.02425
-68.265915 3.5429008 6.0470252 12.1615
-68.234848 3.6176317 6.1315694 12.1545
-68.233307 4.2187142 6.1916533 11.127249
-68.275192 4.4989076 6.2522168 10.1085
-68.291611 8.4057207 6.1494217 10.0055
-68.214317 0.5471071 6.745645 14.813832
-68.312546 0.92709398 6.7648001 13.808583
-68.139343 1.2937952 6.5110965 14.15125
-68.009735 1.8316768 6.5628452 14.151
-68.2006 2.2286007 6.7157102 12.07925
-68.20343 2.5647316 6.6799722 13.316401
-68.168518 2.9401367 6.7088413 13.782333
-68.079094 3.3408713 6.4905782 11.1215
-68.15184 3.7932305 6.6937652 14.1485
-68.353325 4.3439045 6.7390656 10.005
-68.314392 8.7049284 6.4047651 10.107
-68.203552 0.19140878 6.9814506 13.377874
-68.221596 0.50791597 6.9879336 12.925888
-68.211296 1.0341688 6.9588027 13.703723
-68.204361 1.4789598 6.9806437 14.519813
-68.149147 1.743154 7.0347438 13.900374
-68.125198 2.1733568 7.0212989 12.623
-68.165611 2.6452892 6.9010134 11.197
-68.268166 2.9035785 6.99828 12.60675
-68.191811 3.6142347 6.8036361 13.159
-68.18969 1.4998353 7.3964477 13.147667
-68.370262 1.6341493 7.3145647 12.779667
-68.094917 2.0623302 7.457623 11.605
-68.197975 2.6621644 7.3030553 13.1105
-68.039452 1.1083282 7.7953644 12.0615
-68.10363 1.2427888 7.6481881 12.068
-68.209084 2.9431427 7.6538706 13.1645
-68.326508 7.1281977 7.7483807 15.0555
-68.392151 7.2309046 7.89288 15.06
-68.244049 0.18847762 8.1591845 11.5142
-68.044403 0.6498217 8.1447811 12.11625
-68.083527 1.0038095 8.0666075 12.122
-68.152496 1.4279391 8.2755308 11.360125
-68.059494 2.0176187 8.1891546 11.109
-68.364563 0.47408187 8.4298611 11.107
-68.018349 1.3870205 8.521101 12.1195
-68.246002 6.3912988 8.683116 13.0575
-68.375923 7.5130377 8.467186 11.0055
-68.396629 7.3358698 9.0546541 14.1195
-68.206734 6.6974196 9.7079058 12.0055
-68.200462 6.9852533 9.9324322 12.740166
-68.155945 7.3225484 9.7264585 13.115
-68.312294 6.7276869 10.080536 13.11
-67.674019 0.11326213 -2.0300364 6
-67.644806 0.92156023 -2.0521686 6
-67.682671 27.91383 -2.0990839 7
-67.82235 19.064335 -1.7533046 7
-67.8759 21.395172 -1.7711805 6
-67.937126 29.56374 -1.863439 6
-67.958351 2.0998461 -1.4834553 6
-67.64679 24.966948 -1.2446289 6
-67.933731 25.78599 -1.2698866 6
-67.674957 26.465246 -1.5405633 7
-67.766853 27.644869 -1.5137063 7
-67.78569 5.6279469 -0.85104287 7
-67.656258 8.036293 -0.82912558 6
-67.643677 8.6438427 -0.88611263 6
-67.858849 10.079634 -0.86176103 7
-67.878365 10.598164 -0.92241025 7
-67.872398 11.000729 -0.83098119 7
-67.76709 11.35144 -0.88217169 6
-67.674393 11.630424 -0.95507163 7
-67.720856 12.287931 -0.88981962 6.3333335
-67.932884 12.787994 -0.91884118 6
-67.666794 13.274744 -0.87967616 7
-67.823959 13.927557 -0.87457699 6.3333335
-67.890579 14.317947 -0.9378376 7
-67.609909 14.740345 -0.90042126 7
-67.864937 17.567389 -1.1487135 7
-67.730629 18.497938 -0.93280292 6
-67.842613 19.336611 -1.0243576 6.3333335
-67.969269 25.724848 -1.1124874 6.5
-67.651482 28.422859 -1.1997977 7
-67.858765 0.26155871 -0.41535547 7
-67.795868 0.54180652 -0.47438204 5
-67.814972 0.92395604 -0.53100634 5.5
-67.835426 2.7052009 -0.46636501 6.5
-67.957535 3.453407 -0.49063462 6
-67.910118 5.8910909 -0.55472016 7
-67.624947 6.8323154 -0.6297375 6
-67.917053 13.733428 -0.67069072 7
-67.997749 15.136045 -0.73474181 7
-67.660477 25.242966 -0.51841897 7
-67.745552 26.796289 -0.50364101 7
-67.707336 2.0488815 -0.39536735 7
-67.850502 15.518795 0.13656938 7
-67.948532 1.4084419 0.60329503 8.0749998
-67.889351 8.0034122 0.47612119 7
-67.990227 1.501963 0.94179422 8.0745001
-67.975189 2.2979147 0.94065583 8.0074997
-67.904282 2.6001546 1.0790136 8.5
-67.790688 1.4346969 1.4372182 8.0535002
-67.891922 2.6124659 1.2329062 9
-67.787834 1.4033562 1.7145834 8.0483751
-67.847031 2.5546305 1.9337655 10.058
-67.707039 7.0063915 1.6070638 9.0132504
-67.980095 0.82758176 2.1295722 9.0089998
-67.662537 2.3678913 2.148046 9.0085001
-67.846809 2.6350877 2.099694 9.7482338
-67.934143 6.1645074 2.1615374 10.0425
-67.697166 6.5382948 2.3031662 9.5502501
-67.720306 7.0778384 2.2168777 9.8949165
-67.850189 7.2011452 2.167407 10.0635
-67.861839 2.2777655 2.4022739 9.0089998
-67.995705 7.7335019 2.7613769 10.0105
-67.79406 1.4788337 2.9394462 9.7325001
-67.969444 1.6432594 2.9270232 11.0635
-67.727753 2.2479756 3.0914867 10.27225
-67.932396 2.6669161 3.056834 10.572888
-67.870728 2.987406 3.1342781 10
-67.780228 3.3000927 3.0772667 9
-67.783722 3.6702099 2.9397352 11
-67.706085 7.1497173 3.0392554 10.0535
-67.81282 7.3207946 2.8652132 9.5105
-67.910202 0.59802794 3.5567086 10.646749
-67.939285 2.2378695 3.4331818 10
-67.879662 2.579375 3.3133466 10.431101
-67.825607 3.2438958 3.2877619 9
-67.928032 3.7848723 3.2802467 9.007
-67.711899 4.3749599 3.3375008 9.0065002
-67.707756 4.6582241 3.5558774 11.0125
-67.658073 4.8743691 3.5671027 10.133334
-67.839363 5.7155132 3.5551894 9.0535002
-67.602638 6.1998234 3.4244194 9.0430002
-67.736099 6.5480547 3.569056 9.6560001
-67.803108 7.0766916 3.4256988 10.515901
-67.831924 7.3041325 3.3592298 11.0645
-67.704781 7.6805782 3.2057278 11.0495
-67.936028 9.0776691 3.5464027 10.0115
-67.933571 0.1512206 3.764343 11.14
-67.898079 0.59317183 3.7615902 11.14025
-67.956917 1.1127476 3.6941335 11.1135
-67.877457 1.3399384 3.8855953 11.15075
-67.838608 1.8575279 3.9489233 9.0677996
-67.666 2.2897604 3.9162774 10.58075
-67.753876 2.6019216 3.8813946 11.4376
-67.920197 3.5659916 3.9030023 10.5585
-67.980606 3.8953822 3.9754553 12.052
-67.81102 4.1332359 3.9810708 12.02575
-67.679504 4.6364341 3.7041106 10.6015
-67.671921 4.8508773 3.6468289 10.122
-67.746124 6.5884948 3.706372 10.354626
-67.896309 8.9106731 3.7559929 10.01025
-67.876404 1.9004444 4.118546 9.016428
-67.754135 2.2199545 4.169167 10.167
-67.735504 2.5837283 4.0903592 11.5
-67.991318 2.9017184 4.2089071 12
-67.974258 3.5587666 4.3177648 10
-67.821419 3.7149208 4.2535095 11.50975
-67.793129 4.1538434 4.1812582 11.2311
-67.76461 7.6397667 4.3950033 11.1505
-67.737968 2.2421217 4.5404234 10.243601
-67.914154 2.5990098 4.5832381 11.5
-67.761276 2.9902506 4.5697289 10.504499
-67.86647 3.3879087 4.5443263 10.775875
-67.743034 3.8099384 4.6852369 11.53325
-67.77639 6.0432606 4.4014907 10.072
-67.756439 6.6769772 4.4970942 9.1079998
-67.854172 7.3882771 4.5687251 10.9482
-67.849892 7.7632723 4.4364805 11.140875
-67.861214 9.0928802 4.485446 12.054
-67.867554 0.055386264 5.1340551 10.1275
-67.741623 0.61484611 5.1470027 10.126332
-67.7174 1.5975971 4.8402314 10.0705
-67.970619 1.684605 5.1321921 12.018
-67.74881 2.1799006 5.0294795 10.426667
-67.937439 2.6498487 5.0072532 12.066125
-67.834518 2.9226589 5.0872879 11.58025
-67.854706 3.4280517 4.9921818 11.817375
-67.826935 3.7031627 4.9508529 13.017334
-67.676643 4.4741516 5.1039667 11.07975
-67.94651 9.1897087 5.1513562 10.0035
-67.887962 0.41156408 5.2605028 10.125
-67.879272 1.0115954 5.4405808 10.103571
-67.958694 1.3652939 5.4562964 10.751834
-67.666794 1.7887344 5.4083347 11.0125
-67.775894 2.1254952 5.4053736 10.71875
-67.889145 2.533191 5.4377432 12.48425
-67.792145 3.055635 5.3756609 11.06525
-67.785049 3.2145839 5.5240774 11
-67.685555 4.3104787 5.3795934 12.800834
-67.748734 4.543056 5.4064856 11.641001
-67.932709 6.5529094 5.4775004 10.11475
-67.927689 7.0284734 5.509582 10.11325
-67.935295 7.496213 5.4302974 10.115499
-67.92527 7.9616227 5.5591097 11.0585
-67.940941 8.2391453 5.4190078 10.294001
-67.896751 8.6707449 5.3818192 11.6852
-67.895172 8.9539175 5.4808927 12.144501
-67.75528 9.2289276 5.2385259 12.145
-67.886276 1.4806681 5.7885294 12.233
-67.795929 1.792431 5.7820511 12.817278
-67.720184 2.1611435 5.7579055 12.705334
-67.695328 2.4708681 5.6883898 12
-67.661949 2.9012213 5.79531 11.02025
-67.760292 3.4361115 5.7327533 12.4155
-67.640656 3.7612562 5.6322646 12.1585
-67.813751 4.2115798 5.7717738 13.138333
-67.964546 9.4676285 5.7055321 12.1645
-67.912033 1.5248797 6.2083044 14.0705
-67.838158 1.6861281 6.1142945 13.389667
-67.75975 2.2279534 6.2671828 11.268072
-67.87674 2.567858 6.2498078 12.774167
-67.783073 3.0136743 6.2636318 12.295125
-67.753357 3.4620106 6.3150539 13.812667
-67.86058 3.8092518 6.1658583 12.651125
-67.861908 8.2117901 6.2296329 10.00525
-67.962082 8.6482954 6.0826502 10.0055
-67.764534 1.8542787 6.7043424 11.035
-67.788834 2.1691871 6.5933218 11.62525
-67.601128 2.5840337 6.6737442 11
-67.856483 2.9709849 6.6298132 11.84425
-67.865349 3.413384 6.6296377 12.30975
-67.89135 3.7275164 6.7621465 14.14925
-67.734604 4.1176243 6.657486 10.103
-67.978722 0.28346285 6.8216329 15.149
-67.80191 0.69662297 6.8544998 15.1485
-67.745079 1.8497568 6.9582052 13.694643
-67.83989 2.1901069 7.0372572 13.693777
-67.709541 2.5745845 7.0546718 14.1355
-67.748116 3.0190754 6.8947773 12.5
-67.755424 3.2459583 7.0600619 13.1615
-67.871109 3.7190461 6.9818535 11.411334
-67.792404 1.1463643 7.517767 11.074
-67.816422 1.3179252 7.4026675 14.489333
-67.875664 1.7702795 7.4090466 14.136301
-67.730659 2.2841892 7.5247169 12.062
-67.915939 3.1515105 7.5967832 13
-67.87664 3.2626345 7.5958223 13
-67.925789 0.47843674 7.9092846 12.123
-67.992622 1.0231651 7.9044981 12.0605
-67.902954 1.2374003 7.6512794 12.063
-67.865067 2.1734135 7.6859593 12.0605
-67.901573 2.6286986 7.788424 13.13975
-67.875252 3.345979 7.7356119 14.1575
-67.75441 0.15395075 8.1912575 12.11775
-67.819618 0.61754429 8.2049761 12.1115
-67.929024 0.82376796 8.1323881 12.1215
-67.759995 1.3818341 8.2385159 11.9142
-67.898018 1.9444735 8.3430939 12.1125
-67.746895 2.189847 8.0876675 12.024099
-67.950745 2.5224841 8.2128372 11.109
-67.768227 2.8292637 8.1109161 12.1175
-67.64698 0.43791762 8.4282789 12.1205
-67.820969 1.0735195 8.6496429 12.369124
-67.72052 1.2956949 8.4723139 12.118999
-67.651031 2.0339413 8.6289282 11.1045
-67.799232 1.5938169 8.8769188 11.104
-67.965866 7.0894465 9.5612364 12.006
-67.844444 7.4428434 10.742463 13.003
-67.529305 9.1115971 -2.4269812 6
-67.298332 27.980064 -2.1460278 7
-67.272087 4.2388663 -1.7388446 6
-67.422935 16.708315 -1.7556721 7
-67.354736 17.264711 -1.7467115 7
-67.528969 18.437399 -1.7443022 7
-67.568748 5.1181355 -0.86142427 7
-67.350052 9.6739655 -0.85582042 7
-67.433937 10.15255 -0.91174281 7
-67.286263 10.476705 -0.810857 7
-67.217972 10.819335 -0.81073511 7
-67.326385 13.043466 -1.1855611 7
-67.350166 13.415098 -0.94030094 7
-67.4282 13.833037 -0.86720079 6.3333335
-67.217476 14.198758 -0.86171645 6
-67.352432 15.080442 -0.9972291 7
-67.595528 15.992733 -0.97107565 7
-67.248642 16.634726 -1.0030769 7
-67.552429 17.85227 -1.0228915 7
-67.595474 18.84726 -1.0435829 6
-67.487534 24.572699 -1.1315873 7
-67.577988 25.075172 -1.1610667 6
-67.407036 0.60949862 -0.50244862 5.1428571
-67.416962 0.93124193 -0.5077135 5.3333335
-67.239754 2.1545632 -0.5116384 6
-67.349945 2.5326648 -0.62479687 6
-67.498901 3.7709525 -0.62076116 6
-67.305397 4.5684729 -0.48989043 7
-67.47168 5.5900245 -0.51608938 7
-67.376511 8.1427231 -0.72381121 7
-67.367126 10.962055 -0.79835325 7
-67.569328 24.561655 -0.46992141 7
-67.382416 25.791025 -0.51813799 7
-67.280144 26.401926 -0.52285194 7
-67.313454 28.989328 -0.78175211 6
-67.563461 1.4038694 -0.38687482 7
-67.361786 14.275104 0.25827649 7
-67.505058 15.422827 0.18599269 7
-67.462646 17.20505 0.030522959 7
-67.400002 0.12285122 0.7089833 6
-67.222153 1.6681188 1.9551649 9.0105
-67.384209 6.9190307 1.6327306 9.0129995
-67.375717 23.197784 1.8279419 9.0869999
-67.250137 23.399117 1.813941 10.07625
-67.398315 1.8813931 2.2415304 10.074
-67.397369 2.0765309 2.2734942 9.5109997
-67.500923 4.2636008 2.1159499 9.0094995
-67.453354 4.7644973 2.3202922 10.072
-67.577461 6.5449543 2.2048306 10.038
-67.259346 22.358091 2.1684813 9.0600004
-67.279648 22.623632 2.3117797 8.0200005
-67.283981 2.0822101 2.7312934 10.0745
-67.321884 23.195841 2.4048283 9.1339998
-67.557442 23.38036 2.4274595 9.151
-67.411331 2.3729882 2.9494658 11.03125
-67.428848 2.4565196 2.985213 11
-67.38781 7.3112526 2.9953678 10.015334
-67.229889 25.847845 3.1537545 11.048
-67.264206 2.1119895 3.5127678 11.121
-67.594543 2.401098 3.2067378 10
-67.290817 4.4388213 3.4763732 9.5634995
-67.460564 4.8375697 3.5916183 9.1514997
-67.346687 6.1535239 3.5778949 9.0369997
-67.566681 6.423069 3.5921981 9.1505003
-67.392685 7.0389509 3.4122293 10.136001
-67.464783 7.3694568 3.3624508 10.53525
-67.480141 7.6542678 3.3618157 11.064251
-67.292633 22.924393 3.3716753 9.1094999
-67.318893 1.3663535 3.9355226 9.0410004
-67.307457 1.9152179 3.9028602 11.151
-67.474136 2.1731262 3.7998049 10.730687
-67.268692 2.5279131 3.8409281 10.64925
-67.506027 2.9983013 3.848603 11.08125
-67.444221 3.9060819 3.8674436 10.72
-67.376648 4.2036457 3.8657036 10.471715
-67.469963 4.6963243 3.7022557 10.764333
-67.2145 4.8613143 3.6996424 11.1265
-67.467377 6.6292415 3.735605 10.6245
-67.268188 23.944088 3.9322159 11.0175
-67.252174 24.006079 3.7424619 11.0375
-67.48912 2.5269659 4.2513618 12.02
-67.489319 3.0615439 4.2367315 10.689667
-67.593246 3.3656919 4.231883 12.026
-67.33036 3.7969916 4.2964311 11.016167
-67.265549 4.1836581 4.0913711 11.0215
-67.44783 4.5175042 4.1279945 12.0587
-67.383598 7.7268758 4.3774848 11.137
-67.384819 1.9634444 4.7099204 11
-67.49437 2.2283628 4.6053386 11.273375
-67.409012 2.5706038 4.6038389 12.573
-67.407608 3.1063089 4.608171 11.034
-67.26413 3.3116553 4.6590638 11.021
-67.251755 3.6906676 4.6943755 11.062
-67.33374 4.3785195 4.4506984 11.0335
-67.2444 4.5561366 4.4847174 11.0725
-67.217957 6.5163741 4.4488158 10.0685
-67.367142 7.5678611 4.5593157 10.144
-67.482613 7.6990724 4.4786525 10.7453
-67.36068 1.7689147 5.1729536 11.01
-67.437553 2.2134504 5.0064669 12.690333
-67.38221 3.0088789 4.9566002 12.029834
-67.283989 3.2494674 5.0425668 13.0355
-67.443466 3.6700971 5.0464425 12.56525
-67.217484 4.2787094 4.9883885 10.1225
-67.370674 4.7369323 5.054184 12.15
-67.318176 5.9879403 5.0308099 10.119
-67.33876 6.7056384 4.8484364 11.0585
-67.56176 0.91082364 5.2337642 10.124
-67.438446 1.7766554 5.4221697 10
-67.427528 2.2048266 5.4794145 12.0055
-67.449875 2.6983144 5.3083754 12.0165
-67.297417 3.0481517 5.3167143 12.529416
-67.477776 3.4013066 5.4000578 13.054749
-67.402649 3.805907 5.3938732 12.726666
-67.452103 4.3578362 5.5129104 13.13325
-67.335754 4.4669404 5.4780936 13.13525
-67.443222 7.0886779 5.5251179 10.115
-67.490685 1.352972 5.9267197 12.6207
-67.272758 1.7841026 5.8096347 12.2381
-67.480797 2.1547449 5.8575525 12
-67.498116 2.5787239 5.842701 12.77357
-67.455162 3.0655613 5.8407536 10.359834
-67.487312 3.3636036 5.7234421 12.477166
-67.422424 3.6703172 5.9874506 11.159
-67.332161 4.1786528 5.7167802 13.141
-67.270782 1.4292616 6.1268234 13.016666
-67.450523 2.2939508 6.2399926 13.5146
-67.355537 2.6001427 6.1503305 11.067801
-67.592896 3.1650007 6.3464365 14.1465
-67.316917 3.4110384 6.249989 13.733875
-67.461037 3.7921596 6.1893768 11.761001
-67.48822 8.6194611 6.2009683 10.005
-67.427246 1.0090643 6.6716461 12.5725
-67.369484 1.2566514 6.5575223 14.045
-67.537598 1.9596889 6.7258286 11.040166
-67.597282 2.0532815 6.5583692 11
-67.56662 3.0159383 6.55229 14.142667
-67.261978 3.4549322 6.5769 13.738899
-67.336052 3.9704413 6.7135811 11.111
-67.279991 4.1747136 6.4748507 11.12
-67.359627 1.4705515 7.0865464 12.659
-67.360863 1.8951834 6.9806137 12.885323
-67.423164 2.1828585 7.0917168 12.9334
-67.41478 2.5943582 7.0654263 13.780583
-67.467384 2.9790752 6.9116325 13.3203
-67.440903 3.3117986 6.9191918 12.054334
-67.485107 1.4661344 7.5551109 14.821667
-67.252998 1.6724018 7.4179864 13.125
-67.41993 2.2354074 7.3884053 12.094
-67.263481 2.950666 7.217133 15.138
-67.499886 3.3401024 7.4240174 12.1235
-67.591492 1.8988322 7.6921978 12.1225
-67.545296 2.0374506 7.6492114 12.0605
-67.237129 2.5829327 7.915143 12
-67.556488 2.8173635 7.6893616 12.1215
-67.481781 1.2711748 8.0832529 12.116834
-67.364738 1.9740596 8.2171831 12.1105
-67.519753 2.3910444 8.0910616 12
-67.446655 2.9830873 8.1547632 11.1085
-67.482643 1.8914735 8.5040379 11.612
-67.377663 2.0172896 8.6324978 11.1055
-67.51281 0.91401362 8.9544134 13.123
-66.84359 9.2232752 -2.427345 6
-67.187836 0.51409274 -2.0509918 6
-66.851357 13.891899 -1.7574944 7
-66.86734 1.915965 -1.4033623 6
-67.042976 2.9336691 -1.5601114 6
-67.133003 23.106066 -1.3358672 7
-66.941368 26.11084 -1.5490725 7
-66.809975 27.139448 -1.3438526 7
-66.930656 27.698469 -1.3264565 7
-67.193802 28.792307 -1.3281863 6
-66.900307 9.8156118 -0.91390699 7
-66.830696 10.140908 -0.92504078 7
-66.955978 10.825435 -0.86153674 7
-67.01886 13.301129 -1.0930711 7
-66.975044 13.64756 -0.91377276 6.6666665
-67.085335 14.140187 -0.88302392 6
-66.983955 14.444721 -0.89500475 6.6666665
-66.997597 17.479683 -1.1452854 7
-67.115883 17.997255 -0.92095751 6
-67.03775 18.647284 -1.0133735 6
-67.071129 19.209463 -1.0075866 7
-66.887901 23.297661 -1.0237712 7
-66.913086 23.618137 -0.97632068 7
-67.107468 24.027145 -1.1535175 7
-66.81395 29.57893 -0.81541508 6
-67.007156 0.59858835 -0.51279086 5.1428571
-67.057358 0.8077594 -0.52125251 5
-67.116608 1.4592006 -0.50894886 6
-66.968201 2.6080632 -0.52219045 6.5
-67.038269 3.4455531 -0.54012442 6
-67.060905 3.7994113 -0.56078333 6.3333335
-66.803238 4.2874174 -0.55397898 7
-67.097603 5.1284847 -0.60015208 6.5
-67.161171 5.4290805 -0.59185338 7
-66.899361 7.8038931 -0.7017557 7
-66.997971 8.4275351 -0.74120289 7
-66.900177 9.2861242 -0.77377504 7
-67.190613 13.027732 -0.79588944 7
-66.924744 13.71626 -0.7190606 7
-66.810104 14.344111 -0.66932237 7
-66.811584 22.717705 -0.64183939 7
-67.160591 26.358223 -0.59146333 7
-66.906998 13.735606 0.26681724 7
-66.915596 22.847023 0.057345863 8.0089998
-67.054649 0.63655436 0.68237543 6
-67.111214 5.0213633 0.69565338 7
-66.96273 24.320627 0.57248807 8.0045004
-67.096901 3.0685341 0.80324286 7
-66.911362 23.442158 1.4241949 9.0354996
-67.03978 23.945017 1.2858909 9.0430002
-66.860573 1.7179078 1.934094 9.3528337
-66.843857 3.1115119 1.976684 9.0105
-67.052132 22.235826 1.8433255 9.0690002
-67.014771 22.521515 1.8867791 8.1750002
-66.986397 23.13092 1.8981563 8.8163338
-66.908661 23.286781 1.7164711 9.1274996
-66.971672 23.950098 1.9521673 9.1300001
-67.075462 24.056915 1.7446769 9.0345001
-67.027481 1.833892 2.0772877 9.0325003
-67.190918 3.1059525 2.2579937 10.073
-66.960571 4.2670822 2.2106147 9.0394993
-67.08242 6.1652517 2.0369108 9.0097504
-66.928261 6.5795403 2.2363188 9.4498997
-66.95784 22.282036 2.2332654 9.0544157
-66.89727 23.097818 2.1509461 9.0528002
-67.067184 23.35144 2.1854513 8.5944996
-67.076042 24.153543 2.2193084 9.1370001
-67.031334 4.015132 2.7806444 10.073
-67.119484 21.110168 2.7274351 10.0255
-67.190102 21.669905 2.7306421 10.025
-67.067894 22.008104 2.4024334 9.0334997
-67.065636 23.406441 2.4950755 9.5897503
-66.9533 24.489548 2.7766399 10.0365
-66.923637 24.894638 2.7359009 10.0385
-67.076286 25.208689 2.5009322 8.0194998
-67.199142 1.930694 2.8162394 11.058
-67.170517 2.5721066 2.8519819 11.0575
-67.118896 6.3871126 2.8797374 10.0715
-67.151299 7.37779 2.8700495 10.012751
-67.059731 22.608395 3.1969545 10.0655
-67.106224 23.542107 2.9584675 10.055
-66.994171 23.652454 2.8729448 9.1365004
-66.936775 24.31344 2.9857864 9.4829998
-66.95256 24.741472 2.9281728 10.138167
-66.914429 25.106726 2.8650365 10.113501
-66.930931 1.9387846 3.5017703 9.1569996
-67.035484 2.1134272 3.5065062 10.7171
-66.937469 2.9430583 3.5867281 10.62175
-67.179321 3.3833063 3.4086034 9.6604996
-66.960579 5.5697985 3.5648348 9.0450001
-66.802383 5.8869371 3.5507889 9.0430002
-67.134422 6.2631521 3.4265199 9.078167
-67.041641 6.5194135 3.4813633 9.6294994
-66.944077 6.8216658 3.3816624 10.1355
-67.18676 7.530561 3.3750148 11.067
-66.998192 22.994305 3.4276047 10.098
-66.948807 23.816591 3.2905474 10.101
-67.008217 24.308836 3.3167591 9.1739998
-67.016853 24.512165 3.2499356 9.1739998
-67.025551 2.0997584 3.7635114 11.134
-66.901802 2.9946635 3.7139683 11.143167
-67.032272 3.9471598 3.7915478 10.0605
-66.920357 4.2650261 3.7432065 10.969001
-66.81749 5.5863829 3.6647658 10.0595
-67.040024 6.1539154 3.6448774 10.059
-67.114029 22.722437 3.6869628 9.1040001
-66.952431 23.847406 3.9621992 9.1747503
-67.170044 3.5808632 4.2832189 12.09
-67.089699 3.8539052 4.2327423 11.534749
-66.897606 4.2758632 4.1744962 10.683499
-66.919304 4.5567708 4.2321048 12.075334
-66.852531 23.897739 4.1146545 9.1739998
-66.947891 3.4763849 4.5983658 10.6178
-67.073494 3.7212441 4.5414929 11.384501
-67.050293 4.2043238 4.5239968 11.031
-66.833221 4.4864616 4.4847851 11.033
-66.956337 1.5016251 5.142992 10.12225
-66.983627 1.8062923 5.0823197 11.793125
-67.099113 2.1508839 5.0945134 13.023167
-66.862961 3.0880904 5.0208139 12.4189
-66.958191 3.490442 4.9932308 11.0567
-67.070816 3.7845929 4.8901811 13.054001
-67.045082 4.6301584 5.1972723 12.152
-67.10955 1.8097484 5.4154096 11.275875
-67.098007 2.2948453 5.4977593 12.054501
-66.935776 2.5799029 5.3821363 10.8112
-66.984612 2.8283339 5.4189286 11.676833
-66.835358 3.3975379 5.5461116 12.073
-67.142708 3.8367169 5.3509226 13.126
-67.050301 4.1302023 5.4829741 12.776071
-66.966591 4.5572643 5.481607 12.5493
-67.195946 1.1846956 5.7493057 12.033
-66.992516 1.3977604 5.7705488 13.019751
-67.019905 1.80881 5.7668858 13.020072
-67.06974 2.1628754 5.9410458 14.0665
-66.989052 2.5959225 5.828651 13.217751
-66.992142 2.968956 5.8285265 12.04675
-66.926598 3.5046434 5.7110338 11.0675
-67.007286 3.7505643 5.8744416 11.9496
-67.015678 4.1913209 5.6930313 12.3433
-67.169914 0.76798368 6.3630791 10.052
-67.137032 0.85083508 6.2815046 13.017
-67.080223 1.3585346 6.1509171 13.427051
-66.983971 1.7398183 6.1384273 13.047701
-66.880074 2.2886171 6.1058741 12.5395
-66.966553 2.7698603 6.0810218 10.041
-66.84024 2.9662197 6.1100898 12.0225
-67.030731 3.5304737 6.320138 13.611688
-66.973236 3.6105165 6.2986732 14.1385
-66.905273 0.21106426 6.7297115 12.511999
-66.973862 0.59690726 6.6548467 13.4194
-67.032166 0.95518297 6.5395026 13.630099
-66.977203 1.4296365 6.5658407 14.388251
-66.920166 1.8208557 6.7130475 14.455833
-66.859734 2.4723442 6.484797 11.0695
-67.064789 3.1157732 6.7221251 11.1135
-67.023598 3.3835001 6.4780312 13.945601
-66.981926 3.8544495 6.6344018 12.121499
-66.907951 0.23846258 6.8892279 13.424301
-66.955734 0.58335066 6.9527211 13.552
-67.103661 1.3687756 7.1712399 15.15
-66.937843 1.8329964 6.8825641 14.012814
-67.000336 2.1905093 7.0301738 14.997429
-66.999321 2.6346011 7.0179982 13.3539
-66.877495 2.9473133 6.9600477 13.886312
-66.851189 3.3900783 6.8036132 12.1385
-67.178627 3.7811368 6.9352593 11.1185
-67.115898 1.5154552 7.3727789 14.397
-66.981033 1.803256 7.414021 14.65525
-66.841118 2.4436948 7.3002462 15.14925
-66.928062 3.20222 7.3756609 12.123
-66.808914 0.10006408 7.848773 12.009
-67.117393 0.76679915 7.9979095 15.1565
-67.048485 0.96995515 7.8940239 14.023063
-66.995995 1.3101192 7.8161302 14.149
-66.866585 1.8251065 7.6998711 12
-67.011253 2.6155396 7.849627 12.120501
-67.033363 0.35466394 8.384387 14.6635
-66.915947 0.5777244 8.2146387 13.1545
-66.96933 0.9076795 8.1269007 13.645749
-66.893745 1.2562684 8.3519392 12
-67.122505 1.6137593 8.1443453 11.1085
-66.889091 2.0768919 8.1773643 12.112
-66.959892 0.43197727 8.6505632 11.04475
-67.198181 0.97843772 8.7278814 13.1245
-66.897804 2.2192867 8.4683008 12.62075
-66.982384 2.4372606 8.4031343 12.1185
-66.835716 1.2653474 8.8073015 13.1225
-67.047539 0.35272133 9.2465706 13.119
-66.959679 0.45992851 9.2300701 13.1215
-67.179344 2.7509472 9.2171764 13
-66.609535 4.0372434 -2.1532149 6
-66.435654 21.453245 -2.2460449 6
-66.465744 28.306089 -2.1507196 7
-66.404404 15.488254 -1.7171913 7
-66.634636 17.711693 -1.7062923 7
-66.549629 23.22756 -1.928659 7
-66.451241 2.3187163 -1.4079574 6
-66.518883 3.3370795 -1.5518028 6
-66.581276 13.524635 -1.2287734 7
-66.591011 17.194683 -1.3533597 7
-66.652756 22.214508 -1.4599229 7
-66.610062 22.547272 -1.4350169 7
-66.539093 23.25806 -1.5760254 7
-66.560516 5.985436 -0.89501357 7
-66.465569 7.0357709 -0.80444962 6
-66.571396 9.4018908 -0.88676047 7
-66.535431 10.151495 -0.82334107 7
-66.606766 12.510634 -0.85833305 6
-66.481003 13.47258 -0.91918176 7
-66.710289 13.817656 -0.88686574 6.3333335
-66.456505 14.156381 -0.89735478 6.5
-66.525246 14.580383 -0.9970935 7
-66.541092 16.728636 -1.0730944 7
-66.560822 16.804182 -1.1171823 7
-66.567932 17.580084 -0.89771414 6
-66.796654 17.661566 -0.87270552 6
-66.458076 18.082199 -0.99743998 6
-66.471764 18.543633 -0.9812144 6
-66.453552 18.863337 -0.99728322 7
-66.619072 22.398605 -1.0592988 7
-66.556572 22.539255 -1.0683908 6.5
-66.55455 23.087137 -0.95986319 7
-66.639503 23.274637 -0.96717334 6.6666665
-66.596924 23.777977 -1.1186428 6.5
-66.556976 24.530912 -1.1512467 6
-66.574738 25.528757 -1.143001 6
-66.759499 26.080612 -1.1690464 6
-66.486565 28.972897 -1.1881374 6
-66.601166 0.19317678 -0.51909125 6
-66.678825 0.55964065 -0.52018172 5.2857141
-66.654327 1.9245805 -0.51740408 6
-66.742531 2.2783039 -0.57405323 6
-66.566208 2.4337051 -0.53905189 6
-66.701874 3.4742444 -0.5323227 6.5
-66.687981 3.7296937 -0.61011648 6
-66.442207 4.5327306 -0.67216545 6
-66.461151 5.0010362 -0.60398847 7
-66.78801 5.3322935 -0.73082668 6
-66.694633 6.9706101 -0.65913785 6
-66.487267 7.4148021 -0.68942702 7
-66.61483 7.7182889 -0.72056538 7
-66.461792 10.414582 -0.75552487 6
-66.646355 10.959052 -0.76492894 6
-66.650848 11.580886 -0.76911938 6
-66.470833 15.459292 -0.70483035 7
-66.43544 16.022079 -0.72603506 7
-66.622726 17.159767 -0.77518713 7
-66.635223 17.731087 -0.79831457 7
-66.449509 22.411001 -0.55720276 7
-66.582954 23.301323 -0.59849137 7
-66.625786 26.798641 -0.54361367 7
-66.423729 22.14463 -0.17774203 7
-66.606171 22.627207 -0.20527188 7
-66.496803 23.318737 -0.23074037 7.4798574
-66.434875 13.777937 0.086665429 6
-66.412811 22.249516 0.14979574 8.0725002
-66.700638 22.936094 0.083185226 7.6731668
-66.596481 23.408035 0.04939191 7.7476668
-66.508522 23.531425 0.51597732 8.1360006
-66.469238 22.777008 0.86683726 7
-66.474213 22.85141 1.084214 8.1324997
-66.40477 23.574062 1.0243301 8.1344995
-66.450539 23.648602 1.1235465 8.1350002
-66.508987 22.913002 1.3803235 8.6184998
-66.406525 23.52746 1.5496186 8.1724997
-66.560165 23.79137 1.4855164 8.8657503
-66.633011 24.059814 1.3176953 9.0552502
-66.771797 2.5606925 1.9643613 9.0100002
-66.523384 2.8130231 1.8729463 9.0109997
-66.590775 21.977081 1.7001749 9.0710001
-66.585213 22.224724 1.7927912 8.7228336
-66.63015 22.749981 1.6916733 8.1745005
-66.410057 23.03581 1.6985641 9.1525002
-66.431793 23.563612 1.8632529 9.1137505
-66.497787 23.708612 1.8914958 9.0290003
-66.478165 3.0422852 2.0922482 9.5485001
-66.749855 22.290058 2.2430623 9.0445004
-66.599197 22.933695 2.1574843 9.0485001
-66.43956 23.98019 2.0539615 9.1309996
-66.512985 2.8668523 2.7920728 11.0515
-66.50634 21.862892 2.6468973 10.03
-66.535286 22.212151 2.610599 8.5965004
-66.524437 23.255037 2.6109362 9.1352501
-66.719124 24.558981 2.7283108 10.7205
-66.455872 24.962624 2.6931851 10.040751
-66.613838 23.824104 2.9223759 9.8911257
-66.634094 24.578289 2.8793402 9.6292496
-66.744385 1.9499691 3.5051286 11.1245
-66.758347 2.1188142 3.5228417 10.117375
-66.433647 2.696877 3.3830197 10.09025
-66.642639 3.2847037 3.5143466 10.123
-66.541046 5.8191113 3.4555767 9.0453329
-66.785278 23.14683 3.381099 10.14
-66.701317 23.631325 3.4531281 10.0965
-66.745888 24.76059 3.3258917 9.1735001
-66.673401 25.026253 3.288229 9.1735001
-66.632156 25.201284 3.316721 9.1735001
-66.727692 2.2202785 3.6981363 11.14175
-66.553764 3.0209472 3.8331578 10.996285
-66.604088 3.3382909 3.7964814 10.781667
-66.670181 4.1362853 3.9147575 10.51175
-66.595642 4.6477046 3.9158721 10.6111
-66.611542 6.2699742 3.617125 9.0369997
-66.660065 24.585825 3.8115242 9.173667
-66.65345 4.3719525 4.1174116 11.015499
-66.562935 4.6374631 4.1408725 11.6354
-66.563713 23.363192 4.2228804 9.1709995
-66.766014 23.858906 4.2440305 11.1485
-66.616318 3.0958772 4.6226902 12.0115
-66.589348 3.3611574 4.6791854 11.025875
-66.572006 3.7034352 4.5976191 11.631399
-66.63443 4.2606187 4.6473551 11.067
-66.57077 1.664463 4.9948015 10.1245
-66.400635 2.6626265 5.0287747 10.121
-66.678505 3.0105605 5.068922 11.610201
-66.523132 3.5358651 5.0096397 13.058666
-66.650925 3.7326732 4.9917998 10.856375
-66.550705 4.4393506 5.0918303 12.0725
-66.514778 1.1179432 5.5740004 10.0065
-66.792267 1.8289211 5.2849741 12.0155
-66.5718 2.1127324 5.5211811 11.511
-66.776138 2.6267784 5.5151548 11.02
-66.631767 3.0056503 5.3727856 12.184417
-66.711777 3.4241769 5.3351641 12.066
-66.584755 4.6552 5.5367861 12.706143
-66.496429 4.8345523 5.5362835 12.473667
-66.633125 1.5478226 5.8320413 13.526
-66.670624 1.780876 5.7701526 12.846399
-66.607635 2.1077619 5.8867989 13.024167
-66.665993 2.6383595 5.7473521 12.034249
-66.576515 2.9291577 5.789783 12.271277
-66.686203 3.3327396 5.7590365 12.0555
-66.549332 3.671288 5.7258964 10.553249
-66.667656 4.2749295 5.7867527 12.477584
-66.573158 4.5649247 5.7319856 12.808167
-66.462212 5.0795693 5.747591 12.1685
-66.799232 0.76792985 6.3724785 12.0105
-66.632698 0.94793946 6.2603049 12.51375
-66.605515 1.844797 6.1236792 13.357501
-66.65374 2.2926269 6.1470256 12.061251
-66.56897 2.7545438 6.0893531 10.0455
-66.602905 2.9850729 6.0908661 11.054166
-66.727135 3.5504453 6.1435924 13.400875
-66.558289 3.6800792 6.2593613 13.740584
-66.697227 4.1373868 6.0095782 12.1755
-66.598114 0.67559958 6.7111812 12.685166
-66.622566 0.97238785 6.6503358 14.033125
-66.659424 1.4669625 6.6216474 13.4341
-66.566414 1.8196638 6.5468373 14.6504
-66.451202 2.1381028 6.5461364 11.683999
-66.659523 2.6888833 6.6522689 14.151
-66.564232 3.4535336 6.5484219 13.638333
-66.728233 3.6510475 6.7908998 11.111
-66.442917 4.2060924 6.6290984 11.113875
-66.67308 0.36286223 7.0507326 13.013
-66.645065 0.50932735 6.9729118 13.885643
-66.582207 0.96872723 6.8951631 13.186313
-66.69857 1.8211905 6.8420267 15.1465
-66.439148 2.175112 7.0395846 15.148
-66.629326 2.7167544 7.0772452 14.643188
-66.627998 3.0189946 7.0003881 14.062667
-66.487183 3.4494338 6.9174986 13.278916
-66.538361 3.8945978 6.8828034 11.1165
-66.563568 4.2257504 6.8668551 11.118
-66.50975 0.23625539 7.4153876 13.706833
-66.488014 0.61854118 7.4637637 13.538834
-66.434067 1.6731932 7.2944508 15.151
-66.546455 2.1420326 7.4519887 14.655251
-66.531013 2.5040259 7.3092995 13.63575
-66.562492 3.0510368 7.449254 12.12175
-66.521896 3.2186599 7.4242153 12.122
-66.608711 0.16801567 7.8253565 12.72
-66.473854 0.49638209 7.7279315 11.569
-66.563492 1.1049793 7.8367543 14.544701
-66.573128 1.3509315 7.8398304 13.275071
-66.56942 1.7848983 7.8896465 13.652249
-66.743324 2.1038606 7.7296495 13.131
-66.561348 2.7492681 7.9138746 12.11425
-66.748184 0.65757251 8.2958755 14.8145
-66.546654 1.053196 8.1962738 14.15625
-66.702705 1.4225364 8.283824 12.252666
-66.618805 1.7904382 8.2649441 12.038667
-66.637123 2.2347109 8.1835432 11.780583
-66.624092 2.5174119 8.1012278 11.108167
-66.474525 2.9292719 8.0494099 11.108
-66.721443 0.39717931 8.5798912 11.0405
-66.633514 0.61792082 8.674222 11.867399
-66.73214 0.96188325 8.6159582 13.62425
-66.577614 1.4617474 8.5807896 13.123751
-66.565804 1.9689684 8.5393944 13.12375
-66.63102 2.4785981 8.5359383 11.10425
-66.587746 0.46693325 9.1228514 13.1175
-66.521469 1.290851 8.8821974 13.122
-66.311638 13.695393 -2.98348 7
-66.018326 3.9378736 -2.1958463 6
-66.11219 4.4148884 -2.1756277 6
-66.300346 23.263203 -2.2949185 7
-66.313332 5.7547245 -1.8434142 7
-66.381767 14.409534 -1.727927 7
-66.298019 14.943005 -1.717761 7
-66.340965 23.002586 -1.9400173 7
-66.123947 24.012255 -1.631549 7
-66.131432 3.7971964 -1.5500649 6
-66.361755 21.779833 -1.3706558 6
-66.38063 22.941895 -1.3586473 7
-66.192497 23.850925 -1.5035659 7
-66.280121 25.292976 -1.2023262 6
-66.179916 27.64221 -1.3480401 7
-66.122643 29.5783 -1.2007747 6
-66.185318 29.644585 -1.3333625 7
-66.161598 8.9244556 -0.87098956 6.6666665
-66.36071 9.6919689 -0.91489118 7
-66.371155 10.315834 -0.85528368 7
-66.055664 11.342758 -0.98052269 7
-66.284241 12.634115 -0.81832635 7
-66.116272 13.373108 -0.94816518 7
-66.27552 13.919993 -0.90759856 6.3333335
-66.034729 14.438782 -0.90688443 7
-66.345207 16.591408 -1.0062541 7
-66.215477 17.589664 -0.98589581 6
-66.035385 20.228302 -0.97281313 6
-66.024437 20.742336 -0.98440933 6
-66.310181 21.246031 -1.0090628 6
-66.28614 22.296942 -1.0052015 6.6666665
-66.380829 22.749027 -0.96224505 7
-66.298912 22.980143 -1.0226598 6.75
-66.258339 23.771791 -0.92035931 7.2828751
-66.061577 1.4356992 -0.61151224 6
-66.122597 1.666273 -0.61423671 6
-66.383278 2.033108 -0.62964344 6
-66.243324 2.5852757 -0.54480261 6
-66.336472 3.3291292 -0.56097388 6
-66.174995 3.8423657 -0.58242118 6
-66.083565 4.2584858 -0.67002469 6
-66.086494 4.6433125 -0.49084362 7
-66.102913 5.0016956 -0.53282118 6
-66.128777 6.6178513 -0.71140873 6
-66.332481 8.889883 -0.77091855 7
-66.159264 12.372702 -0.757716 6
-66.010284 13.592989 -0.76293415 6
-66.392357 14.900984 -0.68143207 7
-66.333786 21.600685 -0.60568851 7
-66.263939 23.642542 -0.49095818 8.0495005
-66.280602 27.434776 -0.54651493 7
-66.204948 0.18117523 -0.25407946 6.5
-66.322014 22.306005 -0.3003417 7
-66.052811 22.744091 -0.26735505 7
-66.270126 23.043251 -0.39783943 6
-66.262421 23.426016 -0.31592241 7.5349998
-66.35614 22.526459 0.36168039 8.0640001
-66.326614 23.458094 0.17623836 8.0587502
-66.237602 23.78059 0.24913101 8.4446001
-66.049149 24.382236 0.043045126 8.0094995
-66.168358 4.2860279 0.69505471 7
-66.273376 21.797642 0.48595586 8.0299997
-66.151619 22.568007 0.58684278 8.0512915
-66.33287 22.884266 0.68643641 8.1490002
-66.344337 23.539358 0.50728238 8.1026669
-66.30056 23.673784 0.59489048 8.0980005
-66.322487 22.646776 1.1634206 8.0480003
-66.307312 23.588284 1.009994 8.1339998
-66.339294 23.603416 1.1066314 8.1335001
-66.1306 21.813122 1.5505682 9.0299997
-66.057327 22.795578 1.5467094 8.1730003
-66.321136 23.032694 1.2629192 8.1090002
-66.112457 23.572422 1.3389183 8.1355
-66.288696 23.772682 1.3940192 8.6099997
-66.147011 24.10656 1.5881569 9.1584997
-66.099236 24.905344 1.3080714 9.0430002
-66.069168 2.575197 1.8754256 9.5272503
-66.304131 22.663933 1.8552476 9.0672503
-66.274948 22.861164 1.7487204 9.0682497
-66.189896 23.357227 1.9250636 9.1424999
-66.257195 23.767956 1.7274498 9.1273756
-66.178345 24.097231 1.7770008 8.4584999
-66.13102 24.656343 1.8067597 8.3668003
-66.158249 24.864679 1.8143049 8.1739998
-66.128601 2.672503 2.107415 9.2796249
-66.238663 2.9902077 2.1162398 10.025
-66.257553 22.653557 2.2036531 9.0733747
-66.216118 23.043629 2.2096112 9.0780001
-66.232582 23.456362 2.1821473 8.4468336
-66.321297 23.832375 2.3239994 8.0165005
-66.297958 24.025148 2.2917423 9.1324997
-66.084259 24.523438 2.289242 8.1739998
-66.301735 2.725096 2.6784267 10.0735
-66.055183 2.865175 2.7815316 11.0565
-66.321358 22.422424 2.7323341 9.0139999
-66.071777 23.086576 2.5720935 9.394166
-66.350151 23.52832 2.5214484 9.1344995
-66.10273 23.977385 2.4690015 8.0200005
-66.290497 24.081566 2.6906402 10.148
-66.016129 24.408014 2.4180369 9.1204996
-66.08902 2.7218103 3.1129448 9.8146667
-66.024521 2.9837615 3.1250811 9.1424999
-66.096001 23.027651 2.8209691 10.146142
-66.176529 23.689079 2.8795397 9.8476429
-66.242958 24.390593 2.8106835 10.1245
-66.222572 24.548527 2.9173808 9.1359997
-66.145767 2.7421844 3.4716492 10.344501
-66.125427 2.9434478 3.368072 9.7299004
-66.191765 22.933811 3.3306999 10.102249
-66.257011 23.732941 3.2290041 10.0235
-66.281937 2.6910336 3.8355606 11.139834
-66.215599 2.896431 3.7755687 11.143167
-66.124535 4.6014786 3.8976622 11.013
-66.301056 24.173088 3.7136364 9.1750002
-66.224861 24.598055 3.7840748 9.1742496
-66.160355 3.4902 4.3714919 11.013
-66.191589 4.386776 4.3381348 11.0135
-66.135445 4.6262102 4.1416879 11.322784
-66.270195 3.5547447 4.6424217 12.011
-66.220978 3.8197012 4.5930963 10.353333
-66.169907 4.342494 4.6263285 11.056749
-66.087997 2.6889296 4.9442797 10.123
-66.070877 2.8085916 4.9936762 10.122
-66.194252 3.4158661 5.0000315 12.024834
-66.059967 3.6911294 4.8535423 13.0515
-66.356255 4.2506084 4.8426819 13.0505
-66.145493 4.6976871 5.0617981 12.072
-66.20874 2.9679484 5.4079642 12.0125
-66.260582 3.3497767 5.3590155 12.0245
-66.214897 4.7581778 5.5130396 12.893125
-66.019073 4.8439026 5.5965586 13.1215
-66.285927 5.2651978 5.5441303 12.172
-66.274437 1.993004 5.9974394 13.0155
-66.281944 2.3004322 5.8958797 13.51925
-66.216759 2.6026633 5.7980084 13.1555
-66.189636 2.9568987 5.7295604 13.0525
-66.192123 3.3162782 5.7434015 13.3315
-66.042618 3.639322 5.9528656 13.152
-66.254143 4.0839505 5.7509828 10.709999
-66.193588 4.6536026 5.7600298 12.7405
-66.228027 4.9044046 5.840487 12.415251
-66.326042 1.0621663 6.1917844 13.0165
-66.184082 1.5604019 6.2945862 13.016
-66.249695 1.8725535 6.2378888 11.3585
-66.153282 2.1752343 6.2048545 12.936699
-66.222473 2.7077808 6.0621328 14.0685
-66.204865 2.9671516 6.0605755 10.0465
-66.188377 3.5221109 6.3369217 13.813168
-66.169716 3.7878168 6.176868 13.808
-66.131004 0.44594374 6.7822428 12.511
-66.118713 1.0256766 6.6982946 13.54125
-66.243851 1.3514401 6.6005807 12.846667
-66.109764 1.7625735 6.6205416 13.8427
-66.268402 2.1687355 6.5151958 14.389667
-66.263283 3.5003843 6.5224442 13.8185
-66.166512 3.6829364 6.5037169 13.4351
-66.126816 4.2444391 6.6617308 11.1085
-66.159233 0.62307978 7.0063334 13.875499
-66.152367 0.98702455 6.9409852 13.375
-66.149414 1.5118617 6.9736295 13.399166
-66.123871 1.6078376 7.0028796 15.0705
-66.20089 2.6514523 7.0904198 14.5267
-66.173676 3.41745 6.9776773 13.993036
-66.059776 4.138998 6.8458471 11.116
-66.226967 0.28329876 7.4454079 14.291125
-66.146942 0.54005545 7.340641 13.531625
-66.168968 0.94518286 7.4136963 14.459
-66.164581 1.8041887 7.4143128 12.0625
-66.376869 2.331775 7.360589 14.157499
-66.140465 2.5263035 7.2803049 14.746699
-66.080872 3.3997457 7.2184572 15.13625
-66.095634 0.041274883 7.6016922 15.014
-66.255539 1.2213022 7.843503 15.1555
-66.201874 1.8218058 7.8567181 14.313583
-66.181068 2.1913826 7.8022461 13.651333
-66.241173 2.488451 7.6373854 13.1305
-66.107254 0.94894016 8.196147 14.165
-66.319847 1.5552675 8.1823235 13.63825
-66.177078 1.6829925 8.0192242 13.1585
-66.00058 2.3641613 8.3678274 13.1235
-66.201462 2.6841817 8.2962589 12.117126
-66.060234 3.2821653 8.0657759 11.108
-66.296867 0.64216578 8.7805891 14.148251
-66.082596 1.0435251 8.6186571 12.84525
-66.221718 1.3202517 8.5378952 12.085001
-66.213486 1.7044067 8.5006104 11.045
-66.017448 2.3668983 8.4662447 13.123
-66.239769 0.26273111 8.9135199 14.65675
-66.122375 0.61913282 8.9600334 13.958917
-66.195808 1.0546951 9.1355839 13.1125
-66.072914 1.3561366 9.0254364 13.119832
-66.244827 1.8070045 8.8272505 13
-66.379631 0.27399251 9.4741554 13.6195
-66.285927 0.6096698 9.2924328 13.111
-66.260605 0.25300446 9.6794386 13.45475
-66.139679 0.54733747 9.8110142 12.108625
-66.132614 0.047277357 10.559059 12.105249
-65.632568 15.146754 -2.9542568 7
-65.771156 23.393272 -2.9844012 7
-65.754715 23.709618 -2.9202299 7
-65.906242 14.094789 -2.1732681 7
-65.958092 5.2743926 -1.8334969 7
-65.643417 6.4428477 -1.7989386 7
-65.800842 2.5341964 -1.3994744 6
-65.765587 14.376914 -1.2207202 7
-65.929909 25.950493 -1.2117242 6
-65.912033 26.70923 -1.3401346 7
-65.958229 27.516861 -1.3319174 7
-65.856041 28.956924 -1.2887881 6.5
-65.814804 8.4597044 -0.83981633 7
-65.801605 9.4015455 -0.87530887 6.5
-65.881042 9.7338657 -0.84019071 7
-65.948624 10.145901 -0.81119937 7
-65.695488 10.775504 -0.95758682 7
-65.999626 12.242002 -0.85113871 6
-65.71891 14.199636 -0.95218801 6.25
-65.817589 14.496543 -0.88723767 6
-65.810379 15.059893 -0.97861362 6.3333335
-65.897858 16.601812 -1.1333369 7
-65.797127 17.168301 -0.96914279 6
-65.812759 17.513371 -0.95434028 6
-65.881279 18.280659 -0.95654619 6
-65.884285 19.204247 -0.94365197 6
-65.86129 21.040905 -1.0184604 7
-65.806297 21.782297 -1.0008008 6
-65.870331 23.057884 -1.1501529 6
-65.635605 23.415077 -1.0132397 7
-65.858437 26.499058 -1.1444123 6
-65.867699 1.054872 -0.54865891 6
-65.820839 1.3825049 -0.60954165 6
-65.665718 2.2626517 -0.56501043 6
-65.638672 2.441478 -0.53558683 6
-65.911583 2.9774966 -0.61848825 6
-65.916946 3.4463117 -0.50988275 6.3333335
-65.659645 3.6280386 -0.54665786 6.5
-65.736198 4.0810118 -0.56291503 6.4000001
-65.67141 5.3655086 -0.57922792 6.5
-65.971062 6.0295634 -0.61819786 7
-65.619637 6.6318865 -0.6480968 6
-65.601242 7.2403307 -0.65943199 6
-65.844948 8.4074116 -0.75856066 7
-65.904968 13.050661 -0.75427705 6
-65.771996 27.085266 -0.55528533 7
-65.800293 28.66795 -0.63853693 7
-65.849915 0.12180855 -0.27566174 7
-65.995651 22.802544 -0.33098552 7
-65.985657 23.562895 -0.30164713 8.0555
-65.978317 23.762131 -0.016653217 8.0120001
-65.653648 23.157326 0.25905895 8.0050001
-65.874382 23.522461 0.21746415 8.0059996
-65.93927 24.781605 0.023237687 8.0100002
-65.990295 0.21316096 0.6983884 6
-65.600731 4.8018847 0.64633638 7
-65.973564 22.501125 0.64241523 8.0310001
-65.605698 23.330585 0.77527511 9.0530005
-65.702888 1.2929262 0.81496423 7
-65.861206 2.6885676 1.5058063 9.0135002
-65.950386 23.037203 1.3857273 8.5854998
-65.699501 23.384056 1.5782173 9.1590004
-65.991577 24.799862 1.4200828 10.063
-65.870461 2.7496006 1.8918433 9.6490993
-65.869507 2.8809757 1.9613793 9.5497494
-65.979057 22.510323 1.6708031 9.0705004
-65.618515 23.505009 1.9326859 9.1359997
-65.946968 23.852592 1.8757902 8.9162998
-65.792877 24.110489 1.6910119 9.1269999
-65.836884 24.448799 1.9610437 9.0024996
-65.904922 24.980038 1.8311144 9.1374998
-65.906998 2.8686399 2.1419616 9.0559998
-65.884407 22.023647 2.267787 9.0574999
-65.677704 22.716522 2.1116972 9.0848341
-65.965866 22.962286 2.2874408 8.7826662
-65.984818 23.985739 2.0315461 9.0450001
-65.631493 21.97945 2.5468118 9.0290003
-65.838783 22.208366 2.506556 9.033
-65.745186 22.975574 2.54214 9.0059996
-65.989212 23.830984 2.6538322 10.5495
-65.723015 24.515245 2.4149563 8.1745005
-65.728638 1.8693861 3.1365178 9.0649996
-65.752007 2.058372 3.1192431 9.0629997
-65.902657 3.0688701 3.1149077 10.136
-65.956032 23.18182 2.8196273 10.136
-65.917938 23.207506 2.8574741 10.1445
-65.948921 2.8835466 3.2901907 10.109
-65.942513 22.910732 3.21491 10.0465
-65.815491 2.0578876 3.7550688 9.0432501
-65.844025 4.7834983 3.9176469 11.014
-65.807602 2.5034366 4.3238974 9.107667
-65.952919 4.6106524 4.1518502 11.52375
-65.864006 24.875092 4.0205469 8.1735001
-65.853226 3.7434421 4.607687 11.216
-65.978607 4.0433459 4.7103181 10.008
-65.924347 4.4760718 4.5797577 11.0665
-65.891266 4.8428664 4.6410913 11.052
-65.835571 2.1645818 4.9942746 10.1215
-65.918304 3.5763087 4.9226184 11.5125
-65.851013 3.8020606 4.971272 12.881416
-65.94532 2.0879819 5.4735017 10.0065
-65.883484 2.5312648 5.5298462 11.51025
-65.87281 3.0933394 5.3397436 10.00675
-65.754158 3.4096026 5.2657189 12.015
-65.727013 3.8179393 5.4717278 12.0505
-65.90332 4.0219197 5.5198574 12.0405
-65.81646 4.6273971 5.50876 13.125
-65.951721 2.2150629 5.6539497 11.00925
-65.801323 2.6101906 5.8504648 13.027333
-65.865753 3.0072417 5.8554473 14.065
-65.901306 3.4379225 5.7709928 13.055
-65.657593 3.8552697 5.6284866 12.035
-65.920563 4.6310143 5.6558743 13.136301
-65.679657 2.1589131 6.325758 13.012501
-65.843925 2.5427871 6.1348376 14.070499
-65.98143 3.1510084 6.0499969 13.073
-65.867645 3.4752116 6.0246873 10.042749
-65.751595 3.8434818 6.2508869 13.744
-65.702332 4.0714135 6.3963642 12.129
-65.897926 1.2947094 6.7479153 13.353
-65.819031 1.7986729 6.7066708 13.455571
-65.797462 2.1653397 6.6070361 13.63645
-65.874023 2.7041888 6.5042772 13.073
-65.896599 3.3993545 6.7270417 14.151
-65.815269 3.7808228 6.4724431 13.809612
-65.847717 4.3562503 6.7701054 11.115334
-65.709259 4.4498858 6.7674446 11.1175
-65.959869 1.0402619 6.9355626 14.0215
-65.854073 1.3682357 6.9398632 13.806556
-65.780647 1.8411974 7.0086803 14.316875
-65.610916 2.2047055 7.0156403 14.0735
-65.905029 2.7198069 7.0665708 14.462166
-65.912178 2.8176551 7.0995517 15.1365
-65.839676 3.5066948 6.9685659 14.9456
-65.966972 3.6092355 7.0112791 15.1365
-65.886894 4.4161506 6.823278 11.1155
-65.759697 0.075029761 7.479589 13.513
-65.734261 0.66941583 7.375185 14.354667
-65.920746 1.1075265 7.4016285 14.036667
-65.837578 1.4634255 7.4476647 14.045625
-65.826469 1.6551814 7.4736495 12.0615
-65.744026 2.3511767 7.3958631 12.069
-65.87899 2.5170751 7.2230201 13.09
-65.986198 2.9002235 7.5363107 12.1205
-65.76873 3.3751376 7.316833 12.329399
-65.81633 4.176353 7.2957625 12.121
-65.820389 0.21868084 7.729825 14.055667
-65.856606 0.47093919 7.9681859 15.075
-65.726814 1.9499029 7.8094382 15.1545
-65.842041 2.1826966 7.8740048 13.9795
-65.875908 2.4211526 7.7820735 14.15
-65.792107 3.1546125 7.7687783 12.11775
-65.701393 3.2260258 7.643158 12.1195
-65.931183 1.3299423 8.1733637 14.827334
-65.764793 1.7973858 8.1694937 14.351599
-65.85862 2.6169043 8.1342525 12.37475
-65.796333 2.9790726 8.2153759 12.116099
-65.80452 3.2608657 8.1587629 11.61175
-65.797745 0.31727359 8.5252562 14.0485
-65.786148 0.62469715 8.7378836 15.164
-65.785492 1.0233783 8.6745014 14.806168
-65.887207 1.6853176 8.4954071 11.044001
-65.900063 2.1323829 8.6110601 13.1215
-65.77137 2.4276848 8.6119976 12.11275
