# .PCD v0.7 - Point Cloud Data file format
VERSION 0.7
FIELDS x y z intensity
SIZE 4 4 4 4
TYPE F F F F
COUNT 1 1 1 1
WIDTH 1231
HEIGHT 1
VIEWPOINT 0 0 0 1 0 0 0
POINTS 1231
DATA ascii
-12.265576 -45.837238 3.710387 8.5340834
-12.237512 -45.49284 3.7764916 8.5298748
-12.15087 -45.03434 3.6847742 8.026
-12.277083 -35.882797 3.6901634 9.0609999
-12.335937 -45.691555 4.2001243 9
-12.191921 -45.550808 4.2256541 9
-12.230777 -45.17437 4.1292577 10
-12.356766 -35.963146 4.3145385 10.0515
-12.068062 -51.211655 4.7727032 9.026
-12.312909 -45.705627 4.4703965 9
-12.198723 -45.482098 4.5120463 9.0147495
-12.276825 -35.830822 4.5945263 10.061
-12.33253 -45.651554 4.961659 10
-12.245846 -45.52198 5.0167217 9.8921394
-12.333416 -35.890198 5.1032195 11.0465
-12.225814 -45.493126 5.4202371 10.005899
-12.308179 -35.8032 5.5003376 11.061
-12.204261 -46.41494 5.8045378 11.038
-12.305229 -45.605347 5.7875857 11
-12.228928 -45.490955 5.7458544 11
-12.299042 -44.449421 5.6790934 10.703667
-12.10225 -44.225113 5.7866926 10.528
-12.254272 -43.948311 5.7594399 10.531
-12.118285 -43.291794 5.8072929 11.0335
-12.10923 -45.459171 6.0386782 11
-12.335269 -42.831612 6.2140322 11.027
-12.19318 -45.459042 6.5043268 12
-11.756843 -36.292248 -1.0104711 6
-11.890099 -45.401474 0.2729575 7.382
-11.800359 -45.248032 0.72576511 7
-11.933333 -45.1563 0.70743692 7
-11.786439 -36.165859 0.45051298 7
-11.732646 -36.007175 1.0220031 6
-11.644087 -44.962055 1.317584 8.0629997
-11.813113 -51.465492 1.8698593 6
-11.749348 -45.789127 1.7966537 8.5114002
-11.661857 -45.229103 1.7007375 6
-11.832689 -45.16708 1.6964533 7.2480001
-11.795201 -36.430183 1.8004178 8.1420002
-11.905713 -36.270554 1.8899962 8.1442499
-11.789686 -35.957508 1.8631078 7
-11.854804 -31.829414 1.7022674 7
-11.810163 -31.395649 1.8029323 7
-11.908956 -30.890551 1.7143769 7
-11.889169 -30.436825 1.7653011 7
-11.815512 -45.793827 2.1739414 8.0977497
-11.788733 -45.703133 2.5128949 8.0581245
-11.942257 -45.304886 2.7323785 9.0544996
-11.702811 -45.125645 2.4964676 7
-11.693851 -35.90596 2.7652504 8
-11.80623 -31.289948 2.7875288 8.0220003
-11.842428 -30.509182 2.7305582 8.0225
-11.734346 -51.397179 2.8133452 7
-11.812816 -45.682377 3.0754149 9.3257504
-11.734595 -45.487148 2.9353802 9.1009998
-11.715374 -36.206791 3.1791048 9.1379995
-11.801147 -35.911263 2.9411461 8.0411673
-11.699639 -45.039726 3.4168851 8.033699
-11.817568 -44.61787 3.2222619 9.1604996
-11.60367 -40.371952 3.5597005 9.1435003
-11.759084 -36.356125 3.2817042 9.1415005
-11.692004 -35.989082 3.5566003 9
-11.802653 -51.329857 3.7605054 8
-11.750586 -45.663162 3.9596715 9.0670004
-11.893626 -45.543266 3.8900807 8.5465002
-11.719373 -45.014488 3.6624165 8.0255003
-11.745466 -36.062546 3.6162262 9.0742502
-11.773445 -35.857426 3.7892401 9.0308752
-11.93207 -46.012253 4.00951 9.0705004
-11.739826 -45.634041 4.0509086 9.0655003
-11.851399 -45.434566 4.19384 9.0355835
-11.707721 -44.449303 4.1074643 10.063
-11.62632 -44.32877 4.1445031 10.0595
-11.686131 -35.941395 4.3909106 10
-11.857592 -51.287907 4.7050571 9
-11.829349 -45.523109 4.5917311 9.0139999
-11.730554 -35.856808 4.536675 10
-11.817825 -45.472198 4.9674411 9.3512087
-11.85552 -35.809517 4.8661089 10.06175
-11.828202 -45.432465 5.4778929 9.5179167
-11.695319 -35.82431 5.3793612 11
-11.914703 -45.488945 5.7614121 11
-11.904534 -44.96537 5.7703905 11.0425
-11.934512 -44.472069 5.8207488 10.0255
-11.761055 -44.282162 5.7651272 10.028167
-11.696224 -43.849865 5.7614675 10.658375
-11.821372 -43.306473 5.7992773 10.525499
-11.940713 -36.913639 5.9953761 12.046666
-11.95107 -36.582096 5.9804063 12.048374
-11.960208 -36.260323 5.9326873 11.72
-11.683402 -35.804787 5.8071895 11
-11.706584 -42.546501 6.3561149 12.047501
-11.724664 -42.140198 6.3151503 11.877209
-11.717426 -41.7164 6.2947373 11.794874
-11.755807 -41.325706 6.3180623 12.049601
-11.776812 -40.931992 6.2967677 12.050099
-11.803645 -40.451225 6.2884264 12.044499
-11.80818 -40.151611 6.2438869 12.037777
-11.819379 -39.746021 6.2159081 12.029583
-11.840276 -39.386536 6.1776552 12.032875
-11.855594 -38.982063 6.146317 12.027124
-11.871618 -38.63868 6.1398306 12.036675
-11.882592 -38.218388 6.1303558 12.036583
-11.898559 -37.821274 6.0921044 12.035035
-11.912759 -37.404373 6.0856643 12.036083
-11.936852 -36.993298 6.0607476 12.04075
-11.943869 -36.498932 6.046598 12.050167
-11.96752 -36.163189 6.1065421 12.015929
-11.978136 -35.944923 6.1143408 12
-11.607635 -45.307114 6.5688071 12
-11.601243 -45.128506 6.5717101 12.046
-11.614779 -44.734383 6.5432401 12.0465
-11.67204 -43.884369 6.5723681 12.0365
-11.71028 -42.568176 6.4254699 12.04175
-11.697222 -42.203217 6.4330077 11.54
-11.399404 -37.906605 -1.0244049 6
-11.553317 -36.385487 -1.0906373 6
-11.227104 -45.122688 -0.18289436 7
-11.521411 -44.758026 -0.046737075 7
-11.395067 -45.324192 0.26240984 7.5679998
-11.393655 -45.23587 0.6702491 7
-11.47614 -36.242348 0.54185963 7
-11.445018 -45.653469 0.88201946 8.0275002
-11.400773 -45.499458 0.95564735 8.03125
-11.557413 -36.04229 0.9376421 6
-11.439607 -35.977272 0.99850041 6
-11.39508 -44.958012 1.343541 8.0780001
-11.386733 -45.762417 1.8140526 8.4366426
-11.350916 -45.151794 1.6601526 6.4148002
-11.354644 -36.491043 1.7691159 8.1435003
-11.299557 -36.069962 1.8917046 7
-11.447509 -35.945633 1.8957095 7
-11.271481 -45.877655 2.0648241 8.1295004
-11.577897 -45.188927 2.1881533 8.0684996
-11.409972 -36.194382 2.0812392 8.1485004
-11.314795 -45.615463 2.6843495 8.0369997
-11.418276 -45.397282 2.6445758 7.5187502
-11.418124 -45.053444 2.4271021 7
-11.312502 -36.02248 2.7717662 8
-11.330551 -35.890556 2.76669 8
-11.370267 -45.823414 3.1173611 9.6312504
-11.325743 -44.700478 3.0807908 10.153
-11.483415 -36.342567 3.1959589 9.1424999
-11.449083 -35.893425 2.9132049 8.0305004
-11.427925 -45.788773 3.3945563 9.117857
-11.283456 -45.010258 3.392061 8.2549
-11.421061 -43.644024 3.2699564 9.1604996
-11.453323 -43.583469 3.3566153 9.1572495
-11.520475 -41.852325 3.5788209 9.1427498
-11.562463 -41.124336 3.5614383 9.1432495
-11.553679 -40.572216 3.5092125 9.1444998
-11.434443 -40.207554 3.4870732 9.1434994
-11.346238 -35.95578 3.5656743 9.052
-11.47562 -45.726295 3.8746903 9.0672493
-11.384851 -45.562145 3.8460238 9.0784998
-11.362067 -44.985577 3.6732724 8.0204287
-11.384353 -35.854504 3.7638927 9.0087147
-11.329258 -45.530029 4.2325687 9.0183754
-11.508181 -44.015762 4.2774487 10.068
-11.387835 -42.280869 4.292079 10.123
-11.238304 -35.905376 4.3922596 10.049
-11.427104 -45.456932 4.5206409 9.0282497
-11.353375 -35.827923 4.5951695 10.019334
-11.433549 -45.461143 4.9959054 9.6146994
-11.440579 -35.76952 4.8580546 10
-11.406491 -45.398148 5.4835157 10.02825
-11.330653 -35.796288 5.4314919 11.01375
-11.544562 -47.393105 5.9729314 11.036
-11.460681 -46.083721 5.9115953 11.0365
-11.500548 -45.801819 5.8797145 11.0415
-11.417086 -45.374664 5.832881 11.019875
-11.404118 -44.169685 5.7376328 10.6366
-11.295974 -43.946476 5.7427793 10.028666
-11.371019 -43.305935 5.709434 10.702167
-11.283722 -43.187813 5.6434822 10.5385
-11.30375 -35.722942 5.8385344 11
-11.55372 -42.681541 6.1495299 11.0315
-11.573124 -41.995651 6.1168494 11.0295
-11.521242 -46.181812 6.649075 12.0435
-11.480684 -47.274204 6.8150392 12.036
-10.844134 -36.282589 -1.0242611 6
-10.825188 -45.101273 -0.0064482815 7
-10.904126 -45.387997 0.27597725 7.3832498
-11.176164 -45.309647 0.52064466 7
-11.091082 -45.786388 1.1247885 8.1599998
-11.097026 -45.512562 0.97258252 8.0319996
-11.064976 -36.191452 0.98021662 6
-10.81487 -35.972843 0.96058476 6
-11.002882 -45.132343 1.5046093 7.0612497
-10.806733 -47.383953 1.7149018 6
-11.092999 -45.783207 1.8580781 9.1475
-10.991749 -45.252625 1.6833726 7.0634999
-10.822535 -45.099228 1.644936 8.0754995
-10.935965 -36.056396 1.8754625 7
-10.959332 -35.93338 1.8258178 7
-10.882355 -45.698372 2.3828573 8.0675001
-11.0024 -45.222466 2.1727953 8.0695
-11.11746 -45.747482 2.5897787 9.1599998
-11.043683 -45.329288 2.6363072 8.3726664
-10.941666 -36.021111 2.7599955 8
-10.893859 -35.884949 2.757771 8
-11.037067 -45.753784 2.9941485 9.0815001
-10.941416 -45.445465 2.887516 9.0634995
-11.065601 -35.890125 2.9515655 8.0614996
-10.900226 -45.009781 3.4129322 8.0306673
-10.985988 -44.228569 3.2595286 9.1604996
-10.876584 -39.550186 3.5246243 9.1450005
-11.14166 -36.390865 3.2375767 9.1435003
-10.980873 -35.925339 3.5728672 9.0465002
-10.909678 -45.631699 3.8564215 9.0679998
-10.948465 -45.509926 3.7983389 9.0764999
-10.899203 -44.987831 3.6878753 8.0275002
-10.95 -35.900459 3.7193632 9.0244284
-11.03336 -45.446758 4.1628251 9.0367994
-10.812362 -45.436546 4.5983214 9.0284996
-10.912528 -35.863609 4.5436201 10.01825
-11.003589 -45.442852 4.9671702 9.4264507
-10.935238 -35.753353 4.913589 10.03075
-11.032292 -45.392067 5.4782567 9.0177498
-10.811988 -39.980793 5.5782399 11
-10.984518 -35.815914 5.4054937 11.022643
-11.022842 -45.422787 5.821528 11.0395
-10.871499 -44.52142 5.7992005 11.048
-10.882725 -44.201473 5.7315326 11.041
-10.961115 -43.863773 5.7737088 10.026125
-11.020842 -43.36161 5.7133994 11.04225
-11.121324 -43.143585 5.8680701 10.016
-10.801197 -40.83482 5.6141405 11.038
-10.812373 -40.156864 5.6213655 11.0375
-10.816181 -35.69635 5.7506285 11
-10.608817 -45.390156 0.18254068 7
-10.760311 -45.02076 0.25508219 7
-10.478916 -40.201649 0.050636895 8.1140003
-10.515847 -45.297726 0.52157539 8.1595001
-10.453435 -36.16679 0.43684492 7
-10.562641 -45.538448 0.9521566 8.0342503
-10.705318 -36.671188 0.93633652 6
-10.641376 -36.122078 1.0067242 6
-10.50978 -35.977051 0.86431479 6
-10.726233 -45.043343 1.4052742 7.0317502
-10.529643 -45.749969 1.76958 8.4891663
-10.558309 -45.149414 1.7235862 8.0812502
-10.660647 -36.089783 1.9016237 7.3821664
-10.644494 -35.906399 1.8535235 7
-10.408909 -45.795494 2.1087344 8.1300001
-10.43999 -45.19339 2.1600375 8.0690002
-10.544257 -36.222157 2.1015635 8.1482506
-10.623017 -45.659943 2.4934936 8.0580006
-10.677648 -45.065174 2.627991 7.2041998
-10.534224 -35.904472 2.7563581 8
-10.481362 -45.533588 3.0027237 9.1195002
-10.693346 -35.850349 2.9253285 8
-10.565619 -45.657135 3.3655901 9.1149998
-10.684321 -44.98394 3.3955131 8.0319996
-10.797162 -35.947865 3.5729659 9.0500002
-10.541749 -44.94931 3.6545868 8.0209999
-10.580438 -35.8358 3.6958952 9
-10.465914 -45.614658 4.0507693 9.066
-10.677249 -45.514927 4.1799016 9.0463333
-10.739237 -44.344391 4.1272817 10.06175
-10.545536 -43.960815 4.2810874 10.0685
-10.761942 -45.423447 4.4093103 9.0310001
-10.558331 -35.819153 4.5702772 10.0125
-10.701614 -45.424381 4.9568219 9.4281998
-10.536201 -35.744095 4.8362155 10.0605
-10.713283 -45.373661 5.3839841 10.030499
-10.724604 -41.367477 5.5974374 11.0495
-10.76405 -40.984097 5.5780597 11.03275
-10.750843 -40.626274 5.558331 11.037749
-10.777341 -40.257732 5.555584 11.0263
-10.549464 -39.824169 5.5338945 11.042714
-10.548037 -35.787872 5.4325252 11.016666
-10.618301 -45.394756 5.8706827 11.0385
-10.676949 -43.855793 5.7746258 10.0275
-10.713447 -43.274044 5.7584076 10.02725
-10.681304 -42.884857 5.7159376 11.016901
-10.673741 -42.588696 5.7180219 10.910723
-10.709638 -42.189781 5.6820836 11.022375
-10.716983 -41.803852 5.6834221 11.023556
-10.737064 -41.39933 5.6685562 11.027501
-10.749988 -41.060501 5.6504445 11.0258
-10.77328 -40.653519 5.6448545 11.030499
-10.758487 -40.132637 5.6413798 11.055
-10.558296 -39.784447 5.6118469 11.038
-10.619894 -39.246765 5.8353128 11.0355
-10.763224 -36.487755 5.6419291 11.0595
-10.499827 -35.690086 5.6488338 11
-10.687841 -44.586155 6.3056831 11.031
-10.129643 -40.892197 -0.88275379 6
-10.320998 -39.094681 -0.98005921 6
-10.138991 -36.477863 -1.0798383 6
-10.172482 -36.348667 -1.1140203 6
-10.35281 -44.895061 0.29629242 7
-10.127837 -41.271221 0.27893671 7
-10.152287 -40.953228 0.32680765 7
-10.114318 -40.659595 0.3073284 7
-10.162774 -36.116661 0.37489843 7
-10.309014 -45.280743 0.63481635 7
-10.23866 -45.189514 0.75067884 7
-10.118523 -41.385628 0.52921456 7
-10.130488 -41.047401 0.48080251 7
-10.168647 -40.795937 0.45338163 7
-10.208873 -36.199383 0.4292745 7
-10.042608 -45.767147 1.1309897 8.1604996
-10.169013 -45.497749 0.9745307 8.0325003
-10.173946 -40.405914 0.86755419 8.0310001
-10.30311 -36.988342 0.94089824 6
-10.149146 -45.138287 1.5235693 6
-10.127172 -41.271118 1.3314528 8.1195002
-10.050617 -40.905704 1.4628714 8.0987501
-10.060336 -40.661064 1.3730977 8.1096678
-10.242719 -45.713131 1.8673607 8.5574999
-10.131993 -45.138027 1.7312641 8.0783749
-10.083314 -41.241768 1.8992993 8.0695
-10.157968 -41.035435 1.8226669 8.0513115
-10.11532 -40.695274 1.8990127 8
-10.177661 -36.450615 1.7916174 8.1359997
-10.238107 -36.146645 1.8481745 7.5700831
-10.103429 -35.901348 1.7901696 7
-10.349483 -45.685387 2.2833893 8.0670004
-10.314498 -44.919819 2.3896 7
-10.110994 -41.363392 2.0653007 8.1409998
-10.127084 -41.175877 2.0294523 8.1379995
-10.11616 -40.750084 2.1313419 8.1432495
-10.17821 -36.229546 2.05002 8.0495005
-10.065533 -45.73209 2.6222954 9.1604996
-10.236066 -45.069668 2.6280155 7
-10.029547 -40.597912 2.7694137 9.1225004
-10.152626 -36.011093 2.7722344 8
-10.219979 -35.917011 2.7407823 8.0150003
-10.261724 -45.711315 3.1874478 10.1465
-10.051933 -45.532413 3.0171039 9.1043329
-10.387882 -44.660992 3.1185486 10.1535
-10.122157 -41.240265 2.9005642 9.1195002
-10.19284 -40.866753 3.1725936 9.1254997
-10.079398 -40.693619 3.0599487 9.0856667
-10.399224 -45.665375 3.5904 9.1304998
-10.344773 -45.446968 3.5338662 9.1295004
-10.153637 -44.950191 3.5255508 8.026
-10.015262 -44.205257 3.2742906 9.1615
-10.368937 -43.622391 3.2774911 9.1604996
-10.093833 -41.304382 3.4433625 9.1399994
-10.13146 -41.025566 3.3750098 9.0681429
-10.105136 -40.642899 3.3804903 9.0165997
-10.00563 -38.322407 3.4829955 9.1429996
-10.114751 -36.420151 3.2489619 9.1359997
-10.155854 -36.222954 3.3872793 9.0911674
-10.249 -35.925495 3.5794632 9.0169992
-10.249153 -45.626362 3.8126588 9.0682507
-10.220159 -45.466576 3.7106199 9.0740004
-10.213093 -44.958935 3.7154505 8.0295
-10.062114 -40.507824 3.621139 9.0799999
-10.147763 -36.240803 3.7055306 9.1479998
-10.171589 -35.864948 3.6835988 9.0150003
-10.351076 -45.423908 4.4834089 9.0305004
-10.182927 -35.828667 4.5570893 10.0185
-10.186587 -45.394939 4.8617859 9.022501
-10.321003 -45.374432 5.4514523 10.0305
-10.385895 -39.998699 5.4954348 11.045
-10.262182 -39.400806 5.516098 11.044562
-10.107844 -35.786751 5.4151998 11.01275
-10.199818 -43.782597 5.7878532 10.281
-10.196017 -43.317406 5.7337546 10.6397
-10.252558 -39.411736 5.6077647 11.0385
-9.6303215 -34.631195 -0.043068189 7
-9.7667809 -45.406635 0.23002297 7
-9.6144333 -32.847176 0.35105714 7
-9.6614466 -30.189314 0.30373284 7
-9.905488 -45.213097 0.6472407 7
-9.7561331 -45.421406 0.95599139 8.0275002
-9.7945232 -40.530411 0.87226671 8.0506668
-9.7247362 -36.106754 0.89367551 6
-9.7088366 -35.026901 0.88611144 8.0054998
-9.8777189 -34.679062 0.8122232 8.0124998
-9.8432274 -33.819283 0.86933625 8.0050001
-9.8609066 -32.570286 0.88059306 8.0027504
-9.8175583 -45.129097 1.4805976 6.6935
-9.8715229 -40.54258 1.3995965 8.0918751
-9.9700613 -45.697605 1.9122156 8.158
-9.7920933 -45.107704 1.6261783 7.0412502
-9.9099874 -36.030151 1.8395367 7
-9.7971497 -35.892838 1.7710295 7
-9.6184235 -45.815372 2.1505945 8.1304998
-9.9105787 -45.191711 2.1439931 8.0699997
-9.7826471 -41.184944 2.0534763 8.1420002
-9.9702969 -39.988358 2.3739905 8.0240002
-9.7724237 -45.458618 2.7276258 8.3776665
-9.799262 -45.069138 2.604439 7
-9.9441538 -40.456356 2.7394416 9.1245003
-9.6458454 -36.075485 2.7718804 8
-9.8371172 -35.900745 2.7358959 8
-9.8620424 -34.179867 2.4775259 9.0015001
-9.8578281 -33.814552 2.4474494 9.0050001
-9.8982172 -32.86005 2.4218042 9.0010004
-9.9760866 -45.567524 2.8058212 8.0349998
-9.9942417 -40.637753 3.0177133 9.1199999
-9.9037781 -35.831757 2.9210238 8.0605001
-9.6337481 -45.765102 3.3254828 9.1269999
-9.6871614 -45.407223 3.5793648 9.1300001
-9.7836666 -44.969013 3.3401737 8.0340004
-9.6053734 -44.709999 3.5825543 9.1344995
-9.6554909 -44.390736 3.563935 9.1309996
-9.6659231 -38.009293 3.4879663 9.1440001
-9.8079357 -35.905685 3.5922952 9
-9.8428593 -45.616657 3.749774 9.0690002
-9.8815718 -45.499901 3.7618725 8.5515003
-9.8687801 -44.931324 3.6492364 8.027667
-9.6911888 -44.738403 3.6119452 9.1355
-9.9955359 -40.448605 3.6206841 9.0810003
-9.9246273 -36.702572 3.6148651 9
-9.797451 -36.137165 3.6359477 9
-9.8538055 -35.807499 3.7589889 9.0151253
-9.7937202 -45.420082 4.2588496 9.0337505
-9.6456423 -44.521557 4.0326214 9.0670004
-9.8296318 -44.031601 4.1020079 9.0695
-9.7945814 -45.387386 4.5603137 8.53125
-9.8082132 -35.769115 4.6213899 10
-9.8651018 -45.388073 4.9661851 9.4048758
-9.8686504 -35.715275 4.9435434 10.0605
-9.7621222 -45.326969 5.3894148 10.0315
-9.9025412 -38.992039 5.5160108 11.044499
-9.6727076 -38.70797 5.5059385 11.044625
-9.792345 -35.796265 5.4936109 11
-9.7520332 -45.294338 5.9223084 11.04175
-9.6087656 -44.953762 5.9379797 11.04575
-9.8663692 -43.816128 5.7984619 10.028
-9.7259922 -43.263977 5.7404065 10.029834
-9.7933493 -42.031013 5.6056051 10.031
-9.961585 -39.024025 5.6020498 11.039
-9.7617826 -35.651585 5.750104 11.015125
-9.8592815 -40.460682 6.0217667 11
-9.3209362 -41.44099 -0.89523566 6
-9.224102 -39.822857 -0.97923446 6
-9.3190298 -39.049801 -1.0135933 6
-9.5184612 -33.276398 -0.56048721 7
-9.595089 -30.303345 -0.517694 7
-9.2613764 -45.894245 -0.086974144 8.0825005
-9.4812698 -45.433746 0.15688969 7.2755003
-9.4196968 -44.819771 0.18661515 7
-9.5833673 -34.901058 0.26277786 7
-9.2168159 -32.558041 0.24672017 7
-9.4878092 -36.069607 0.6067549 6.5
-9.2938976 -35.540668 0.74791342 8.0365
-9.3691711 -35.054764 0.71226984 8.0340004
-9.4012241 -34.505199 0.73303258 8.0349998
-9.4259024 -33.990021 0.77074271 8.0325003
-9.4875154 -32.82457 0.74382228 8.0314999
-9.468194 -32.460239 0.74209964 8.0319996
-9.5269585 -31.755249 0.77946717 8.0305004
-9.5247831 -31.424112 0.71765637 8.0310001
-9.583231 -30.605404 0.7338239 8.0334997
-9.3741331 -30.196285 0.68126088 8.0240002
-9.3073215 -45.410797 0.96862918 8.0293341
-9.5419521 -36.27013 0.98128515 6
-9.5820742 -45.141781 1.5382432 6
-9.4390602 -41.009445 1.2809601 6
-9.4471588 -40.65815 1.256217 6
-9.5622644 -34.197178 1.2011756 8.1715002
-9.4516516 -45.685169 1.7830729 8.4918337
-9.4791861 -40.49297 1.9158137 7
-9.5325203 -36.112137 1.8233389 7
-9.5374575 -35.945343 1.7839115 7
-9.3165083 -34.992989 1.6178764 8.0480003
-9.4747972 -34.441647 1.8099006 8.6022501
-9.4562836 -33.4431 1.9306606 9.0334997
-9.4882336 -32.456696 1.975207 9.0319996
-9.4908514 -31.876572 1.8524084 9.033
-9.5534105 -30.660698 1.7608614 8.165
-9.444108 -30.138517 1.9388008 9.0261679
-9.4023848 -45.700386 2.2988276 8.0821247
-9.4415359 -45.154354 2.2206774 8.0485001
-9.4057751 -40.933918 2.1878724 7
-9.3995209 -40.607407 2.1540887 7
-9.4270315 -40.375225 2.135253 7
-9.5448599 -36.162846 2.1136963 8.1479998
-9.3927145 -34.487442 2.150012 9.0314999
-9.420784 -31.411785 2.0156605 9.0264997
-9.2268734 -45.48745 2.6365356 9.1610003
-9.4282503 -44.973835 2.5602279 7.5116248
-9.5112352 -43.352623 2.5753095 8.0170002
-9.3806162 -40.23875 2.5778956 8.02075
-9.491827 -36.09338 2.7324352 8
-9.4504309 -35.92075 2.7545621 8
-9.4031019 -45.44714 3.1298139 8.0059996
-9.3706522 -40.906189 3.0522642 8
-9.3701849 -40.600685 3.0397375 8
-9.3670807 -40.318649 3.0633125 8
-9.4687319 -33.418873 3.180542 10.0335
-9.4103918 -45.69669 3.339035 9.1442499
-9.4606867 -45.568806 3.4796233 9.0699997
-9.3772182 -44.96814 3.3784902 8.4019165
-9.4154978 -44.712711 3.4784465 9.1391249
-9.2967949 -44.308582 3.4887583 9.1295004
-9.387352 -40.927269 3.2360094 8
-9.3803511 -40.63483 3.2251203 8
-9.2890234 -37.68808 3.3876827 9.1359997
-9.4744911 -36.119038 3.5917449 9
-9.2803059 -33.961124 3.360024 9.0480003
-9.5430069 -47.300526 3.7016981 9.1295004
-9.432478 -45.506046 3.9090648 9.071167
-9.3056993 -45.06469 3.7029583 9.0695
-9.2374239 -44.722752 3.8963654 9.0684996
-9.2613983 -44.398766 3.8027375 9.0679998
-9.3397875 -40.8727 3.9365721 9
-9.3424492 -40.584011 3.9205227 9
-9.3472853 -40.309177 3.9264987 9
-9.4728127 -36.076363 3.6385834 9
-9.4352083 -35.907948 3.6838603 9
-9.5487537 -45.439381 4.1975288 9.0494995
-9.3416567 -44.594425 4.0052333 9.0670004
-9.3483686 -40.85339 4.1672101 9
-9.3391104 -40.614243 4.1525679 9
-9.2567949 -40.303226 4.1485205 9.0155001
-9.3858776 -45.380642 4.4955993 9.0310001
-9.3246841 -40.820881 4.7864046 10
-9.3113632 -40.535362 4.7603726 9.7538128
-9.3259211 -40.35593 4.7725754 10
-9.433219 -36.026054 4.5146084 10
-9.4478159 -35.885983 4.6229467 10
-9.3986044 -45.359623 4.8465667 9.0253744
-9.3148012 -40.857559 4.8730025 10
-9.3198128 -40.61166 4.9478559 10
-9.3064213 -40.268814 4.9127207 10
-9.4698668 -45.318745 5.3789124 10.03175
-9.5413961 -42.017986 5.5948825 10.032
-9.5206251 -38.52467 5.5373249 11.04575
-9.3129616 -38.253548 5.5028834 11.046124
-9.3934546 -36.034836 5.3922787 11
-9.4359608 -35.930691 5.4055133 11
-9.333252 -44.900539 5.9600043 11.04125
-9.3039103 -44.086864 5.9618039 11.037
-9.2947483 -43.842121 5.8487678 10.534
-9.2706432 -43.237949 5.7216921 10.030251
-9.2109823 -43.196018 5.758707 10.028
-9.2212658 -40.840038 5.9372067 11
-9.4968891 -40.526096 5.8831091 11
-9.2989979 -38.055157 5.684629 11.039
-9.3061094 -35.752468 5.700696 11
-9.5809832 -45.946648 6.0050893 11.044
-9.5097656 -40.420162 6.0457501 11
-8.9097271 -44.835239 0.19488168 7
-8.9260015 -45.605824 0.793935 8.1339998
-9.1607256 -45.450115 0.44599009 7
-9.0418673 -45.152271 0.69429928 7
-9.0250015 -34.973221 0.76061636 8.0237503
-8.8118486 -30.461103 0.76930237 7
-8.9813747 -45.724117 1.1368136 8.1610003
-8.8802834 -45.365353 0.95310551 8.0254993
-9.15238 -44.065617 1.0102562 8.0174999
-8.9677486 -37.947716 0.94389611 6
-9.0205135 -45.069695 1.4839978 6
-9.1882553 -41.113758 1.2903259 6
-8.8005915 -34.519188 1.2114004 8.1719999
-8.9951658 -45.727348 1.8626591 8.1478338
-9.0267258 -40.566101 1.6591593 7
-8.8310528 -35.842102 1.7440422 7
-8.8318024 -33.129757 1.7921643 8.0264997
-8.8295202 -30.611725 1.9295583 8.0405006
-9.1696882 -30.356865 1.6265571 7
-8.9935579 -45.727234 2.122787 8.4523344
-9.0161047 -45.059841 2.0435131 8.0539999
-9.1383247 -40.983646 2.1629333 7
-9.079937 -40.635883 2.1675239 7
-8.9814014 -34.893524 2.1987305 9.0226669
-8.9412212 -34.498478 2.1332536 8.5282497
-9.1905336 -30.076666 2.0059609 8.0235004
-9.0340986 -49.106941 2.5685949 7
-9.0097437 -45.517738 2.7835331 8.0354996
-8.9794588 -45.046242 2.548733 7.3391666
-8.963645 -40.500885 2.4656947 8.033
-8.9289284 -34.862804 2.5007555 8.0102501
-9.0317516 -45.514996 2.9322672 9.0684996
-9.1917076 -40.476612 3.1875465 8
-8.953908 -30.816513 2.83606 8.0235004
-8.9206524 -49.086327 3.5935731 8
-9.0144444 -48.592045 3.5304351 8.033
-9.038475 -47.915409 3.4930208 8.0340004
-9.1536922 -45.101597 3.2715135 9.1273746
-9.0689373 -40.471134 3.23123 8
-8.9162846 -37.217579 3.4297709 9.1399994
-8.9427128 -37.026863 3.3580754 9.1359997
-8.9214029 -36.479816 3.3717532 9.138833
-9.0707636 -36.305408 3.5897188 9.1459999
-8.9330044 -34.346909 3.5647604 9.0284996
-8.8693581 -33.298283 3.5943203 9.0325003
-8.9257364 -32.496418 3.4822781 9.0314999
-9.0189342 -31.812122 3.4143121 9.0299997
-9.1077929 -30.587769 3.3170683 9.0282497
-9.1622906 -30.012697 3.3506644 9.0235004
-8.9664154 -50.552937 3.8027773 8.0275002
-8.8963852 -49.906906 3.7124624 8.0315008
-8.9360762 -49.332993 3.8111198 8.0266657
-8.9701977 -49.112495 3.740694 8.0137501
-8.9737396 -48.68354 3.6720915 8.0290003
-9.0871305 -45.503315 3.7895265 8.8632002
-9.0731955 -44.840359 3.6554134 8.0272503
-9.1315775 -44.578854 3.9793308 9.0670004
-9.0473089 -44.134224 3.8067906 9.0753336
-8.8327904 -43.961926 3.8394837 9.0739994
-9.1303282 -40.372486 3.8884594 9
-8.8466368 -31.539 3.9703372 8.0279999
-9.0111237 -51.339352 4.0581188 8.0249996
-8.9044237 -51.13628 4.0432191 8.026
-9.1278458 -45.49358 4.1543703 9.0500002
-9.1189518 -40.411869 4.1602979 9
-8.9635181 -40.321049 4.1441193 9
-9.0672188 -35.412357 4.34233 9.0685005
-8.9868097 -34.956909 4.0424323 9.0124998
-8.8586473 -49.92379 4.6591554 9.0375004
-8.9010077 -48.91375 4.6119881 9
-8.8903255 -50.529701 4.883986 9.0275002
-9.0445499 -45.35976 4.939548 9.3154993
-9.0857611 -40.321907 5.125617 10.010333
-8.8521681 -50.5956 5.5636635 10.0345
-8.9433956 -44.40617 5.5906801 10.0275
-9.0785656 -38.043892 5.541512 11.043
-8.9542065 -37.810646 5.5090184 11.046666
-8.9696932 -44.90414 5.8140702 10.533251
-9.0409756 -44.106731 5.8962188 11.045
-9.0674963 -43.806408 5.9276733 11.04525
-9.0895891 -43.424828 5.90662 11.04325
-8.8724699 -43.189167 5.7602201 10.029
-9.0198154 -41.020664 5.9755163 11.036
-9.0809288 -39.254871 5.9717932 11.036
-9.0208368 -39.082577 5.8555002 11.04525
-9.0469255 -38.667149 5.8350906 11.046249
-9.1123152 -38.205246 5.7778964 11.05675
-9.0201216 -37.731609 5.7517862 11.0485
-9.034565 -36.56551 5.6447301 11.056749
-9.194438 -36.140804 5.719574 11.05875
-9.034996 -43.705494 6.0120115 11.036
-9.0756073 -40.193378 6.0602641 11
-9.072053 -39.642887 6.000452 11.0345
-8.6115637 -32.536732 -0.51751596 7
-8.7793036 -30.41807 -0.48501596 6
-8.4417257 -45.39043 0.1930941 7
-8.5971985 -32.60157 0.12733825 7
-8.5356379 -45.372414 0.40330997 7
-8.684515 -45.178944 0.62286735 7
-8.4333973 -36.593555 0.7739678 6
-8.7537012 -36.174213 0.76684779 7.0100002
-8.7194366 -31.19578 0.74827123 7
-8.6005507 -45.507282 1.0155439 8.0264997
-8.5435753 -35.444023 0.8238858 8.0135002
-8.7005796 -34.281178 0.80726016 8.0129995
-8.7678947 -45.455738 1.4665704 8.1750002
-8.7087793 -45.034931 1.3816166 6
-8.4280138 -35.495842 1.462447 8.0629997
-8.67103 -32.727131 1.5944661 8.0530005
-8.7122049 -31.143774 1.5550658 8.0574999
-8.5599051 -45.648197 1.8515333 8.1599998
-8.5491571 -45.452194 1.9188094 7
-8.6693802 -45.15094 1.7646503 8.0635004
-8.4377213 -35.347664 1.6848639 8.0535002
-8.640027 -34.473217 1.8034587 8.0977497
-8.5530815 -34.388866 1.6727015 8.0579996
-8.7911692 -30.528635 1.9661884 8.0345001
-8.6070623 -45.412331 2.0657029 8.1009998
-8.6417828 -35.361217 2.0885582 8.0275002
-8.5031538 -35.138039 2.0866802 8.5365
-8.5762854 -34.463688 2.1349695 9.0307503
-8.7417994 -34.340282 2.3848755 8.0244999
-8.6325169 -33.596493 2.0998766 8.0354996
-8.7159252 -32.840973 2.0171711 8.0419998
-8.7840118 -31.050056 2.0225306 8.0340004
-8.6083317 -45.48243 2.580471 8.04
-8.4446182 -44.985153 2.5118628 7.5067501
-8.7358494 -41.009876 2.5056708 8.0450001
-8.743722 -35.781998 2.753649 8
-8.7736721 -35.065746 2.6222754 8.0035
-8.6741486 -31.656534 2.7866142 9.0574999
-8.5777645 -45.289921 3.1372783 8.0615005
-8.4137125 -35.253029 2.9047306 9.0582504
-8.5085859 -35.055447 3.0269537 9.0579996
-8.7577419 -34.625412 3.0057886 8.0244999
-8.6553402 -32.633614 2.8323541 9.0530005
-8.769062 -30.451414 3.191118 9.0345001
-8.7175798 -45.600212 3.4832766 9.0635004
-8.5905285 -44.933567 3.4229136 8.0345001
-8.4939804 -34.473103 3.4729958 9.0365
-8.494442 -34.38802 3.4848874 9.0524998
-8.6425238 -33.947659 3.4455676 9.0369997
-8.6186056 -33.535233 3.4242885 9.0354996
-8.6499701 -32.908794 3.3559921 9.0360003
-8.6993046 -31.940325 3.3035023 9.0349998
-8.715683 -31.263269 3.2303226 9.0354996
-8.7667236 -31.002689 3.2791612 9.0340004
-8.4088202 -45.447098 3.7331007 8.0299997
-8.5546923 -44.651543 3.991852 9.0690002
-8.7183723 -35.714417 3.766068 9
-8.7947111 -32.615711 3.9246051 8.0284996
-8.4934597 -45.362343 4.2839141 9.0343752
-8.5214643 -35.32233 4.3103127 8.0295
-8.7823839 -34.547626 4.0407515 8.0290003
-8.6360998 -45.349747 4.5271401 9.0295
-8.7551355 -44.289345 4.5335231 9.0495005
-8.7986069 -43.91161 4.5763197 9.0489998
-8.7350082 -35.66888 4.7805438 10
-8.4784803 -34.751865 4.4619374 9.0615005
-8.5593023 -45.304482 4.9318032 9.2773743
-8.5555277 -44.248123 4.9991994 9.0699997
-8.7894211 -40.329788 5.1149259 10
-8.5760822 -45.284618 5.3080115 10.033375
-8.4628391 -44.241867 5.5574455 10.0315
-8.6334639 -37.707512 5.5662374 11.043667
-8.4662123 -37.291096 5.5167603 11.049
-8.4111395 -36.007816 5.4959049 11.0445
-8.4498768 -42.817265 6.8153505 12.0475
-8.0224724 -32.217514 -0.48707205 7
-8.2912226 -45.398037 0.20358936 7
-8.0322151 -44.919987 0.22308083 7
-8.2476044 -32.033089 0.33612728 7
-8.2664871 -45.594479 0.78702956 8.0185003
-8.3003798 -35.968861 0.77238721 6
-8.2516251 -45.674725 0.96014422 8.0144997
-8.2058544 -36.97147 0.88360864 6
-8.0148239 -45.008396 1.4790114 6
-8.2477903 -45.697521 1.8434654 8.1615
-8.3606081 -45.456535 1.968238 8.0485001
-8.3293972 -34.346394 1.9583856 8.1684999
-8.290287 -45.615643 2.3840148 8.0670004
-8.1534319 -45.425282 2.334754 7
-8.1471872 -45.040127 2.06148 8.059
-8.2045231 -35.057873 2.3452959 9.0117502
-8.1294241 -34.539444 2.1180782 9.0286674
-8.2429514 -33.948338 2.3130753 9.0094995
-8.2308111 -30.206488 2.2581031 9.0045004
-8.1910686 -45.557011 2.6830542 8.6054993
-8.0683661 -44.965149 2.5555861 7
-8.3413467 -34.532116 2.8654766 8.1754999
-8.0166683 -45.228512 3.2825325 8.0579996
-8.3780107 -44.907558 3.292227 8.0340004
-8.126442 -44.526836 3.5860989 9.1295004
-8.1665993 -34.427555 3.4515276 9.0413752
-8.1283207 -45.455135 3.7070506 8.5802498
-8.0488682 -44.859062 3.6572618 8.0299997
-8.337265 -45.414951 4.3138123 9.0424995
-8.1692629 -44.513103 4.0467596 9.0675001
-8.1540709 -35.071526 4.0157685 9.0129995
-8.305831 -31.066692 4.31984 8.0220003
-8.1581306 -34.729397 4.6029987 9.0579996
-8.2280588 -32.766323 4.4213371 8.0225
-8.2469692 -45.330097 4.8628998 9.0289993
-8.3030415 -44.995094 5.146153 10.041687
-8.2796135 -44.572437 5.1225486 10.040813
-8.2720881 -44.227276 5.101511 10.0422
-8.2918806 -43.912945 5.0937786 10.0432
-8.3160658 -43.484909 5.0633187 10.049
-8.162221 -46.916416 5.2700486 10.0385
-8.1972742 -46.539898 5.2399969 10.0425
-8.1762018 -46.184536 5.2686129 10.042749
-8.329896 -45.354221 5.2260051 10.0425
-8.2866392 -44.863625 5.240376 10.034333
-8.0471611 -44.288464 5.4518247 10.0325
-8.2109289 -43.881477 5.3296952 10.0335
-8.351491 -37.223618 5.5365114 11.048
-8.3152103 -37.160408 5.5451136 11.046249
-8.0475578 -44.315208 5.619987 10.028
-8.3126535 -43.212536 5.7688565 10.0315
-8.3431768 -43.183788 5.7547188 10.03
-8.2407007 -38.859135 5.7428169 11.0395
-7.7820354 -32.571854 -0.47241381 7
-7.9604831 -32.539074 0.12399603 7
-7.9631414 -32.389477 0.34973976 7
-7.8645754 -45.170536 0.58641702 7
-7.8880095 -36.337078 0.77409315 6
-7.6160192 -35.978271 0.75486147 6
-7.884541 -32.559113 0.75703984 7
-7.8283434 -37.359158 0.89510262 6
-7.7076306 -35.245701 1.0663018 8.1759996
-7.8176613 -45.046631 1.4093733 6.7068329
-7.8166842 -34.449448 1.2137996 8.1724997
-7.8494062 -45.546665 1.9942394 8.0480003
-7.8214269 -45.109383 1.7553627 8.0640001
-7.6301289 -34.419781 1.6478177 8.1704998
-7.7636008 -45.49197 2.1352904 7.5265002
-7.923173 -35.322758 2.1326604 8.6415005
-7.8645563 -35.148445 2.0071487 9.0380001
-7.6551976 -34.461029 2.0867565 9.0319996
-7.9836555 -33.835625 2.0495844 8.1674995
-7.6401038 -45.463818 2.6465931 8.0380001
-7.6556501 -44.904575 2.5118761 7
-7.6855993 -45.302197 2.9467542 8.0137501
-7.7849007 -34.499882 3.1741304 8.1730003
-7.9072671 -44.870953 3.5944288 8.0284996
-7.7375612 -44.058273 3.3693936 9.0640001
-7.7790771 -34.440765 3.4481924 9.0369997
-7.6116276 -34.367321 3.4625771 9.0530005
-7.9477572 -45.436008 3.7162895 8.0305004
-7.6919436 -35.464947 4.7127628 10.057
-7.6053543 -34.730915 4.4773726 9.0600004
-7.6981335 -45.322186 4.9002471 8.7788754
-7.88412 -43.723663 5.0590429 10.042
-7.9907103 -43.656612 5.3926654 10.033
-7.3306899 -44.965668 -0.22341676 7
-7.4089723 -45.105259 0.5691489 7
-7.2852058 -36.883121 0.79606181 6
-7.3100128 -36.725952 0.78588969 6
-7.5262403 -36.28149 0.76411629 6
-7.4095387 -32.022449 0.77326399 7
-7.2459049 -45.792534 0.91487658 8.0235004
-7.3292041 -43.420979 1.1863112 6
-7.2287092 -38.801323 0.92006934 6
-7.3045974 -37.80188 0.83886522 6
-7.2889929 -37.361458 0.83399349 6
-7.3992257 -44.996414 1.3906074 6.9040003
-7.2924767 -43.941227 1.2075946 6
-7.5871797 -42.913136 1.2634362 6
-7.4711304 -42.399319 1.228285 6
-7.2159748 -35.031155 1.2298166 8.1730003
-7.2696662 -45.712582 1.9584962 8.1577501
-7.2818294 -45.530827 1.9460248 8.0489998
-7.5081882 -45.018841 1.6263044 8.0795002
-7.3144698 -35.161674 1.9957618 9.0367498
-7.4055982 -44.970871 2.2041731 7.5297499
-7.4566321 -35.377552 2.0001462 8.1674995
-7.2026148 -35.149162 2.0057232 9.0389996
-7.3635774 -34.48616 2.1151667 9.0291662
-7.4492555 -45.260227 3.1439569 8.0600004
-7.3863997 -34.500053 2.8473463 8.1759996
-7.4340296 -44.875053 3.3381867 8.0358753
-7.364624 -44.703285 3.5845721 9.1289997
-7.2431846 -35.260654 3.5993779 8.1704998
-7.3945417 -34.413589 3.4357963 9.0421247
-7.2693744 -34.378265 3.541785 9.0319996
-7.479692 -45.406055 3.7180762 8.0305004
-7.2835841 -43.913662 3.6933062 9.1341667
-7.3080049 -37.396267 3.6664572 9.1455002
-7.3640761 -36.503452 3.6796057 9.1455002
-7.2710714 -35.057121 3.9778674 9.0135002
-7.5223861 -33.531174 3.7525098 9.0174999
-7.3167877 -45.325981 4.2852044 9.0367498
-7.3377686 -44.052525 4.0169363 9.0679998
-7.5983243 -45.305496 4.6230488 9.0275002
-7.5405173 -35.357079 4.7534771 10.0585
-7.4273682 -34.723595 4.5075121 9.0612507
-7.340487 -45.269073 4.8579683 9.0292492
-7.4462276 -35.345062 4.8427744 10.059
-7.3722181 -35.897106 5.5585136 11.046
-7.3963585 -44.193027 5.6212678 10.028999
-6.9450002 -37.075607 0.77757668 6
-7.158319 -36.56015 0.73876047 6
-7.1321745 -32.288887 0.74680412 7
-7.1002498 -43.474468 1.1721259 6
-7.0271049 -42.985046 1.1434573 6
-7.0706902 -42.470104 1.1220012 6
-6.8525367 -42.018051 1.0829154 6
-6.820478 -39.238865 0.92797941 6
-6.9250264 -38.760437 0.90291649 6
-7.0222354 -38.256641 0.86267078 6
-7.0918593 -37.818199 0.84901744 6
-7.1208959 -44.999619 1.315408 6
-6.8853559 -44.643993 1.2602756 6
-6.8103127 -44.12151 1.2456663 6
-7.142622 -43.990719 1.2323995 6
-7.0491962 -34.596886 1.407827 8.0010004
-7.0863171 -45.014965 1.685033 8.0710001
-7.0550046 -34.578541 2.1572375 9.0255003
-6.819809 -33.815956 2.12868 9.0229998
-7.0729227 -44.903969 2.5334606 7
-7.0309019 -44.866806 3.2871413 8.0378008
-7.0261121 -35.937965 3.4117529 9.1420002
-6.9054508 -34.408581 3.2995298 9.0404997
-6.8673635 -44.452255 3.9982064 9.0825005
-7.1307082 -34.426224 3.6183217 9.0340004
-7.0529819 -34.207008 3.6742845 9.0225
-6.8612704 -31.866316 3.899415 9.0035
-6.9652252 -45.360748 4.3309474 9.0340004
-6.8368468 -45.19252 4.0598855 9.0675001
-6.8075566 -44.484241 4.0010524 9.0695
-6.9777532 -34.109886 4.0082145 10.064
-6.8212905 -33.26833 4.0060062 9.0039997
-7.156467 -35.447895 4.7196679 10.056
-6.8754449 -43.855427 5.6093121 10.0295
-6.9110107 -36.452656 5.659791 11.044
-7.0324488 -35.925686 5.6407104 11.0535
-6.6035881 -30.173798 -0.24088612 7
-6.4681368 -30.570564 0.1249449 7
-6.4293127 -36.336384 0.71625847 6
-6.5727258 -35.882961 0.7041136 6
-6.6034336 -30.209869 0.77125669 8.052
-6.612586 -45.495075 0.98553258 8.0345001
-6.5924697 -43.717556 1.1954851 6
-6.4058867 -43.258301 1.128458 6
-6.7091455 -43.162354 1.1783611 6
-6.7417965 -42.567402 1.1251928 6
-6.5943885 -42.05035 1.0677099 6
-6.4750619 -41.634151 1.055626 6
-6.455307 -41.128185 1.0370008 6
-6.456521 -40.583714 0.98063272 6
-6.6792722 -40.182213 0.98242414 6
-6.6573429 -39.706329 0.94700229 6
-6.7361875 -38.62215 0.83758932 6
-6.7777338 -37.59967 0.81918311 6
-6.7688656 -35.194954 1.0094981 8.1695004
-6.6420712 -44.156624 1.2258962 6
-6.7452369 -43.638496 1.2108307 6
-6.5353274 -45.873432 1.8672256 8.1280003
-6.6787739 -34.408485 1.6607573 8.1709995
-6.5527864 -44.87426 2.3120923 7
-6.5896578 -35.205025 2.0021088 9.0395002
-6.6097989 -34.467014 2.1052256 9.0296659
-6.5622535 -30.552454 2.2563355 9.0019999
-6.410902 -45.5881 2.5606937 9.0389996
-6.6411905 -44.896889 2.4689872 7
-6.4341807 -34.436512 2.8276994 8.1765003
-6.7109184 -44.882122 3.2358336 8.0410004
-6.7900162 -44.792717 3.4554648 8.0295
-6.4835458 -35.242149 3.2711635 10.0405
-6.664988 -34.382721 3.3749955 9.0440006
-6.5863304 -44.406033 3.7310412 9.132
-6.7836485 -43.553459 3.6679382 9.1315002
-6.6429248 -35.011608 3.8285952 9.0185003
-6.698503 -33.584953 3.7231658 9.0179996
-6.5793037 -45.389053 4.2881999 9.0365
-6.4136801 -43.332657 4.0493493 9.0834999
-6.4038496 -37.305996 4.2048373 9.0410004
-6.7155166 -34.637886 4.1079397 9.0045004
-6.6397524 -35.355183 4.6413684 10.054
-6.7199593 -34.692921 4.4373326 9.0625
-6.4175715 -43.738625 5.4808393 10.0335
-6.4076099 -43.724766 5.916491 10.032
-6.5538764 -37.327003 5.7783279 11.0465
-6.5857568 -36.922501 5.7433305 11.048249
-6.6025243 -36.607338 5.7248812 11.0495
-6.6245909 -36.122814 5.69205 11.05
-6.6383982 -35.625923 5.7246642 11.0525
-6.6841302 -35.484047 5.6697583 11.052625
-6.4325628 -38.148842 6.1070027 10.0415
-6.00385 -35.313667 -1.2948494 6
-6.0674667 -31.262794 0.1841653 7
-6.0818505 -30.136299 0.14913146 7
-6.018342 -37.624264 0.78633928 6
-6.3040719 -37.310207 0.77399075 6
-6.0098233 -37.131695 0.75513816 6
-6.0160956 -36.633972 0.72439098 6
-6.053278 -36.344894 0.70705837 6
-6.2304821 -42.680603 1.1085335 6
-6.0805945 -42.30542 1.0562419 6
-6.2817621 -41.700279 1.06169 6
-6.3165092 -41.08712 1.0000695 6
-6.2483559 -40.584724 0.9747389 6
-6.1612043 -40.155376 0.94756013 6
-6.1731429 -39.740738 0.9329856 6
-6.134367 -39.430653 0.90333098 6
-6.1673727 -39.060043 0.86521697 6
-6.0725074 -38.686913 0.85180765 6
-6.0793395 -38.245186 0.81732953 6
-6.2376189 -37.79422 0.80166882 6
-6.0937133 -34.504768 1.180591 8.1684999
-6.3818197 -44.750824 1.247583 6
-6.1720433 -44.256023 1.2099962 6
-6.380651 -34.579746 1.2368681 8.007
-6.1931472 -45.494125 1.9199603 8.0495005
-6.2986016 -34.50634 1.87718 8.1680002
-6.2154584 -34.519783 2.1099381 9.0288334
-6.0371056 -33.817101 2.1174264 9.0235004
-6.2451315 -45.509377 2.7275391 8.0369997
-6.3704672 -33.635529 3.1001527 8.1735001
-6.3479462 -44.82431 3.4469819 8.0284996
-6.2908707 -44.769279 3.3675289 8.0334997
-6.256948 -35.200218 3.5864353 8.1709995
-6.2160163 -34.327488 3.3677537 9.0388336
-6.3771596 -33.69519 3.3044972 9.0489998
-6.1668487 -33.589516 3.4935 9.0340004
-6.3858023 -35.022015 3.9389811 9.0139999
-6.229301 -34.183254 3.6405692 9.0229998
-6.0831604 -45.411346 4.2670007 9.0395002
-6.0828061 -44.439587 4.0108619 9.0725002
-6.1097212 -42.851864 4.3668251 9.0489998
-6.126225 -42.544815 4.3848491 9.0222502
-6.1466045 -42.292068 4.3834424 9
-6.1719003 -41.782204 4.3589807 9.0354996
-6.1974535 -41.48325 4.3493695 9.0219994
-6.2077103 -40.980904 4.3213129 9.0336246
-6.2283821 -40.691212 4.3307414 9.0237503
-6.257462 -40.141529 4.2856684 9.0295
-6.2942796 -39.893513 4.2947645 9
-6.2903976 -39.421932 4.3200746 9.0225
-6.308229 -39.090874 4.2494416 9.0291662
-6.3440142 -38.498913 4.3330951 9.0445004
-6.3483357 -38.229935 4.2307315 9.0415001
-6.3750949 -37.574314 4.3025541 9.0439997
-6.1287904 -42.553146 4.4102407 9.0485001
-6.3927126 -35.135338 4.6766953 10.041
-6.3771172 -34.661324 4.5798712 9.059
-6.2477908 -55.419579 5.853991 9.0229998
-6.3333111 -43.704086 5.911694 10.0305
-6.2320385 -43.135414 5.8565221 10.03175
-6.1028533 -42.944344 6.2418866 10.049
-6.1414599 -42.55542 6.2614708 10.0315
-6.2541127 -42.229259 6.2509913 10
-6.2357831 -40.92569 6.206862 10.02225
-6.2767773 -40.600758 6.1886463 10.030334
-6.3007178 -40.189785 6.1662812 10
-6.3668747 -39.088711 6.1289239 10.042
-6.3413539 -38.425476 6.1887393 10.0445
-6.3692236 -48.197517 11.135077 14.044
-5.7329011 -36.647099 -1.8045269 7
-5.8800974 -35.298859 -1.4073838 6
-5.9121103 -30.95973 -0.075099379 8.1120005
-5.6955323 -40.842468 0.31183699 7
-5.7154183 -40.64135 0.35675964 7
-5.7186642 -40.198738 0.38723448 7
-5.7061539 -39.927341 0.31975847 7
-5.7120638 -39.353779 0.36840537 7
-5.7449193 -39.021179 0.31038243 7
-5.7463174 -38.569878 0.35494024 7
-5.7566366 -38.221066 0.33191708 7
-5.7656212 -37.778294 0.33318964 7
-5.7662754 -37.4762 0.30516207 7
-5.7875972 -37.072044 0.3336606 7
-5.7653375 -36.717213 0.29506928 7
-5.7846112 -36.326332 0.34823507 7
-5.7742505 -35.121559 0.28815004 7
-5.9382763 -30.162987 0.070156008 8.1195002
-5.631331 -42.194157 0.48064214 7
-5.6612496 -41.785892 0.46314943 7
-5.6614847 -41.44455 0.51128 7
-5.6934175 -41.013023 0.45974135 7
-5.6756387 -40.569023 0.52373129 7
-5.7344265 -40.330685 0.43201184 7
-5.725708 -38.674019 0.52690542 7
-5.7916245 -38.031197 0.66151905 6.5
-5.819746 -37.88456 0.61376983 6.5
-5.98245 -37.339725 0.76865286 6
-5.9883032 -36.838455 0.7353887 6
-5.75985 -36.167793 0.41126963 7
-5.7864656 -44.557117 1.1774124 6
-5.864706 -44.051693 1.1996815 6
-5.8691382 -43.555996 1.1654644 6
-5.9300714 -43.061527 1.135465 6
-5.8196378 -42.777348 1.101584 6
-5.8275371 -42.071342 1.0889335 6
-5.7631879 -41.573704 1.0470246 6
-5.8697319 -41.077469 1.0183024 6
-5.6469183 -40.2948 0.93516159 6
-5.7379398 -39.799068 0.91091359 6
-5.7524891 -39.353352 0.87864983 6
-5.9104772 -38.898495 0.86368054 6
-5.9218411 -38.556023 0.83124292 6
-5.8540897 -38.325233 0.82305455 6
-5.9783053 -37.847706 0.80285197 6
-5.6365256 -47.675453 1.4339807 6
-5.9365854 -44.540405 1.2391602 6
-5.6551337 -42.021263 1.3464431 8.0825005
-5.7277141 -41.705223 1.4445758 8.0837498
-5.7450976 -41.464249 1.4232067 8.0841665
-5.7633443 -41.178986 1.3622146 8.0845003
-5.8230758 -34.510494 2.1159627 9.0275002
-5.9498715 -34.3927 2.0748694 9.0319996
-5.9093132 -34.435959 3.1495237 8.1739998
-5.8580108 -35.252544 3.2615201 10.041
-5.7463341 -34.364449 3.4633887 9.0396662
-5.826879 -45.394737 3.8452075 9.1350002
-5.844645 -44.616028 3.8363428 9.1014996
-5.7463031 -44.101402 3.6967075 9.1304998
-5.6890483 -43.872643 3.9838533 9.0830002
-5.9492683 -45.373974 4.2846904 9.0439997
-5.7339463 -35.237003 4.1058168 10.065
-5.8340158 -44.337315 4.422287 9.0454998
-5.714509 -35.107632 4.6516309 10.0415
-5.9060764 -34.651382 4.5441942 9.0587502
-5.7127047 -45.325371 4.9091477 9.0314999
-5.8977151 -35.245132 4.8221927 10.05725
-5.9799538 -44.181072 5.473896 10.034
-5.8410945 -43.670189 5.4347882 10.0345
-5.7737613 -43.677261 5.6549506 10.0295
-5.6378064 -43.10862 5.6020656 10.03
-5.4257317 -50.918648 0.30281457 7
-5.5415416 -35.596218 0.17077459 7
-5.2285624 -54.276001 0.63009727 7
-5.3074336 -53.284462 0.6086638 7
-5.4484425 -52.187363 0.4269619 7
-5.4118056 -51.660339 0.51128632 7
-5.3822999 -49.377373 0.5364902 7
-5.5458007 -45.53828 0.77170992 7
-5.2253504 -36.187462 0.64244705 6
-5.5825124 -35.745014 0.63345581 6
-5.4268913 -45.527237 0.99571419 8.0375004
-5.2114792 -44.04837 1.1816927 6
-5.4560699 -42.550629 1.0944715 6
-5.3606706 -41.508011 1.0222722 6
-5.5342364 -40.850285 0.9383775 6
-5.3339033 -40.353683 0.89120454 6
-5.2775478 -39.859638 0.86528778 6
-5.2786765 -39.34362 0.83765364 6
-5.2140279 -38.844311 0.80501252 6
-5.5702329 -41.261749 1.3924206 8.1269999
-5.5816731 -41.12851 1.4799592 8.0845003
-5.4128551 -35.032642 1.2383542 8.1739998
-5.3888135 -30.614662 1.4377189 7
-5.4588981 -35.31078 1.9887123 9.0369997
-5.434001 -34.432346 2.0322235 9.0349998
-5.2443352 -34.387562 2.066668 9.0327501
-5.2387452 -35.432182 2.4479344 9.0904999
-5.2551055 -34.97504 2.4131682 9.0080004
-5.2362628 -35.223316 3.2493143 10.0415
-5.3833957 -34.33852 3.3209984 9.0440998
-5.4865956 -44.658386 3.8202996 9.0695
-5.5685501 -44.001701 3.9826131 9.0699997
-5.4226632 -43.509525 3.6341841 9.1300001
-5.4048691 -45.300842 4.3293576 9.0349998
-5.3651848 -35.080208 4.7091331 10.043
-5.4864426 -34.626884 4.569499 9.0594997
-5.2728457 -35.190281 5.120523 10.0585
-5.3801517 -44.203354 5.3783035 10.035
-5.2049098 -43.635017 5.5335264 10.034
-5.2504191 -55.405586 5.8555675 9.0235004
-5.1143141 -36.841698 -1.3595309 6
-5.1656284 -38.337944 0.77286994 6
-5.0678782 -37.82243 0.73564601 6
-5.0257821 -37.21529 0.69725233 6
-5.002399 -36.672504 0.66480768 6
-5.0590978 -43.099709 1.0564516 6
-4.9225636 -42.580101 1.0220698 6
-4.9123068 -41.843998 1.0541494 6
-5.1509519 -41.382729 0.98401749 6
-5.1431499 -40.935665 0.97379398 6
-5.1763415 -40.762642 0.93713081 6
-5.1851664 -44.555481 1.2147826 6
-5.1045513 -45.452404 1.8940513 8.0500002
-4.9615932 -41.221252 1.9607519 7
-4.9632545 -40.937977 1.9396838 7
-4.97261 -40.626194 1.9232132 7
-4.987762 -40.221199 1.8970399 7
-5.0016298 -39.828663 1.8740973 7
-5.0142593 -39.435318 1.8488919 7
-5.0271344 -38.998711 1.8271341 7
-5.0426917 -38.579834 1.7990798 7
-5.0604229 -38.156616 1.7730384 7
-5.0746074 -37.778103 1.7488869 7
-5.0898552 -37.396973 1.7219899 7
-5.1084914 -37.013924 1.697322 7
-5.126102 -36.630043 1.6724823 7
-5.1428518 -36.197479 1.6445358 7
-5.1245403 -35.951015 1.6379323 7
-4.8521328 -34.354691 1.6850368 8.1719999
-4.9544601 -41.570084 2.16044 7
-5.0070992 -35.431763 2.0547268 8.1704998
-4.8948836 -34.919586 2.2719445 9.0155001
-4.9539399 -34.424915 2.0247691 9.0360003
-4.9561105 -34.196564 2.2178185 9.1149998
-4.8830438 -33.34874 2.2757466 9.0095005
-5.0211382 -38.453403 2.7929342 8
-5.0363884 -38.083797 2.7830601 8.0169992
-5.0488448 -37.783577 2.7816677 8
-5.0609303 -37.3983 2.7642365 8
-5.0771894 -36.997425 2.7430065 8.0060005
-5.0889587 -36.591854 2.7267427 8.0148172
-5.1033621 -36.18523 2.6892726 8.0141249
-5.0988464 -35.854347 2.679203 8.0271673
-4.9830818 -34.819805 2.6279948 8.0569992
-5.193027 -34.565598 2.6216145 8.0570002
-5.1333208 -34.31218 2.6100557 8.0587502
-4.8863177 -41.673134 3.0222883 8.0407505
-4.9086604 -41.299641 3.0127017 8.0466661
-4.9302287 -40.982857 2.9988828 8
-4.9338446 -40.621075 2.9750597 8.0124998
-4.9502196 -40.232441 2.9393322 8
-4.9640546 -39.824226 2.9084699 8.0090904
-4.9806442 -39.387234 2.882103 8.0056667
-4.9982424 -39.017117 2.8673363 8.0057783
-5.0103083 -38.643032 2.8501596 8.0047722
-5.0292101 -38.237152 2.8254333 8
-5.0429525 -37.804729 2.8167922 8
-4.8008804 -44.629288 3.552619 9.1289997
-4.9812517 -34.325344 3.4224057 9.0373335
-4.8385186 -45.579666 3.6869152 9.0734997
-5.1114736 -44.620247 3.8339751 9.0699997
-5.0663733 -35.26614 4.7288179 10.050834
-5.0402164 -35.071545 4.6267552 10.042
-4.8880968 -34.618492 4.6244054 9.0570002
-5.16081 -35.291775 4.8263121 10.0555
-4.8959918 -43.791122 5.3682704 10.0355
-5.0930457 -43.611137 5.6501913 10.03175
-4.8535581 -42.966415 5.6014395 10.0315
-4.7114244 -37.137695 0.67982507 6
-4.497005 -46.883949 0.94571376 6
-4.4484153 -42.351341 1.0093871 6
-4.6033144 -41.842613 0.98282516 6
-4.5365624 -35.076942 1.243879 8.1745005
-4.5527039 -34.527046 1.4405062 8.0019999
-4.5827603 -45.489304 1.9174434 8.0495005
-4.5801935 -45.306976 2.2630625 7
-4.434566 -43.822094 2.3033226 8.1709995
-4.671257 -35.377014 2.3388898 9.0764999
-4.4985518 -35.169949 2.0339615 8.1689997
-4.5928311 -34.425091 2.054594 9.0319996
-4.4389572 -51.463047 2.5287519 7
-4.5267043 -51.188332 2.5531325 7
-4.6294823 -50.153889 2.489193 7
-4.6107931 -49.597099 2.4332161 7
-4.6593351 -34.907898 2.6028795 8.0552502
-4.7604003 -41.79924 3.0551436 8.0437498
-4.6514444 -31.518063 3.0174391 10.0355
-4.6176348 -45.328239 3.4437182 8.0314999
-4.5721889 -34.266041 3.2804072 9.2946243
-4.6391931 -32.708569 3.2094018 10.03275
-4.7671018 -44.743217 3.7210801 9.1304998
-4.6037936 -43.895752 3.7871819 9.1339998
-4.6577764 -34.967945 3.9285734 9.0105
-4.4057288 -34.726978 3.9828384 9.0275002
-4.7256203 -45.319897 4.329824 9.0403328
-4.6057777 -45.257069 4.4007792 9.0430002
-4.5858383 -34.594032 4.559998 9.0600004
-4.4851246 -44.229008 5.3226986 10.038
-4.6901345 -42.980701 5.5171156 10.03425
-4.327446 -45.380222 -0.21778756 7
-4.0653644 -35.550556 0.28206024 7
-4.2891793 -49.323635 0.57124859 7
-4.0031252 -43.394634 1.0566453 6
-4.2516379 -42.859104 1.0321245 6
-4.0123444 -34.958786 1.1592742 8.1680002
-4.1651864 -45.458565 1.4094756 8.1230001
-4.373837 -34.448769 1.9012375 8.1689997
-4.2485619 -45.756123 2.2404063 8.1315002
-4.127665 -35.603237 2.2959709 9.0825005
-4.0782409 -34.905098 2.2600336 9.0159998
-4.1696792 -34.476421 2.0880611 9.0295
-4.035377 -45.212646 2.7351665 8.0225
-4.0052876 -43.841465 2.5751843 9.0295
-4.0127745 -43.310776 2.5133674 9.0310001
-4.0572977 -56.450085 2.829473 7
-4.1419497 -35.235607 3.0322618 9.1695004
-4.3093328 -35.078003 3.0438328 9.0699997
-4.0707474 -34.337013 3.1239035 8.1750002
-4.1078501 -35.103054 3.4031978 9.1035004
-4.1633925 -34.298382 3.3306787 9.0421667
-4.074151 -46.925041 3.7336602 8.3839998
-4.3162947 -46.471394 3.9691913 8.0419998
