# .PCD v0.7 - Point Cloud Data file format
VERSION 0.7
FIELDS x y z intensity
SIZE 4 4 4 4
TYPE F F F F
COUNT 1 1 1 1
WIDTH 256
HEIGHT 1
VIEWPOINT 0 0 0 1 0 0 0
POINTS 256
DATA ascii
-204.11545 -46.100052 9.6151829 9.1370001
-199.04405 -59.760605 10.83837 9.1160002
-198.09128 -58.524998 24.608801 13.0795
-197.93343 -58.684036 24.672916 13.07925
-196.86641 -53.493938 27.784567 14.0745
-196.62825 -37.166172 10.788444 10.1315
-196.70042 -54.251568 27.428038 14.074
-196.69456 -50.284401 27.474907 14.074
-196.66747 -59.329273 27.892141 15.1175
-196.64474 -55.998806 27.703251 14.0765
-196.62798 -59.233662 28.030565 15.11675
-196.61284 -58.727726 28.146273 13.0085
-196.64175 -57.802559 28.036539 15.11625
-196.58476 -55.567192 28.339825 15.1135
-196.41151 -57.668301 28.617109 15.108
-196.51024 -52.967651 28.461805 15.111
-196.2305 -32.020267 6.2365026 8.1269999
-195.63254 -49.410732 6.7051468 8.1370001
-195.74179 -45.505795 6.6833715 8.1330004
-195.64549 -49.023914 6.8935819 8.1385002
-195.61699 -50.260056 7.3398056 8.1405001
-195.66353 -48.079205 7.2478914 8.1394997
-195.66356 -45.963451 7.3895636 8.1134996
-195.61163 -46.547771 7.983285 8.1444998
-195.60037 -50.096657 8.3353615 8.1424999
-195.61066 -48.999531 8.0949659 8.1440001
-195.63609 -47.400303 8.0023689 8.1409998
-195.63306 -46.376873 8.3926868 8.1415005
-195.66028 -45.74876 8.3226604 9.1254997
-195.62296 -55.672539 8.6996126 9.1324997
-195.63881 -52.533333 8.5636873 9.1285
-195.61255 -50.513657 8.4909744 9.1254997
-195.65494 -50.341045 8.4822159 9.1274996
-195.62675 -49.420666 8.4530764 9.125
-195.60405 -48.316853 8.4133682 9.1245003
-195.64345 -47.638287 8.4926472 9.1225004
-195.67595 -45.407375 8.4222088 9.1215
-195.69344 -46.627998 8.9012814 9.073
-195.64467 -47.765495 9.3562183 9.0719995
-195.61217 -45.662708 9.9749012 9.1114998
-195.53365 -55.805164 7.4172678 8.118
-195.52711 -54.716999 7.5319242 8.1424999
-195.56261 -52.530964 7.4135098 8.1289997
-195.60007 -50.611187 7.5818095 8.1415005
-195.49641 -58.54295 7.9340448 8.1450005
-195.52548 -54.831791 7.6537881 8.1149998
-195.36829 -51.931591 8.0655594 8.0100002
-195.53398 -53.321484 8.7093754 8.1444998
-195.56749 -52.38039 8.692812 8.1440001
-195.55208 -51.675655 8.6068735 8.1435003
-195.55997 -50.501656 8.5004768 8.1429996
-195.493 -56.243595 8.8719511 8.1455002
-195.51643 -56.250607 9.2764854 9.0754995
-195.51604 -54.671234 9.4339657 9.1195002
-195.54152 -51.257141 9.5896835 9.1409998
-195.54636 -49.843422 9.8574572 9.1155005
-195.26649 -48.140766 9.9492455 9.1044998
-195.57292 -46.585819 9.8927431 9.1140003
-195.27675 -44.866604 9.844636 9.1035004
-195.34424 -58.53915 10.385374 9.1175003
-195.43915 -56.211224 10.396138 9.1145
-195.37178 -55.626225 10.322784 9.1129999
-195.4709 -53.210674 10.089885 9.1164999
-195.58948 -50.042107 10.21006 9.1140003
-195.46129 -49.790287 10.138346 9.1129999
-195.54158 -49.290718 10.243034 9.1134996
-195.48878 -49.077297 10.349986 9.1145
-195.39464 -48.46587 10.015771 9.1090002
-195.50554 -47.676823 10.316781 9.1140003
-195.57536 -47.218071 10.022732 9.1120005
-195.38626 -58.5387 10.432791 9.1140003
-195.30597 -57.652737 10.436427 9.1169996
-195.43983 -56.454548 10.476787 9.1160002
-195.55655 -49.321907 10.667061 10.125
-195.4422 -57.984753 10.948408 9.1459999
-195.59798 -49.773571 11.067444 10.1325
-195.58844 -48.679325 11.018038 10.132
-195.29768 -51.693348 23.934389 13.0775
-195.28458 -49.865299 23.947746 13.0765
-195.21155 -58.167088 24.062746 13.0775
-195.21428 -56.372326 24.039438 13.077
-195.27368 -52.702282 24.020912 13.076
-195.29558 -48.968506 24.018438 13.075
-195.26718 -56.467312 24.709261 12.0115
-195.27693 -54.478565 24.4814 12.011
-195.33505 -53.449169 24.688934 12.011
-195.2614 -57.397564 25.139118 12.012
-195.32253 -55.399868 24.913094 12.0115
-195.38318 -52.745689 25.05328 12.011
-195.33665 -56.721882 25.509436 12.012
-195.36276 -54.722256 25.277941 12.0115
-195.36172 -51.248066 25.535427 12.0105
-195.418 -50.889832 25.487112 12.0105
-195.30379 -58.745461 25.747789 12.0125
-195.30605 -55.290073 25.991493 12.0115
-195.37968 -54.858803 25.940836 12.0115
-195.3582 -53.285717 25.767242 12.011
-195.38741 -52.838406 25.70504 12.011
-195.3407 -52.095135 25.978594 12.0105
-195.33588 -49.69009 25.709452 12.01
-195.31674 -48.508907 25.968431 12.0095
-195.3587 -46.53944 25.767445 12.009
-195.26241 -57.301174 26.223368 12.012
-195.31779 -56.90527 26.174982 12.012
-195.27229 -54.117336 26.197062 12.011
-195.24934 -52.53294 26.398827 12.0105
-195.28424 -50.520828 26.181162 12.01
-195.31088 -48.87183 26.23628 12.0095
-195.23157 -47.968731 26.248945 12.009
-195.29117 -47.392654 26.285034 12.009
-195.34888 -46.900303 26.037189 12.009
-195.24786 -46.11343 26.162979 12.0085
-195.27518 -45.956341 26.058846 12.0085
-195.42082 -45.458157 26.041744 12.0085
-195.24081 -59.389286 26.473944 12.0125
-195.30629 -58.935974 26.421944 12.0125
-195.22893 -58.248272 26.677961 12.012
-195.29961 -56.156452 26.440887 12.0115
-195.21217 -54.546131 26.621485 12.011
-195.26019 -50.87912 26.442003 12.01
-195.21069 -50.047733 26.455555 12.0095
-195.19682 -57.331348 23.996408 13.079
-195.17522 -55.573956 23.995224 13.0775
-195.12259 -57.877926 24.271605 13.08
-195.13777 -57.425022 24.072779 13.078751
-195.17674 -55.99873 24.231661 13.0795
-195.19463 -54.531685 24.017002 13.0765
-194.80849 -57.978466 25.102789 14.0945
-194.87144 -56.421154 25.138966 14.094
-194.86755 -54.819515 25.165525 14.0935
-194.90691 -58.061443 25.524296 14.0885
-194.94104 -56.446533 25.544697 14.088
-194.98154 -54.810944 25.573095 14.0875
-194.86229 -53.076759 25.257645 14.0965
-194.91791 -58.319813 25.619843 14.088751
-194.86615 -56.801182 25.635473 14.091
-194.96672 -56.668125 25.633268 14.0855
-194.89735 -55.205921 25.6644 14.0905
-195.01663 -55.015331 25.667349 14.085
-194.89906 -53.585712 25.692545 14.09
-195.01093 -53.159149 25.605267 14.087
-194.92345 -58.537136 26.027143 14.084
-194.9559 -56.894833 26.048296 14.0835
-194.98241 -55.252743 26.074278 14.083
-195.10036 -49.39854 26.385529 12.0095
-195.1219 -48.128033 26.338631 12.009
-194.87822 -59.382164 26.596912 14.052333
-194.92583 -58.980473 26.410805 14
-194.92189 -58.666973 26.412338 14
-194.92252 -58.168839 26.416981 14
-194.92448 -57.528652 26.552137 14.039249
-194.95592 -57.008339 26.437798 14
-194.97041 -56.668827 26.445644 14
-194.97063 -56.332874 26.450191 14
-194.99184 -55.989727 26.460262 14
-194.94484 -55.526627 26.589182 14.039
-194.96613 -54.983616 26.46978 14
-195.00441 -54.631725 26.485199 14
-194.97322 -54.240799 26.621748 14.03875
-195.04068 -53.784206 26.50984 14
-195.02896 -53.274342 26.517204 14
-195.02553 -52.931942 26.52359 14
-195.04842 -52.579624 26.536839 14
-195.00819 -52.153988 26.581076 13.005
-194.91211 -51.93668 26.518597 14
-194.86475 -51.433746 26.519417 14
-194.86243 -50.913094 26.532085 14
-194.88646 -50.572803 26.546871 14
-194.90735 -50.215214 26.561604 14
-195.09462 -49.396473 26.518059 12.0095
-195.04568 -56.577171 26.826904 12.0115
-194.83969 -50.739929 26.823509 14.0765
-194.75121 -57.62748 25.212236 14.1015
-194.77715 -56.920544 25.314737 14.0975
-194.77643 -54.995693 25.253372 14.104
-194.64464 -57.811302 26.708204 14.0775
-194.72917 -52.521645 26.743769 14.077
-191.62338 -58.431679 15.469995 12.124
-191.70062 -58.36755 16.199884 11.0795
-191.62439 -53.508652 21.90678 11.011
-191.61871 -53.93235 22.128349 11.011
-191.60768 -52.560658 22.081558 11.0105
-191.3685 -59.663857 16.034079 11
-191.39612 -59.306011 16.025597 11
-191.56227 -56.108418 17.953827 12.116
-191.47194 -59.214359 18.142698 12.116
-191.26019 -59.61248 19.538204 12
-191.44472 -59.52372 19.49225 12.077
-191.28592 -59.079338 19.5282 12
-191.49892 -58.622944 19.434437 12
-191.3676 -59.559303 21.011919 13.1155
-191.56743 -46.374798 21.981991 11.0095
-191.30223 -58.773361 22.297636 13.08
-191.32794 -57.179371 22.307718 13.0795
-191.51088 -53.278191 22.103952 11.0105
-191.50674 -52.663528 22.09284 11.0105
-191.44159 -52.037323 22.360422 11.0105
-191.50348 -50.505692 22.323233 11.0105
-191.52422 -48.937225 22.293804 11.01
-191.55194 -48.445671 22.153538 11.01
-191.50362 -47.591152 22.148481 11.01
-191.54422 -46.879185 22.116188 11.0095
-191.26001 -59.860939 22.780113 13
-191.32617 -59.47979 22.777914 13
-191.29814 -59.078167 22.713228 13.045801
-191.33533 -58.595749 22.709803 13.019625
-191.35358 -58.179237 22.726761 13.038
-191.35292 -57.831928 22.777987 13
-191.31476 -57.431572 22.715965 13.0455
-191.36194 -55.801338 22.734137 13.07475
-191.47403 -53.070168 22.661753 11.011
-191.48056 -51.008408 22.473127 11.0105
-191.52325 -45.375137 22.535723 13.076
-191.36711 -59.301437 22.938652 13.077
-191.39391 -57.552757 22.921749 13.0765
-191.16444 -51.892517 21.415998 13.1025
-191.14436 -59.928879 23.080624 13
-191.13629 -59.404228 23.06826 13
-191.15828 -58.872055 23.062309 13
-191.17183 -58.516666 23.058416 13
-191.14583 -58.169685 23.046911 13
-191.1377 -57.818195 23.039173 13
-191.18562 -57.452988 23.042759 13
-191.16342 -57.103657 23.032688 13
-188.81808 -48.228065 8.5425844 9.1385002
-187.48648 -48.980164 10.303721 10.135
-187.1373 -51.62862 9.6165609 9.1129999
-185.41772 -43.98576 7.0323043 8.1394997
-185.38165 -48.87389 8.8585978 9.1415005
-185.3663 -48.673874 8.8457699 9.1145
-184.41478 -55.699169 9.9354239 10.124
-184.18382 -59.124233 8.4951544 9.1379995
-184.06746 -56.79998 9.4325228 9.1464996
-184.32361 -54.858833 9.3804655 9.1114998
-182.87041 -59.216614 9.3899469 9.1149998
-182.67981 -59.146069 9.4941931 9.1155005
-182.73787 -55.479263 9.9000702 9.1470003
-182.4473 -55.537914 10.391622 10.1185
-182.46788 -55.472675 10.461162 10.118
-182.28279 -50.673229 7.9509425 9.1335001
-182.18584 -59.260967 8.4705791 9.1409998
-182.29025 -57.355465 10.054211 9.1485004
-181.86092 -58.535488 9.2575655 9.1137505
-181.79243 -51.020302 9.2228098 9.1134996
-181.28569 -52.785892 7.6173115 8.1455002
-181.45764 -58.654778 9.3077917 9.1140003
-181.48831 -58.379585 9.2419939 9.1145
-181.43362 -57.961758 9.266943 9.1160002
-181.02618 -43.402824 8.7603893 9.1082497
-180.82825 -43.383526 9.0047741 9.1415005
-180.84259 -44.157707 9.9854317 10.113
-180.65338 -42.230145 8.7388649 9.1075001
-180.58717 -58.517311 9.1984491 9.1125002
-180.1035 -46.352943 8.6183119 9.1120005
-180.17131 -50.186386 9.1024027 9.6192493
-180.08447 -49.990303 8.8799143 9.1090002
