# .PCD v0.7 - Point Cloud Data file format
VERSION 0.7
FIELDS x y z intensity
SIZE 4 4 4 4
TYPE F F F F
COUNT 1 1 1 1
WIDTH 1263
HEIGHT 1
VIEWPOINT 0 0 0 1 0 0 0
POINTS 1263
DATA ascii
-100.1739 -68.729156 2.9178083 6.7222223
-100.2035 -88.85511 3.4084036 4.5
-100.25356 -88.664658 3.3994005 3.3981483
-100.14305 -88.389709 3.2149003 2
-100.01363 -87.64856 3.452565 4.5
-100.16256 -87.337402 3.5608079 3.4242423
-100.06689 -87.198563 3.472645 3
-100.19413 -68.69632 3.3942096 7.5657392
-100.21114 -88.854973 3.7769642 4.6666665
-100.18208 -88.671265 3.874289 5.0111113
-100.05218 -87.632668 3.6936753 4.625
-100.04945 -87.525894 3.7106071 4
-100.18251 -68.66925 3.8510606 8.2131214
-100.20755 -88.629486 4.2640166 6.4050126
-100.22486 -87.60218 4.2030702 6
-100.18005 -87.501648 4.0834532 5.6666665
-100.20764 -68.70575 4.2058048 9
-100.19904 -88.636383 4.643549 7.8275356
-100.31116 -68.807549 4.761662 9.0469999
-100.19136 -68.643196 4.5542812 9.5500002
-100.17821 -88.689537 5.0092063 9.1378164
-100.38618 -85.752068 4.825531 10.118
-100.26313 -85.52433 4.9909811 9.5629997
-100.19158 -68.627251 4.9937973 10.258812
-100.22617 -88.810585 5.2814422 9.1070004
-100.22429 -88.628197 5.2466545 9.7684994
-100.38911 -85.749977 5.2145219 9.007
-100.1861 -68.6408 5.3586588 11.088235
-100.3158 -88.115974 5.7934647 13.128
-100.13082 -87.010551 5.8369985 9.0793333
-100.19093 -68.607513 5.8307447 11.744436
-100.15895 -66.735916 5.956985 11.0455
-100.03452 -87.323303 6.3958635 11.102
-100.19399 -86.964005 6.2455845 12.212167
-100.28811 -86.660385 6.3699365 10.765332
-100.18185 -68.610786 6.2313032 12.314847
-100.20827 -87.009651 6.4703956 13.107563
-100.17767 -68.596817 6.6034064 13.346299
-100.21197 -68.586235 6.9941468 13.345966
-100.18203 -68.556084 7.3454108 13.388023
-100.18881 -70.150299 7.659245 8.1210003
-100.03754 -67.740547 7.6754351 15.031
-100.02924 -68.464554 8.2841692 12
-100.0287 -67.652252 8.0253153 15.0305
-100.00646 -67.526253 8.0235491 14.037
-100.25051 -66.079567 8.2157784 13.32275
-100.09947 -65.996483 8.2001944 15.0665
-100.07089 -68.465935 8.5077858 12
-100.06632 -67.349533 8.6041889 15.037
-100.32366 -66.047081 8.6570873 14.56225
-100.13587 -65.951622 8.5683517 14.048833
-100.1795 -68.508286 9.0865002 12.719501
-100.07052 -68.336021 9.0268183 13.5365
-100.35962 -67.809891 9.142724 15.0725
-100.22672 -66.502365 8.889472 12.081
-100.31892 -66.145546 9.0049143 15.056499
-100.05786 -65.972481 8.9544077 14.571
-100.33573 -87.674561 9.5933933 8.1525002
-100.3501 -75.603722 9.5862122 12
-100.38364 -75.396675 9.3654222 12.0875
-100.34221 -68.812469 9.4094582 14.077
-100.15374 -68.585594 9.3105116 15.074
-100.31452 -68.39608 9.3741961 12.0815
-100.13219 -76.123291 9.9322939 12
-100.18272 -75.745773 9.8035793 13.722667
-100.14552 -75.582268 9.7533026 14.0415
-100.10799 -76.194771 10.229688 12
-100.17502 -75.764618 10.258727 12.385625
-100.16838 -75.513206 10.348488 12
-100.00272 -71.93676 10.224716 14.082
-100.0078 -71.398293 10.20466 14.0815
-100.22941 -70.433128 10.052922 9.1114998
-100.3246 -75.664436 10.555954 13.542749
-100.21649 -75.452675 10.639636 13.021875
-100.04324 -67.826561 10.60308 9.0860004
-100.1657 -75.633385 11.154124 13.5
-100.27184 -75.427017 11.025491 13.385563
-100.24785 -75.051178 11.196118 14.04225
-100.18576 -75.632179 11.445655 13.5
-100.18836 -75.507278 11.348241 13.77125
-100.19322 -75.031319 11.576591 15.085
-100.21934 -75.719215 11.986619 13.5
-100.17115 -75.444656 11.823256 14.362083
-100.095 -75.100655 11.964114 15
-100.38742 -74.445007 11.644444 13.0775
-100.03107 -76.036255 12.038881 13
-100.1243 -75.794334 12.048488 13
-100.24837 -75.438087 12.207309 13.571428
-100.1462 -75.172218 12.102799 13.54375
-100.30806 -75.41732 12.603422 14.666667
-100.33096 -75.197395 12.530737 14
-100.31792 -75.289955 12.952788 15.087
-100.18523 -75.487701 13.472183 15
-100.16885 -77.7155 13.641526 10
-100.08594 -75.742416 13.812174 14
-100.21031 -75.384567 13.862949 14.117277
-100.37584 -75.097145 13.79592 14
-100.17166 -75.381607 14.062 14.333333
-100.34297 -75.096382 14.049977 15
-100.01231 -75.425697 14.766573 15
-100.06283 -75.648422 15.579357 15
-100.16541 -75.361435 15.555314 15
-100.33479 -74.966057 15.567983 15
-100.18002 -75.376297 15.742613 15.0185
-100.3629 -74.973518 15.601817 15
-100.29843 -76.706673 16.543993 11.093
-100.35014 -77.001137 17.894247 12.13
-100.39781 -77.175255 23.45772 13.089
-100.13252 -76.544136 24.170326 14.1035
-100.00706 -77.006767 26.606335 14.089
-100.17475 -76.551651 27.479649 14
-100.13206 -77.000793 28.108206 14
-100.01395 -76.67157 28.272198 15
-100.39835 -77.007492 28.763004 15
-100.25546 -76.688889 31.122957 15.089
-99.884468 -71.650581 1.4698523 7
-99.925446 -71.592308 1.4282217 7
-99.708992 -70.482277 1.466588 7
-99.604965 -68.950218 1.4981687 7
-99.869049 -85.127495 1.7713411 7
-99.965279 -69.726051 1.9993898 5
-99.645142 -69.250298 1.979151 4
-99.855194 -69.027756 1.8397673 6.3333335
-99.731796 -68.727699 1.9783605 5
-99.796677 -81.828857 2.3936222 3.25
-99.790909 -81.396568 2.3702667 3.4000001
-99.801331 -80.971077 2.3445489 2.7777777
-99.832687 -80.585258 2.3211172 2.5714285
-99.804253 -80.178154 2.2917349 2.8888888
-99.79731 -79.781845 2.2670383 2
-99.806351 -79.409218 2.25017 2.8333333
-99.827057 -79.019066 2.3109136 3.3333333
-99.828094 -78.57515 2.3560829 4
-99.824394 -78.218666 2.3310745 3.5
-99.80703 -77.823654 2.3408 3
-99.751816 -77.360504 2.3566594 3.5
-99.880081 -76.978233 2.3812227 3.6666667
-99.720055 -76.680199 2.3796048 3
-99.825691 -76.055466 2.344842 3.6666667
-99.817383 -75.728401 2.3199122 2
-99.789902 -75.377304 2.3251348 2.2727273
-99.796028 -74.951729 2.2708671 1.75
-99.68045 -74.653114 2.2491603 2.5714285
-99.844406 -74.200081 2.2431252 2.7142856
-99.844849 -73.724617 2.2133751 2.3333333
-99.74176 -73.358368 2.1960275 3
-99.783318 -73.090492 2.2014506 3
-99.764236 -72.600067 2.1531413 3.5999999
-99.845604 -72.146629 2.1437831 3.875
-99.76783 -71.876678 2.1269171 4
-99.713425 -71.32563 2.1070914 5
-99.888763 -70.949493 2.0862491 4
-99.846313 -70.514153 2.0414088 5
-99.740746 -70.250969 2.0488093 4.5
-99.876381 -69.824959 2.0559471 4.4000001
-99.833038 -69.426514 2.0314984 4.5
-99.721375 -68.999306 2.0067604 6
-99.818649 -68.615845 2.2346244 5.5
-99.996925 -64.542458 2.3992658 6
-99.949799 -89.892807 2.7243438 1
-99.947327 -87.649513 2.7909586 4
-99.624397 -87.543816 2.7784407 5
-99.660103 -86.343391 2.7724767 5
-99.741425 -85.73568 2.77458 5
-99.860497 -85.33329 2.6560633 3
-99.735214 -85.054741 2.529505 2.8571429
-99.805099 -84.577812 2.526881 3.2
-99.855408 -84.171455 2.4876831 3.2
-99.8255 -83.827377 2.4813201 2.5999999
-99.819946 -83.439339 2.4678702 3.4285715
-99.775063 -82.998665 2.442678 2.875
-99.785988 -82.678291 2.4447131 2.6666667
-99.785332 -82.261642 2.4261198 3.1111112
-99.872543 -81.802734 2.4192209 3
-99.948967 -78.573563 2.4187751 5
-99.99279 -78.231865 2.4134452 5
-99.725204 -75.348434 2.4040968 5
-99.803932 -68.57341 2.6849036 6.3333335
-99.683182 -68.367226 2.6026659 6
-99.791748 -88.582535 3.0023062 2.5
-99.777901 -88.2099 2.9526048 2
-99.79496 -87.714455 2.9961305 2.2393618
-99.751709 -87.462883 2.8822851 2
-99.794144 -86.958771 2.8870392 1.5
-99.732018 -86.597954 2.8782072 2
-99.651489 -86.217842 2.8145819 4
-99.709579 -85.997772 2.8098054 4
-99.715652 -85.568398 2.8025358 3.5
-99.845528 -68.600754 2.916218 6.9134321
-99.965118 -64.475639 3.0691383 7
-99.937546 -88.821587 3.4482839 3
-99.757729 -88.70153 3.4032264 4.2291665
-99.744598 -87.697647 3.4219036 2.9533334
-99.82489 -87.520523 3.5281267 3.9444444
-99.747925 -68.857704 3.4048278 8
-99.812912 -68.558151 3.4054308 7.6609087
-99.717628 -68.305733 3.3174577 7.53825
-99.782631 -88.644569 3.7848988 6.1437812
-99.732155 -87.684761 3.8344157 4.4940476
-99.77137 -87.437134 3.7941029 5
-99.816765 -68.545616 3.8566034 8.25
-99.661354 -68.35202 3.9091833 8
-99.661674 -65.276878 3.7658036 8
-99.975983 -64.398064 3.7412095 8
-99.835594 -88.655281 4.2751093 6.590909
-99.756691 -87.819862 4.1185808 5.8888888
-99.818092 -87.298981 4.0492854 6
-99.820831 -68.554901 4.2164702 9.04
-99.812843 -88.625275 4.6531525 7.8775454
-99.802177 -68.501221 4.5725932 9.4893293
-99.721527 -68.367119 4.5855927 9
-99.612144 -65.2939 4.5177779 9
-99.958679 -64.382088 4.4162893 9
-99.820885 -88.654747 5.0349197 9.3119783
-99.74881 -69.179878 4.9375267 9
-99.814568 -68.52478 5.0070338 10.515152
-99.698616 -68.268547 5.071476 9.769125
-99.812805 -88.694824 5.2197285 9.8762083
-99.801003 -68.49556 5.4034662 11.357142
-99.76091 -68.383835 5.2735262 10
-99.883591 -87.015694 5.6359444 9.0570002
-99.802635 -68.489464 5.8318744 11.647742
-99.718254 -68.344589 5.8523159 10.714286
-99.847046 -86.820381 6.3831148 10.096
-99.815491 -68.825661 6.3497076 10
-99.788223 -68.478867 6.1838489 12.714286
-99.836342 -68.362572 6.2945743 12.25
-99.65316 -69.099945 6.5007052 10
-99.80069 -68.470894 6.6125226 13.065061
-99.75383 -68.373268 6.5346446 13
-99.835167 -68.471474 6.9754848 14.05
-99.783485 -68.364395 7.0359774 13.135
-99.884911 -68.467415 7.3480754 13.502417
-99.719872 -68.338364 7.3996825 13.181818
-99.663048 -69.926575 7.6466379 8.125
-99.859726 -68.45932 7.8463373 14
-99.830978 -68.276741 7.8032541 13.936289
-99.923798 -67.851883 7.8507376 14.201667
-99.736473 -69.004478 8.0888166 11
-99.793602 -68.46595 8.0083189 13.408701
-99.824776 -68.235115 8.2109671 13.511343
-99.918808 -67.772232 8.2099028 14.7015
-99.999435 -66.213799 8.0831413 11.05
-99.742424 -65.877975 8.1699476 13.487
-99.794846 -68.43486 8.797101 15
-99.786423 -68.300537 8.6656046 14.482265
-99.910515 -67.739906 8.628871 15.03775
-99.979843 -67.524246 8.6375523 15.040001
-99.80938 -65.849075 8.6239834 14.4567
-99.724457 -87.679062 9.0563135 8.1450005
-99.827148 -68.16404 8.9417992 13.0205
-99.885132 -65.873726 8.9221249 13.0765
-99.898422 -87.152428 9.564229 8.1514997
-99.938538 -75.295906 9.574893 14.04125
-99.939049 -68.463905 9.2799368 13.0795
-99.765312 -68.212807 9.2294788 14
-99.687691 -75.89624 9.7711678 12
-99.968117 -75.487961 9.605442 13
-99.672501 -76.135742 10.127886 12
-99.687683 -69.600792 10.193698 9.1005001
-99.771637 -75.447586 10.408322 15.084
-99.950462 -75.880486 11.175088 13
-99.955444 -75.879204 11.462457 13
-99.91391 -76.132881 11.744962 13
-99.942986 -75.895386 11.7356 13
-99.603577 -74.859505 11.846448 13.058
-99.631111 -74.966736 12.348648 14
-100.0001 -75.611382 12.705832 14
-99.713837 -75.020714 12.441402 15
-99.971397 -75.868599 13.060541 14
-99.833122 -76.112907 13.388322 14
-99.85228 -75.967094 13.476323 14
-99.852646 -75.452858 13.210185 15
-99.90316 -77.439217 13.91118 10.089
-99.982178 -75.558342 14.260146 15
-99.913116 -75.723015 14.691294 15
-99.843849 -76.029907 15.18349 15
-99.921036 -75.785812 14.968203 15
-99.884933 -75.743546 15.533278 15
-99.672913 -75.578262 15.462625 15
-99.747169 -75.312126 15.795005 15
-99.6558 -76.818146 22.149296 13
-99.629395 -76.931938 22.547745 13.5
-99.909714 -76.193008 25.05209 13
-99.954086 -76.865448 27.913174 14
-99.880424 -76.675461 27.72636 14
-99.786728 -76.811455 28.012028 14
-99.745819 -76.472099 28.140781 15
-99.964981 -76.808472 28.867931 15
-99.615692 -76.398766 30.942261 15
-99.480637 -71.265724 1.4508491 7
-99.470787 -69.63974 1.4408085 7
-99.20472 -76.814102 1.6361333 7
-99.428253 -69.445969 1.9853199 4.3333335
-99.345131 -69.076241 1.9043837 5.75
-99.41835 -68.629433 1.980135 5.5
-99.428894 -82.466209 2.3976121 3.5
-99.409546 -82.124107 2.38464 3.5
-99.359764 -81.720299 2.3734851 2.6666667
-99.397972 -81.379372 2.3556323 2.375
-99.373978 -80.886681 2.3213286 0.5
-99.400978 -80.488945 2.3023157 2
-99.434875 -80.13369 2.2807105 3
-99.358673 -79.653831 2.2585635 5
-99.27195 -79.371498 2.2283263 3
-99.403412 -78.99366 2.3027413 2.625
-99.42984 -78.615883 2.3560042 2.8333333
-99.422241 -78.240074 2.3341029 2.6666667
-99.504364 -77.806122 2.3465824 4
-99.415413 -77.367752 2.3552072 3.3333333
-99.377144 -77.043221 2.3450701 3.5
-99.406136 -76.427734 2.3665392 4
-99.498428 -76.215019 2.3379576 3.25
-99.339012 -75.737892 2.3167837 0.75
-99.395172 -75.351433 2.3082721 3.0999999
-99.369934 -75.053833 2.329581 2.3333333
-99.402359 -74.617958 2.2383819 2.7
-99.393822 -74.224945 2.2176766 3
-99.407082 -73.861389 2.2066667 3
-99.45034 -73.423637 2.1882966 2.875
-99.32605 -72.984024 2.1833777 3.75
-99.427933 -72.567162 2.1813638 4
-99.476952 -72.180679 2.1170073 3.3333333
-99.403229 -71.884605 2.1237206 3.4000001
-99.441841 -71.494637 2.1198976 4.3333335
-99.405052 -70.985123 2.0512047 5
-99.418411 -70.72715 2.0360019 4
-99.470001 -70.219482 2.0619934 4.5
-99.481476 -69.862717 2.0298898 4.5
-99.407768 -69.456757 2.0229862 4.25
-99.421776 -68.469467 2.2117569 5.4137931
-99.325294 -68.365639 2.1348109 6
-99.351379 -87.362053 2.79493 3
-99.351311 -85.339043 2.7231991 2.2
-99.409782 -85.080849 2.5798378 2.4285715
-99.459518 -84.521339 2.5065844 4
-99.312943 -84.154831 2.4972403 2.3333333
-99.434784 -83.816628 2.4859343 3
-99.422836 -83.396454 2.4671533 3.3333333
-99.433182 -83.001915 2.4495099 2
-99.349052 -82.582329 2.4199452 2.75
-99.460876 -82.128006 2.4071019 3
-99.463684 -68.463081 2.6816723 6.304348
-99.322754 -68.330559 2.6149735 6.0833335
-99.426788 -88.821136 3.0711355 4.6666665
-99.370811 -88.601654 3.007267 2.5789473
-99.399666 -88.20993 2.9121048 1.8571428
-99.516335 -87.77549 2.8613362 1.4285715
-99.396111 -87.492546 2.8228087 1.8571428
-99.363586 -87.020378 2.8334973 1.6666666
-99.278824 -86.576607 2.8439126 4
-99.459351 -86.161293 2.804049 3
-99.548904 -85.642738 2.824297 4
-99.337395 -85.585747 2.9007659 2
-99.437035 -68.437943 2.9718773 7.0755
-99.330688 -68.326317 3.1924062 7
-99.403954 -88.872063 3.3292074 5
-99.373123 -88.628998 3.3854923 4.0416665
-99.247932 -87.397446 3.5495086 4
-99.429672 -68.995644 3.372987 8
-99.480339 -68.441231 3.3862927 7.6399999
-99.364517 -68.336586 3.3687928 7.6179996
-99.412476 -66.042076 3.2388101 8.0804996
-99.473831 -88.80014 3.820004 6
-99.382713 -88.662979 3.7989342 5.0520835
-99.383598 -88.170982 3.990608 6
-99.485832 -87.758392 3.8926213 5.0500002
-99.450684 -87.383675 3.7664194 5.1428571
-99.388 -87.046043 3.911808 5.4705882
-99.467316 -68.435677 3.7879474 8.25
-99.355713 -68.315208 3.8863394 8.272727
-99.395905 -65.886421 3.7998133 8
-99.559845 -65.499779 3.7798786 8
-99.351898 -88.83255 4.3602571 7
-99.398727 -88.647324 4.2122607 6.5
-99.352875 -88.129066 4.105135 6
-99.391624 -87.875015 4.1399674 6
-99.388748 -87.556747 4.035038 6
-99.360512 -86.998085 4.0156927 5.5
-99.487411 -68.428314 4.1964049 9
-99.367378 -68.365967 4.2182841 9.1333332
-99.369202 -88.646439 4.6502347 7.8834906
-99.507698 -68.422699 4.6373844 9.4097996
-99.391045 -68.308914 4.5620718 9.3888893
-99.358749 -65.84481 4.5412097 9
-99.518921 -65.479576 4.5273137 9
-99.408852 -88.601974 4.9962945 9.105958
-99.333633 -88.353142 5.0693808 9.1125002
-99.509392 -68.474564 4.9718895 10.125
-99.381516 -68.318649 5.00383 10.491334
-99.464188 -65.409752 5.1205101 10.0325
-99.44413 -88.590569 5.2606373 9.1064997
-99.552872 -68.415161 5.509995 11.5
-99.399788 -68.326904 5.4020123 11.187797
-99.350945 -65.724617 5.2856193 10
-99.542969 -65.360741 5.2711549 10
-99.549156 -68.414436 5.7952018 11.666667
-99.380493 -68.295685 5.8407602 11.479858
-99.281891 -68.604523 6.2925415 10
-99.382889 -68.312035 6.1952052 12.504597
-99.412537 -68.2864 6.5988369 12.857231
-99.324577 -70.214127 7.0468683 8.0874996
-99.399902 -68.274437 6.9924788 13.422612
-99.26339 -70.200974 7.449563 8.0865002
-99.559296 -69.951591 7.5644188 8.0970001
-99.394875 -68.229309 7.3513889 13.001972
-99.376801 -67.855331 7.4930835 13.014999
-99.327667 -67.549171 7.4170213 11
-99.446121 -68.05468 7.768764 13.673659
-99.339638 -67.8769 7.7965631 13.0128
-99.293221 -67.547836 7.9777875 12.0785
-99.263687 -67.058762 7.8335581 11.0785
-99.536972 -68.715332 8.0537024 11
-99.552223 -68.046738 8.3307657 14.073
-99.320274 -67.913513 8.1811838 13.464357
-99.499557 -67.085693 8.0949163 11.049
-99.431122 -65.747253 8.2462454 12.0785
-99.403915 -68.113823 8.5661564 13.0143
-99.339111 -67.870232 8.5171537 13.886857
-99.27401 -67.458618 8.5936394 12.04025
-99.419556 -65.708694 8.6587105 13.075665
-99.510101 -89.445793 9.1864157 8.1424999
-99.455536 -86.834373 8.8729324 8.1475
-99.397789 -68.123291 8.9695568 12.5
-99.307014 -67.846497 8.8545179 13.018
-99.46022 -65.805733 9.0400009 14.55775
-99.333786 -75.026016 9.4825125 12.752334
-99.503609 -68.588341 9.3621521 12
-99.279396 -68.348053 9.408021 12
-99.574402 -76.10247 9.9866085 12
-99.303444 -75.270287 9.7776566 14.084751
-99.48278 -69.765839 9.9507046 9.1237497
-99.273727 -68.628059 9.738987 13
-99.433083 -68.226662 9.9126549 13.666667
-99.392166 -67.820396 9.8172569 13.333333
-99.403511 -75.294113 10.065689 12.58075
-99.431572 -70.364311 10.189875 9.1035004
-99.49157 -69.843277 10.190737 9.1157494
-99.208153 -67.614693 10.340117 9.0860004
-99.282684 -75.294563 10.589359 14
-99.321442 -89.726723 11.821016 14.009501
-99.571457 -75.292664 11.900664 13.0555
-99.238342 -74.803741 11.794731 13.061
-99.505394 -89.884048 12.082851 13.007
-99.597389 -67.219894 12.205956 10.124
-99.271957 -75.32737 12.517092 14
-99.217186 -66.855972 12.671944 10.0995
-99.438362 -75.852654 13.101623 14
-99.439812 -75.377754 12.956636 14.5
-99.429886 -75.21843 13.324027 15
-99.496346 -75.762451 15.070404 15
-99.586113 -75.529137 15.078024 15
-99.449409 -75.291344 15.567517 15
-99.509605 -77.280342 21.023872 13.053249
-99.37149 -77.027603 26.76931 15.105
-99.298653 -76.413147 27.533813 14
-99.551567 -76.555077 28.606092 15
-98.956841 -73.164482 1.5037706 7
-98.918503 -70.28569 1.985075 6
-99.012779 -69.316032 1.9857669 4.5
-98.879219 -69.016899 1.9533122 5
-99.122849 -68.576843 1.9495316 7
-98.971657 -68.307014 1.975135 5.3333335
-99.060654 -82.577583 2.3924882 0
-99.005478 -82.197418 2.384938 0.5
-98.949135 -81.808205 2.3794663 3.1666667
-98.930893 -81.370277 2.3466892 3.3333333
-98.933205 -81.006012 2.328758 3
-98.98497 -80.610344 2.3083928 2.2
-98.960434 -80.233818 2.2802393 2.2
-99.003784 -79.784737 2.2477772 1.9
-98.966835 -79.396095 2.2104552 1.6666666
-99.003761 -79.024467 2.241003 2.1428571
-98.961685 -78.695351 2.3385556 2.2857144
-98.987221 -78.166603 2.3339112 2.5
-98.975975 -77.782906 2.3096554 1.7142857
-99.052925 -77.414032 2.3231468 3.8333333
-99.055069 -76.991722 2.3418694 3.8333333
-98.993851 -76.645645 2.3339014 4.125
-99.051674 -75.782082 2.3145063 2.25
-98.942871 -75.466125 2.2853444 1.3333334
-98.930931 -75.046341 2.2973444 2.909091
-99.013771 -74.576286 2.2302949 1.75
-99.028503 -74.19326 2.2272782 3.4000001
-98.988762 -73.814598 2.1964226 3.2
-98.970444 -73.465584 2.1749432 2.1666667
-98.940552 -72.990845 2.1560073 3
-98.948471 -72.587852 2.1405058 3
-98.962265 -72.147217 2.1085889 4.25
-99.053963 -71.787277 2.0989263 3.2857144
-98.959541 -71.398552 2.0601785 4.6666665
-98.988441 -71.063972 2.0434575 4.3333335
-99.097305 -70.523788 2.0122986 5.5
-98.958488 -70.305031 2.0342524 4.6666665
-99.023056 -69.860947 2.0232384 4.1999998
-99.141014 -69.472092 2.0316947 4.5
-99.026672 -68.304184 2.2236998 5.5333333
-98.939423 -87.639717 2.7870581 0
-98.926895 -86.995956 2.782536 0.5
-99.028175 -86.60675 2.7753417 1.8
-98.985878 -86.025658 2.726135 3
-98.858406 -85.760559 2.7457361 4
-99.005569 -85.36689 2.7269521 3.3333333
-98.935341 -85.034653 2.5539756 2.3333333
-99.047928 -84.55072 2.4799538 2
-99.055305 -84.212463 2.4618766 1
-98.996284 -83.664467 2.4564855 2.6666667
-99.017715 -83.360252 2.4358914 2.3333333
-98.954956 -82.789825 2.4183099 2.5
-99.017639 -82.216858 2.4066539 5
-99.012665 -68.259399 2.6523285 6.2564101
-98.98896 -88.577957 3.0283337 2.7807016
-98.975594 -88.17411 2.8869815 1.8
-98.98465 -87.799057 2.8155346 0.625
-98.986816 -87.377602 2.8453197 1.25
-99.073906 -87.042206 2.8288579 2
-99.142532 -86.557777 2.8811145 1.6666666
-98.881752 -86.255966 2.9593225 0
-99.0382 -68.256058 3.0204234 7
-98.805176 -67.998672 3.1564069 7
-99.022278 -88.632286 3.4332457 4.2651515
-98.991585 -87.34874 3.5342374 3.3076923
-98.992851 -68.580788 3.3807139 8
-99.030724 -68.253937 3.3744919 7.6257224
-99.184959 -88.825439 3.7993701 6
-98.949738 -88.550362 3.7881675 5.3735642
-99.138298 -86.916672 3.9305403 5.3000002
-99.023102 -86.748383 3.9318962 5.125
-99.017799 -68.221809 3.841574 8.3347168
-99.043839 -88.607971 4.2433715 6.5657897
-99.080589 -88.126381 4.236238 6.6171999
-99.165245 -87.94323 4.1701446 6
-99.018929 -68.238953 4.2206469 9.125
-98.861855 -88.806458 4.6688704 8
-99.006935 -88.598495 4.6541991 7.9364758
-99.126625 -88.289497 4.4072585 7
-99.067978 -68.432594 4.7722239 9
-99.028061 -68.193718 4.5769229 9.4458084
-98.90593 -67.984245 4.5036368 9
-99.06871 -66.581451 4.5622635 9.0459995
-99.011612 -88.581062 5.0201321 9.274498
-99.012505 -88.362709 4.8987122 9.1343336
-99.133926 -68.91938 4.8933096 9
-98.900253 -68.635445 4.8596177 9
-99.021927 -68.192406 4.9784899 10.5
-98.88485 -67.944847 5.1690083 10
-98.91835 -88.642509 5.230195 9.8712006
-99.015846 -68.181732 5.3852983 11.175103
-98.814156 -67.993401 5.311439 10
-99.001961 -68.155296 5.8247695 11.569716
-98.851944 -67.925217 5.825109 11
-98.922348 -68.543488 6.323597 10
-99.011467 -68.166779 6.1809044 12.24138
-99.015533 -68.714912 6.4453564 10
-99.024605 -68.138908 6.6233692 13.031573
-98.820053 -67.943802 6.613884 12
-99.070221 -70.115952 7.0715642 8.0869999
-99.032387 -68.141815 7.0012183 13.407408
-98.923889 -67.929527 7.1562004 13
-98.809982 -69.556923 7.4547305 8.0930004
-99.033546 -68.122391 7.4254875 13.828638
-98.959976 -67.907814 7.4733887 13.357249
-99.143784 -67.522118 7.5765944 15.066
-98.990883 -68.480873 7.872509 11
-99.034027 -68.132919 7.7929735 13.307693
-99.068611 -67.879005 7.8210154 13.284818
-99.118355 -67.461212 7.8166199 13.570875
-99.045891 -65.661674 7.958149 12.0625
-99.060806 -68.436813 8.0875874 11
-99.045372 -68.070869 8.1149292 13.622346
-99.052246 -67.815414 8.1767807 14.605642
-99.080322 -67.418686 8.1751652 13.208215
-99.17662 -65.628792 8.2617159 14.07
-99.015045 -65.558907 8.1280184 13.073833
-98.946182 -68.031647 8.5909166 14.75
-98.999161 -67.835785 8.5658293 14.591856
-99.077431 -67.347046 8.6038122 14.0735
-99.164726 -65.624283 8.6044693 15.049749
-98.945122 -65.520821 8.6367674 13.739333
-98.980644 -89.818031 9.0236197 12.706833
-98.966507 -89.544823 9.0443325 15.001
-99.059784 -68.090767 8.9968538 13.867571
-99.0084 -67.928093 8.9706373 14.173833
-99.047066 -67.482635 8.9489841 15.07175
-98.920563 -66.990395 9.0453939 13.078
-98.857246 -66.439217 9.0255814 13.0775
-98.820946 -66.023987 9.1355515 15.045
-99.058289 -65.827904 9.1225834 15.041165
-99.025764 -65.472458 8.932457 14.713834
-98.97467 -89.808319 9.3938999 12.543875
-99.059105 -89.525215 9.4033642 13.0315
-98.81205 -74.74498 9.4277229 14.0835
-98.984184 -69.063286 9.5681734 12
-99.106651 -68.607811 9.5294237 12
-99.056015 -68.205521 9.3184471 15
-98.966576 -67.758911 9.3125992 15
-99.18914 -67.360489 9.3812313 14.076
-99.043884 -89.633484 9.6386814 12.51
-99.099541 -75.035858 9.7886686 13.08275
-98.941643 -69.233391 9.9320011 13.0825
-98.875801 -68.88427 9.7380524 15.076
-99.055191 -67.667847 9.6112022 14.077
-98.898781 -67.325104 9.852911 14.0775
-99.01609 -75.136063 10.157189 14.085
-99.142525 -70.060036 10.015091 9.0874996
-98.893387 -69.958504 10.064475 9.0869999
-98.991463 -69.58284 10.27315 9.0944996
-98.953857 -75.110199 10.485627 14.584749
-99.082443 -70.03009 10.434086 9.0865002
-98.833725 -89.075043 11.078753 12.083
-98.875008 -89.830551 11.562003 13.509
-99.118988 -74.736595 12.223299 14.087
-98.95359 -66.880539 12.05802 10.129
-99.081749 -67.636368 12.588535 10.1025
-99.062119 -89.951393 12.945855 14.008
-99.01606 -75.67662 12.992039 14
-99.074036 -75.468575 12.908322 14
-99.031509 -66.96711 12.890039 10.096
-99.023933 -75.22876 13.47462 10.085
-98.940094 -75.03344 13.300991 15.0875
-99.125359 -75.149742 14.19422 10.08
-98.830406 -76.47226 15.084221 11.1315
-99.107658 -74.982361 15.530149 15
-98.854164 -75.79026 15.902166 11
-98.853355 -75.769867 16.249073 11
-98.913933 -75.402802 16.021399 11.098
-98.842804 -75.203743 17.588724 11.078
-98.81855 -75.618988 17.623463 11
-98.825661 -74.954056 17.886234 11.08
-98.886215 -77.071808 20.799145 13
-98.870934 -75.068214 21.180851 12
-98.897141 -74.702148 21.188202 12
-98.883987 -74.758202 21.279808 12.0825
-99.139458 -76.984489 23.506748 14
-99.170479 -77.04245 23.69569 14.1065
-98.81958 -75.082016 25.971388 13.0715
-98.81292 -74.324608 29.283888 14.08
-98.954346 -76.120499 30.743391 15
-98.626938 -69.599373 1.3449644 7
-98.560516 -68.253143 1.338789 7
-98.502853 -78.942734 1.691866 7
-98.651016 -70.000725 1.9988413 4
-98.424034 -69.851631 1.9849054 5
-98.574486 -69.329002 1.9781127 4
-98.544998 -69.038597 1.9551872 4.5
-98.494926 -68.642372 1.8867071 6
-98.659775 -68.145645 1.9662057 5
-98.529442 -83.049416 2.3779864 4
-98.628929 -82.557869 2.3737772 3.75
-98.63623 -82.181671 2.3725851 3
-98.674347 -81.773422 2.3659899 2
-98.722847 -81.449989 2.3546014 2.25
-98.638161 -81.028252 2.3156419 2.7142856
-98.692764 -80.61969 2.2919276 3.8
-98.690002 -80.192543 2.2709892 4.1428571
-98.569687 -79.821259 2.2385132 3.3333333
-98.662827 -79.480087 2.2305772 3
-98.608345 -78.932289 2.2313313 2.8333333
-98.628532 -78.567169 2.3215384 4
-98.594254 -78.192383 2.3123279 3.625
-98.595169 -77.770439 2.314749 4
-98.646996 -77.401405 2.3137355 2.2
-98.587837 -76.959526 2.2992699 4
-98.577553 -76.544258 2.3074169 3.5
-98.638046 -76.212715 2.3093202 4.3333335
-98.616127 -75.783241 2.3057468 4
-98.639503 -75.454567 2.2786913 1
-98.606049 -74.921776 2.2857025 1.9090909
-98.592438 -74.519104 2.2183738 3
-98.667831 -74.150749 2.1909041 2.3333333
-98.603676 -73.689346 2.1771953 3
-98.595543 -73.412376 2.1620927 2.2
-98.550156 -72.995857 2.1580224 4
-98.657196 -72.631943 2.1233478 3.8
-98.613586 -72.274765 2.0942528 3.5
-98.559258 -71.810715 2.0748978 3.5
-98.54734 -71.478348 2.058414 3.5999999
-98.549889 -70.989204 2.0321479 4
-98.446213 -70.687271 2.0261085 5
-98.63678 -70.160912 2.0139983 4
-98.651306 -69.844322 2.0342526 4.5
-98.609619 -68.13784 2.1979592 5.6363635
-98.687462 -89.984619 2.6962616 1
-98.604073 -87.831467 2.7719054 1.2
-98.563873 -87.42289 2.7563581 1.4
-98.569069 -86.971733 2.7577958 2.2
-98.509331 -86.649117 2.7672276 0
-98.692245 -86.139374 2.7658584 2.6666667
-98.507988 -85.643021 2.7118728 2.5
-98.73616 -85.372948 2.6732833 3.6666667
-98.566818 -84.994514 2.5451043 2.3333333
-98.528145 -84.564812 2.4437463 4
-98.630058 -84.214958 2.4503212 3
-98.649208 -83.806908 2.4348085 2.5999999
-98.541008 -83.430962 2.419946 3.25
-98.657738 -83.000389 2.4140315 3.1666667
-98.559937 -82.642624 2.4115403 0.5
-98.6259 -68.13681 2.6616831 6.3030305
-98.555 -67.932106 2.484447 6
-98.593658 -88.628571 2.9851182 2.0384614
-98.676758 -88.186752 2.8769681 2
-98.542282 -87.966209 2.900315 2.3333333
-98.423729 -87.354614 2.9760931 1
-98.556412 -87.104088 2.9104073 1
-98.602806 -86.699158 2.8120754 2
-98.636253 -68.11438 3.0066419 7
-98.45018 -67.912521 3.1467271 7
-98.677422 -88.83857 3.5266647 4.5
-98.624443 -88.613701 3.4278457 3.9259262
-98.790977 -87.350883 3.4980791 3
-98.555374 -68.584885 3.3097019 8
-98.613594 -68.104942 3.3870673 7.7692146
-98.574036 -67.973801 3.3082216 7.5402498
-98.606117 -88.599266 3.7649364 4.7954545
-98.685089 -87.373756 3.9434435 5
-98.641739 -68.100121 3.8313243 8.3595533
-98.572891 -67.920242 3.8535995 8
-98.611588 -88.581932 4.2671242 6.6155915
-98.469673 -88.258553 4.3339934 8.0909996
-98.613678 -68.074471 4.2337499 9.2465
-98.518753 -67.993324 4.3779707 9
-98.599991 -65.466354 4.1699824 9.0719995
-98.618797 -88.63604 4.6489692 7.9427519
-98.665245 -68.092438 4.602263 9.666667
-98.519753 -67.940613 4.5611315 9.0827503
-98.584236 -88.594635 5.048697 9.3576622
-98.665138 -68.589363 4.85884 9
-98.643929 -68.063156 4.9535432 10.571428
-98.530975 -67.920471 5.0896311 10.333333
-98.515999 -65.443184 5.0795703 10.072
-98.655655 -88.628487 5.2363138 9.8500996
-98.658386 -68.06102 5.4135623 11.666667
-98.530762 -67.954277 5.3500051 10.452999
-98.665161 -68.046623 5.816021 12.415971
-98.51049 -67.92926 5.7752099 11.15418
-98.590332 -68.554886 6.3573809 10
-98.676994 -68.072411 6.2105918 12.58271
-98.557114 -67.95549 6.2107105 12.544384
-98.580032 -68.565834 6.4391317 10
-98.686371 -68.040062 6.5746417 13.089833
-98.552429 -67.921341 6.6435866 12.881579
-98.71048 -68.041008 6.9803872 13.5
-98.582771 -67.950928 6.9923024 13.664529
-98.645317 -70.122162 7.381547 8
-98.549866 -69.866783 7.3739743 8.0939999
-98.685936 -69.504257 7.5136461 8.0962496
-98.730118 -68.030144 7.2992334 14
-98.54097 -67.865456 7.3161192 13.555555
-98.403572 -67.763138 7.9904127 12
-98.605583 -65.413185 7.8813295 13.404332
-98.732544 -89.005775 8.0919704 10.0635
-98.511909 -67.761253 8.3071318 12
-98.583641 -65.396606 8.1598082 13.571562
-98.585808 -67.796234 8.5756254 13.757626
-98.640015 -65.415161 8.5722513 13.324625
-98.709061 -89.748856 9.1438265 14.0095
-98.65976 -89.407234 9.0340652 11.887584
-98.482025 -88.329239 8.9029589 8.1394997
-98.795052 -68.424011 9.1533537 12
-98.551003 -67.874237 9.0216551 13.333333
-98.731857 -65.994255 9.1400042 15.0435
-98.744911 -89.66465 9.5737944 15.00725
-98.525078 -89.385506 9.3314352 11.002
-98.689873 -69.001785 9.4888897 12.325625
-98.640572 -68.478653 9.3042192 14.037251
-98.665512 -68.18885 9.2462101 14.01225
-98.506012 -67.973137 9.3572559 13
-98.580643 -67.106674 9.3582268 13.0795
-98.612968 -89.829727 9.8005075 11.440701
-98.402092 -89.498749 9.9569254 14.014
-98.435516 -75.21225 9.9723358 12.0555
-98.501907 -74.964462 9.7041521 15.083
-98.457253 -70.568924 9.6498928 13.083
-98.572701 -70.323997 9.6381435 15.0775
-98.514755 -69.811584 9.7257805 14.075166
-98.696617 -69.30584 9.8368883 15.07675
-98.65683 -89.808594 10.138967 12.342667
-98.742783 -75.047607 10.103001 15.0835
-98.567757 -70.02533 10.262212 9
-98.617012 -69.643265 10.068237 9.1134996
-98.613861 -69.385155 10.238957 9.0946665
-98.407486 -89.856613 10.543611 12.00425
-98.495506 -89.500168 10.560979 15.0135
-98.4161 -69.909683 10.407199 9
-98.646973 -89.56662 11.178235 12.0635
-98.594093 -89.854401 11.381651 12.0325
-98.494698 -89.688492 11.875831 15.012
-98.792755 -74.508087 11.690346 13.0675
-98.788132 -74.677299 12.483166 15.0865
-98.437874 -76.680359 13.413296 10
-98.551933 -76.896118 13.876469 10
-98.580933 -76.595413 13.825576 10.075
-98.687737 -76.14679 13.966615 10.0815
-98.581314 -76.897408 14.065653 10
-98.559517 -76.692993 14.130111 10
-98.748787 -76.221252 14.106216 10
-98.554832 -76.970436 14.468123 10
-98.683792 -76.591003 14.461766 10
-98.477531 -76.915634 15.094416 11
-98.525482 -76.615364 15.134993 11.046666
-98.573769 -76.181747 15.196994 11
-98.439186 -76.980103 15.271783 11
-98.560165 -76.667534 15.37645 11.109333
-98.572456 -76.199265 15.239795 11
-98.510391 -76.950714 15.752706 11
-98.637009 -76.551636 15.79886 11.1045
-98.588188 -76.131355 15.897331 11
-98.703659 -75.94574 15.710967 11
-98.473419 -76.894447 16.220905 11
-98.509094 -76.631981 16.23801 11
-98.692909 -76.150482 16.188873 11
-98.509293 -76.803711 17.021219 11
-98.447769 -76.690193 16.828697 11
-98.752151 -76.982971 17.587862 12
-98.477264 -76.601051 17.385483 11.272727
-98.583191 -76.227905 17.342987 11
-98.736076 -75.810661 17.44397 11
-98.695946 -76.299782 17.672361 12
-98.654129 -75.96701 17.627504 11.040751
-98.517395 -76.65036 18.258989 11.357166
-98.550468 -75.766212 18.326735 12
-98.471245 -76.024765 18.627851 12
-98.49762 -75.927849 18.582539 12
-98.411255 -76.644905 19.002743 12
-98.482285 -76.185593 19.10951 12
-98.571587 -75.912651 18.954721 12
-98.485344 -76.159363 19.353638 12
-98.40564 -76.668304 19.922018 12
-98.400261 -76.294495 19.785412 13
-98.58297 -76.60997 20.166142 12
-98.463234 -76.462364 20.640726 12
-98.465149 -76.203056 20.669729 12.166667
-98.563889 -75.865593 20.633377 12.5
-98.460884 -76.241295 20.979856 12
-98.610664 -75.767776 21.165703 12
-98.700172 -75.374184 21.177601 12.028333
-98.780533 -75.0681 21.182434 12
-98.422119 -76.006454 21.291796 13
-98.439659 -75.681091 21.408175 13
-98.554504 -75.48185 21.297903 13
-98.552101 -76.491287 21.900335 12
-98.607521 -76.501366 22.075241 12
-98.535896 -76.353424 22.026468 12
-98.737045 -75.899841 22.06221 12.046249
-98.563995 -75.487106 23.009253 13.0885
-98.459877 -76.442245 23.314631 13
-98.454041 -76.015831 23.264357 14
-98.451332 -76.755142 23.743891 14
-98.400681 -76.284134 23.979492 13
-98.481071 -75.856003 23.876932 13.551001
-98.569466 -75.278107 23.847586 13.333333
-98.55336 -75.010681 23.689856 14
-98.60405 -74.748215 23.689507 14
-98.409752 -76.488075 24.312677 13
-98.512764 -75.813126 24.146454 13
-98.634834 -75.39225 24.215353 13
-98.652969 -75.216911 24.75741 13
-98.785889 -74.875046 24.771399 13
-98.462822 -75.593185 25.056995 13.0815
-98.496674 -75.168343 25.056448 14.0925
-98.494385 -76.206917 25.913359 13
-98.535469 -75.82 25.856329 13.01875
-98.703957 -75.453987 25.922064 13
-98.421371 -74.56517 26.399471 15
-98.541306 -75.2341 27.19652 14
-98.421165 -75.634972 27.491066 14
-98.526108 -75.416626 27.401411 14
-98.603416 -75.137543 27.357613 14
-98.41095 -75.779503 27.647474 14
-98.505051 -75.403923 27.730141 14
-98.459793 -75.374985 28.376133 14.086
-98.451958 -75.050537 28.527399 14
-98.475273 -75.394218 28.854824 14.0815
-98.525581 -75.678268 29.588484 14
-98.515572 -75.894493 29.86083 14
-98.663757 -75.299164 29.605644 14
-98.587601 -75.64431 30.379982 14.0905
-98.479637 -75.036728 30.5716 15
-98.43058 -75.001404 32.192959 15.057
-98.40358 -75.820923 33.516819 15
-98.500191 -75.679611 33.869534 15
-98.52758 -75.065521 34.215832 15.075
-98.605156 -74.638412 34.197166 15.074
-98.577713 -75.305443 34.702343 15.0905
-98.057892 -74.90284 1.5965556 7
-98.156029 -68.655281 1.3255823 7
-98.32608 -68.113876 1.3387585 7
-98.191528 -78.665794 1.7829285 7
-98.11039 -78.141464 1.7089152 7
-98.334557 -73.700813 1.6101654 7
-98.153084 -70.493431 1.9955957 4
-98.175797 -70.205406 1.9889897 4.5
-98.204048 -69.779839 1.981469 4
-98.121895 -69.402954 1.9561474 4.75
-98.059563 -69.077354 1.9404175 4.6666665
-98.183907 -68.50824 1.803867 7
-98.198532 -68.213905 1.8785033 5.8000002
-98.129852 -67.952904 1.9676541 5
-98.198952 -82.808937 2.3984809 0
-98.231438 -82.419426 2.3828633 0
-98.217056 -82.154663 2.3813562 1.5
-98.195137 -81.786163 2.3325691 3.3333333
-98.228523 -81.531555 2.3423238 1.3333334
-98.262215 -81.017685 2.3199108 2.3333333
-98.246651 -80.709778 2.2797844 1
-98.265549 -80.21727 2.2584667 2.3333333
-98.073219 -79.683243 2.211477 1.6666666
-98.191521 -79.326813 2.1859946 2
-98.272194 -78.915535 2.1917226 2.25
-98.231979 -78.612755 2.3027275 2.8888888
-98.247444 -78.223885 2.306422 2.6666667
-98.123756 -77.773071 2.2944582 4.1666665
-98.258133 -77.390274 2.3039994 2.875
-98.164474 -76.995079 2.2804008 3
-98.137733 -76.542931 2.3003271 3.3333333
-98.138687 -76.213722 2.2786813 4.25
-98.261902 -75.881042 2.2967663 4.1666665
-98.202637 -75.448044 2.2894707 2.5714285
-98.191055 -74.970245 2.274436 2.5
-98.177254 -74.636467 2.2698219 1.8181819
-98.171661 -74.171234 2.1966164 2.25
-98.20475 -73.768166 2.1785474 2.8
-98.221413 -73.329025 2.1551509 2.7142856
-98.147827 -73.002113 2.1165328 3.25
-98.177452 -72.4786 2.1191387 3
-98.17585 -71.721558 2.0541222 3.875
-98.143936 -71.258644 2.0257049 4
-98.169037 -71.138184 2.0535922 4.5
-98.251579 -70.61982 2.0193949 4
-98.253197 -70.014519 2.0011511 4
-98.286705 -68.023056 2.1831505 5.3571429
-98.146103 -67.937454 2.1969259 5.7692308
-98.175026 -88.334312 2.7697711 4
-98.163902 -87.803833 2.7947931 1
-98.225716 -87.462959 2.7584782 0.5
-98.166389 -87.077217 2.7384958 2.25
-98.199005 -86.576736 2.748363 2.1428571
-98.167442 -86.204903 2.706543 3.5
-98.069687 -85.75705 2.6735418 3.25
-98.19883 -85.3022 2.6751037 1.75
-98.20752 -84.971252 2.5743973 3.1111112
-98.072365 -84.603165 2.4401031 2
-98.176224 -84.253647 2.4452136 1.75
-98.175499 -83.72155 2.4261627 0.75
-98.138008 -83.34388 2.4285085 0.66666669
-98.280113 -82.932159 2.424247 1
-98.069611 -82.791718 2.4133165 3
-98.32943 -68.029358 2.6584232 6.1999998
-98.161629 -67.923546 2.6187546 6.2857141
-98.178543 -88.560394 3.0234549 2.488889
-98.193321 -88.225655 2.9145455 1.6666666
-98.19001 -87.773766 2.8463216 2.25
-98.183624 -87.358017 2.8998446 1
-98.101578 -87.102684 2.8627632 1.5
-98.017296 -86.685677 2.8688619 2
-98.171005 -86.168396 2.9781213 0
-98.348511 -68.043655 3.0332587 7.2618752
-98.218826 -67.918526 3.0308719 7.1232944
-98.196053 -88.569893 3.4510076 3.6695404
-98.311958 -68.619232 3.3154931 8
-98.312119 -68.008743 3.29772 7.4000001
-98.211678 -67.927734 3.3657379 7.8223124
-98.233757 -88.85405 3.7723763 6.5314999
-98.160629 -88.631027 3.7936788 5.0470514
-98.386543 -68.041992 3.8153422 8
-98.230621 -67.911865 3.8301651 8.3808107
-98.212273 -88.637794 4.2690363 6.605
-98.202461 -88.322845 4.3505812 8.0950003
-98.129051 -69.918579 4.1041617 7
-98.22493 -67.916092 4.234231 9.3076925
-98.198326 -88.643333 4.6648335 7.982965
-98.275146 -68.092041 4.6777005 9.0237503
-98.21817 -67.861122 4.5997949 9.5302277
-98.192307 -88.612556 5.0522852 9.2740669
-98.317917 -68.574661 4.8434834 9
-98.218987 -67.874176 4.9859457 10.533334
-98.232574 -88.573883 5.2940016 9.8000002
-98.212814 -67.866974 5.3917317 11.110203
-98.226952 -67.848877 5.7989039 11.8054
-98.158272 -68.056526 6.0835233 10
-98.228088 -67.854797 6.212636 12.44428
-98.056908 -67.541794 6.2707915 10.076
-98.225998 -67.831772 6.6433902 13.211069
-98.184097 -69.813751 7.1892872 8.0865002
-98.234131 -67.837334 6.9912214 13.586688
-98.103958 -69.792976 7.3746262 8.0369997
-98.040321 -69.256592 7.4092708 8.0935001
-98.225952 -67.779022 7.3934984 13.503931
-98.205505 -67.726669 7.8335056 14.571428
-98.230316 -65.289749 7.835465 11.068
-98.15155 -65.180565 7.8903117 11.56925
-98.244423 -67.713409 8.2152176 14.1305
-98.212479 -65.240555 8.281867 13.074124
-98.128571 -65.187614 8.1523466 15.065
-98.17366 -89.982246 8.5720835 15.1105
-98.177834 -89.245667 8.6188211 13.459332
-98.027908 -89.145538 8.680294 12.0135
-98.107475 -67.695053 8.499712 15.0355
-98.238747 -67.572083 8.7028418 15
-98.346916 -65.261185 8.6187496 13.0755
-98.276077 -89.614494 9.1934223 14.01
-98.229362 -89.367607 9.0050192 13.067166
-98.115417 -89.051811 8.9937563 14.398666
-98.232475 -67.672073 9.0399075 14.7435
-98.133957 -67.565598 8.9563417 14.555
-98.054634 -66.538452 8.9210196 14.074
-98.013176 -89.867744 9.5357761 13
-98.181915 -89.458023 9.4198494 12.875
-98.119141 -74.710312 9.5813999 13.585
-98.242035 -69.372894 9.2669849 15.0755
-98.374809 -68.898964 9.3131485 15.075
-98.101006 -67.808411 9.2770758 13.08
-98.110634 -66.920288 9.3957367 14.076
-98.16819 -89.901176 9.7592525 12.670667
-98.132736 -89.447548 9.8520746 13.01025
-98.233391 -71.186523 9.7559357 13.08375
-98.146072 -70.687103 9.7847004 14.5795
-98.346092 -70.170547 9.8283606 14.579
-98.353004 -69.641922 9.7595434 9.1090002
-98.124519 -69.279625 9.7659588 9.1330004
-98.121483 -89.731155 10.199889 11.064
-98.226036 -89.449547 10.277881 14.113851
-98.148468 -74.854355 10.096169 13.087
-98.15239 -71.425575 10.113108 14.082
-98.185509 -70.940269 10.115422 14.5805
-98.063087 -70.622093 10.098276 15.079
-98.255135 -70.349663 10.102693 14.081
-98.06472 -69.782227 10.217212 9
-98.348045 -69.526718 10.022124 9.1389999
-98.235374 -89.69503 10.692534 12.52475
-98.116051 -89.479218 10.608068 14.556999
-98.155098 -89.640305 11.067596 12.0665
-98.211281 -88.846893 11.160747 12.076
-98.274742 -89.733459 11.48413 12.0595
-98.223877 -89.594856 11.342324 13.587999
-98.313606 -89.057388 11.231608 12.059
-98.216454 -89.74794 11.7534 12.829875
-98.111382 -89.431992 11.785457 13.434599
-98.139038 -89.767616 12.065629 13.0325
-98.239822 -89.381638 12.186879 13.072
-98.065567 -88.498344 12.174572 13.0915
-98.35791 -68.827034 12.740059 10.099
-98.151535 -68.958969 13.007225 10.0915
-98.016548 -76.715408 13.855919 10
-98.179848 -76.861671 15.016731 11
-98.138283 -76.746765 15.181072 11
-98.300819 -74.663849 15.467316 15.053
-98.200829 -76.64505 17.111208 11
-98.382935 -76.811386 17.442699 12
-98.285522 -76.658928 17.415762 12
-98.13726 -75.31353 17.464628 11
-98.354454 -76.594124 17.755171 12.038834
-98.364998 -76.776672 18.137285 12
-98.350471 -76.598801 19.120695 12
-98.376686 -76.627045 19.353724 12
-98.275894 -76.603264 19.803843 13
-98.249901 -76.122833 19.905998 13
-98.052124 -75.72834 19.854027 13
-98.134964 -75.543037 19.88172 13
-98.245224 -76.527054 20.23884 12.5
-98.323486 -76.274048 20.159731 13.056
-98.120743 -75.675446 20.003807 13
-98.312668 -76.827698 20.657335 13
-98.365845 -76.418465 20.482229 12
-98.116226 -76.070038 20.607771 12
-98.192322 -75.811783 20.62467 12.5
-98.02182 -75.501595 20.501488 13.1075
-98.328537 -76.823677 20.812654 13
-98.249733 -76.705322 21.005661 13
-98.152695 -75.777496 20.990938 13
-98.097527 -74.71183 20.854925 13
-98.371109 -75.86692 21.371277 13
-98.263741 -76.496826 21.841021 13
-98.292023 -76.32222 21.921093 13
-98.341232 -75.711899 21.645929 13
-98.190331 -76.535889 22.20738 13.625
-98.237213 -76.259094 22.22068 13.641
-98.291458 -75.793213 22.3543 13.8
-98.159653 -76.520439 22.724302 14
-98.165642 -76.113754 22.746082 14.076167
-98.252441 -75.889023 22.508934 14
-98.181175 -76.353424 23.000305 13
-98.220261 -75.647461 23.179792 14
-98.172752 -76.62973 23.326235 14
-98.280937 -76.284019 23.391985 13.75
-98.395065 -75.729965 23.41581 14
-98.281342 -76.178413 23.814543 13
-98.131805 -75.788612 23.890079 13
-98.260307 -75.475677 23.759878 13.5
-98.29789 -76.195671 24.14382 13
-98.254196 -75.77108 24.109072 13.4
-98.305634 -75.449387 24.338369 14
-98.121895 -76.48848 24.684107 14.5
-98.14006 -76.341805 24.66873 15
-98.153252 -75.775848 24.618876 14
-98.195183 -75.420746 24.620653 13.5
-98.200356 -76.14563 24.976641 14
-98.221954 -75.783936 24.885456 14.666667
-98.162941 -76.471298 25.350941 14
-98.08326 -76.274429 25.241741 14.5
-98.18943 -75.908463 25.306078 14.807125
-98.214684 -76.65744 25.920034 15
-98.378044 -76.288055 25.693914 13
-98.378731 -75.67952 25.899281 15
-98.211143 -75.434837 25.83387 15
-98.205231 -76.559349 26.399162 15
-98.11821 -76.22493 26.287451 14.666667
-98.326775 -75.633591 26.261845 14.54425
-98.219246 -75.537613 26.058485 15
-98.188789 -76.167419 26.584217 14
-98.309967 -75.775238 26.631199 15.102
-98.110214 -75.456421 26.554003 15
-98.242149 -76.047577 27.065084 14
-98.261047 -75.714378 26.983635 14.333333
-98.087746 -75.497055 27.055704 15
-98.309181 -75.915886 27.36614 14
-98.1343 -75.400055 27.377176 15
-98.177063 -76.180763 27.673981 14.571428
-98.259933 -75.946442 27.752075 14.333333
-98.089622 -76.192474 28.048349 14.75
-98.117744 -75.917625 28.048222 15
-98.058327 -76.25956 28.58489 15
-98.122185 -75.80307 28.587561 15
-98.317383 -75.320328 28.626799 15
-98.382187 -76.056534 29.570333 14
-98.23938 -75.436714 29.344164 15.0885
-98.055084 -75.88913 29.966461 15
-98.131828 -75.848259 30.288652 15
-98.23085 -75.37011 30.300425 15
-98.203781 -75.852989 30.519716 15
-98.22406 -75.533859 30.514761 15
-98.364037 -76.00367 31.1763 15
-98.397758 -75.881927 30.839832 15
-98.243942 -76.052872 31.434443 15
-98.220535 -75.970901 31.733852 15
-98.252144 -74.589775 32.455742 15.0825
-97.689972 -81.640732 1.7161113 7
-97.64753 -77.7295 1.7627678 7
-97.69548 -70.596878 1.9799434 4
-97.832047 -70.201065 1.9874388 4.1999998
-97.680161 -69.89431 1.9748764 4.5
-97.772362 -69.424004 1.9562532 4.3333335
-97.624397 -69.053246 1.9279689 4.3333335
-97.803062 -68.632774 1.894066 6
-97.866768 -68.156136 1.9102368 6.3333335
-97.841408 -67.877327 1.9462595 5.8333335
-97.807961 -84.267776 2.3988295 1
-97.719223 -83.745895 2.3814754 2.5
-97.748581 -83.388153 2.3740778 2.5
-97.724899 -82.999084 2.3631728 3.3333333
-97.754036 -82.695564 2.3534763 3.6666667
-97.798721 -82.232162 2.33741 4
-97.712891 -81.783218 2.3261585 2.5999999
-97.757957 -81.330017 2.3078146 2.25
-97.760948 -80.976357 2.2924407 1.6666666
-97.823822 -80.619606 2.274657 1.4285715
-97.867767 -80.262428 2.2610993 1.8
-97.883369 -79.890244 2.2344937 1.4285715
-97.817497 -79.434235 2.1962445 2.25
-97.869629 -78.984856 2.1656451 2.5
-97.726524 -78.661736 2.2195649 3.25
-97.762062 -78.17009 2.2778287 3
-97.841705 -77.816505 2.2848232 1.3333334
-97.833481 -77.421432 2.2656841 3.1428571
-97.809074 -76.975639 2.2600489 3.1428571
-97.827705 -76.657806 2.2754517 3.75
-97.740433 -76.313553 2.2672818 3.4000001
-97.799316 -75.983841 2.2766268 3
-97.800323 -75.343803 2.2663538 1.6666666
-97.830009 -75.012344 2.2365932 2
-97.761528 -74.611465 2.246655 2.875
-97.699249 -74.155159 2.273041 3.2272727
-97.822372 -73.793434 2.3039837 3.3369565
-97.878868 -73.381813 2.1859071 3.4000001
-97.813286 -72.940399 2.1310716 4
-97.733147 -72.575134 2.0942166 4.6666665
-97.874115 -72.386543 2.1017196 4
-97.725754 -71.828323 2.0491509 3.25
-97.813316 -71.418541 2.0333602 4.3333335
-97.842155 -70.788322 2.0024762 4
-97.776199 -69.716362 2.018342 5
-97.816391 -67.831642 2.16749 5.4642859
-97.750916 -67.594025 2.3846972 6
-97.866432 -89.741562 2.6653585 2
-97.649323 -88.269264 2.6953998 4
-97.898483 -87.788292 2.7127886 4.6666665
-97.80529 -87.478859 2.7727101 0.40000001
-97.741058 -87.035355 2.7762988 0.80000001
-97.733055 -86.628914 2.7585499 2.6666667
-97.805809 -86.303596 2.7081625 2.25
-97.944008 -85.617088 2.6602333 5
-97.93174 -85.38179 2.6300406 4
-97.794182 -85.024635 2.5877142 2.6666667
-97.765587 -84.575462 2.4385481 2.3333333
-97.84639 -84.151497 2.4480991 3
-97.908798 -83.763458 2.4410028 3
-97.98893 -83.154282 2.4280565 3
-97.685127 -74.179413 2.5901113 4.6333332
-97.818924 -73.744919 2.6427882 4.375
-97.844948 -73.540215 2.7669728 5.6666665
-97.831024 -67.817986 2.6267841 6.2857141
-97.838295 -88.560959 3.0321903 3.2874999
-97.723541 -88.334557 2.9091582 2.5384614
-97.764633 -87.723457 2.8546114 2.125
-97.827812 -87.350357 2.9099107 1.7
-97.811913 -87.07605 2.9045048 1.25
-97.799423 -86.609245 2.9306965 1.1
-97.828606 -85.877556 2.92557 3
-97.677254 -74.163742 2.9925969 5.8666668
-97.791626 -73.763908 3.0043297 5.6036587
-97.833725 -73.557487 2.9752657 5.5714288
-97.850853 -67.795364 3.08792 7
-97.703522 -67.574211 3.0848355 7
-97.778557 -88.571419 3.4194949 3.7444441
-97.66497 -74.160202 3.4351473 6.6923075
-97.753197 -73.763847 3.4871333 6.833334
-97.805679 -73.540077 3.4369161 6.7058825
-97.850769 -67.792267 3.3597422 7.8605123
-97.763214 -67.525772 3.316916 8.0795002
-97.885887 -65.314255 3.2467823 8.0710001
-97.814972 -88.619125 3.819813 5.4758582
-97.689262 -74.211952 3.6301436 7
-97.758926 -73.719513 3.8329816 7.852941
-97.806496 -73.554451 3.8552034 7.875
-97.865936 -67.778305 3.8181081 8.3649244
-97.692505 -67.549652 3.7952244 8
-97.829926 -88.591461 4.2623019 6.655952
-97.755295 -88.307587 4.337471 7.5412502
-97.650215 -74.121971 4.096096 8
-97.728752 -73.758064 4.1640787 8.4767447
-97.793236 -73.520569 4.1494946 8.478261
-97.851967 -67.767647 4.2427125 9.333333
-97.792549 -88.589188 4.6720481 8.0476265
-97.655388 -74.125748 4.5561376 9.2069998
-97.713905 -73.749229 4.6357851 9.7283945
-97.778053 -73.515495 4.6440101 9.625
-97.864326 -67.743202 4.5780125 9.5098085
-97.680389 -67.517799 4.6181564 9.0264997
-97.720627 -65.147873 4.7795486 10.0675
-97.80954 -88.577263 5.0318913 9.1757116
-97.797791 -88.321861 5.0677395 8.0570002
-97.646492 -74.103485 5.016583 10
-97.699158 -73.780563 4.9796376 10.329596
-97.755714 -73.516235 4.9870467 10.678572
-97.846741 -67.750847 4.9557505 10.608696
-97.661758 -67.456467 5.1997046 10
-97.848274 -65.195709 4.8431406 10.0685
-97.850021 -88.594917 5.3349571 9.9339132
-97.887726 -88.351898 5.2394738 9.1044998
-97.639885 -74.086121 5.3787007 11
-97.698738 -73.71698 5.4525266 11.459659
-97.727486 -73.495865 5.433207 11.41129
-97.81958 -67.715485 5.3848143 11.203257
-97.665359 -67.561325 5.3346167 10
-97.640633 -74.069626 5.8001261 12
-97.702736 -73.716934 5.8275504 12.320637
-97.713234 -73.48925 5.8199086 12.703704
-97.814796 -67.705208 5.7911253 11.926116
-97.766541 -67.509598 5.9247141 11
-97.613617 -74.096855 6.1414318 12.666667
-97.676796 -73.727936 6.2539616 12.235294
-97.719543 -73.472931 6.2228665 12.564516
-97.851372 -67.707039 6.1993551 12.36614
