# .PCD v0.7 - Point Cloud Data file format
VERSION 0.7
FIELDS x y z intensity
SIZE 4 4 4 4
TYPE F F F F
COUNT 1 1 1 1
WIDTH 756
HEIGHT 1
VIEWPOINT 0 0 0 1 0 0 0
POINTS 756
DATA ascii
-225.83426 81.698936 13.417823 10.1755
-225.88647 82.093445 13.233523 10.174
-225.80157 81.820412 13.884847 10.012
-225.91698 81.801666 14.001713 10.016
-225.42824 82.355461 13.678539 10.004
-224.82536 72.55674 5.421699 9.0585003
-223.62106 84.583824 10.564963 11.044
-221.67795 88.065575 11.80512 10.024
-221.13966 88.552803 11.477592 9.0244999
-221.11371 86.410057 11.734296 10.0245
-220.40714 81.256874 9.1220703 9.1739998
-220.4937 80.584373 9.3418407 9.1754999
-219.55699 89.699646 12.287794 10.1715
-218.81369 79.352196 9.4572353 9.0010004
-219.04527 79.817993 9.3039083 9.1780005
-219.0495 79.953339 12.541696 10.178
-218.49385 79.469711 5.4003472 8.1739998
-218.65131 80.462387 8.3309317 10.082
-218.75348 79.345276 9.5363531 9.0045004
-218.68903 79.466995 12.672273 10.00275
-218.37991 80.369339 11.229219 9.0270004
-218.15681 79.771317 12.038717 10.174
-217.13432 81.467445 2.5824685 8.0384998
-217.14018 78.806526 11.858052 10.1745
-216.55524 82.180611 4.9227247 9.0369997
-215.9231 82.674034 4.9265494 9.033
-215.77094 89.755737 6.4109263 8.0229998
-215.77377 77.734955 11.801107 10.175
-215.64523 82.958214 11.716738 10.1735
-215.6069 89.506165 11.911495 10
-215.81473 89.500099 12.013339 10
-215.66751 82.887848 13.301448 12.033
-215.60019 89.674416 15.164515 11
-215.8006 89.669266 15.24791 11
-215.63309 89.794403 18.490826 12
-215.36108 89.25386 4.771368 9.0375004
-215.20561 89.009377 11.926718 10
-215.4474 82.987 13.437091 11.027
-215.49377 89.856003 13.879206 12
-215.47092 89.984177 14.0251 12
-215.34065 89.851692 17.051184 13
-215.51138 89.983932 17.215883 13
-215.46005 89.804794 18.430786 12
-215.37703 89.938095 20.266802 14
-215.26817 89.874481 20.472162 14
-215.20607 89.964775 20.983353 14
-215.39925 89.924377 21.756985 13
-215.32164 89.990097 23.571222 15
-215.25142 89.974472 23.846975 15
-214.89427 88.547752 6.7927604 10.0395
-214.96086 88.947327 6.9000335 10
-214.98366 88.799057 8.0583515 9
-214.96889 83.647171 11.502326 10.1735
-214.84012 89.570801 11.392502 10
-215.03767 89.883057 11.445198 10
-215.02963 89.331192 11.829208 10.1725
-214.87506 89.983559 12.134208 12.039
-214.96109 89.380753 13.813523 12
-215.17752 89.156029 15.132801 11
-214.93185 89.471413 15.043287 11.1725
-214.95648 89.868256 14.880039 11
-215.00566 89.545769 17.031294 13
-215.02786 89.780098 17.407322 13.034167
-214.99054 89.863869 17.604425 13
-215.02652 89.284477 18.35243 12
-214.86395 89.544205 20.33386 14
-215.05965 89.678749 20.239086 14
-215.05933 89.826508 20.622412 14
-214.9187 89.411148 21.622553 13
-214.94998 89.689667 23.497826 15
-215.00586 89.777596 23.761049 15
-214.87091 89.857887 24.151106 15
-215.1013 89.915169 24.459976 15
-214.50893 87.702103 4.3707585 9.0869999
-214.63655 84.074402 4.9208384 9.0284996
-214.70764 88.74437 6.9364419 10.04775
-214.71207 83.983597 7.5775375 10.0325
-214.57878 88.160698 7.8627357 9
-214.54753 88.42009 7.7748952 9
-214.45279 88.210762 8.022953 9
-214.4944 89.332214 11.327105 10
-214.75725 89.847328 12.215823 12.04
-214.42712 89.76635 13.36281 10
-214.52406 89.51693 14.722811 11
-214.69698 89.620811 14.74808 11.1735
-214.49522 89.493958 14.959297 11.173
-214.68164 89.883514 14.911329 13.04
-214.45918 89.901505 16.314264 11
-214.50708 89.987328 16.794735 14.0485
-214.48204 89.112129 16.995146 13
-214.72194 89.316277 16.998678 13
-214.56708 89.423073 17.444265 13
-214.67259 89.770538 17.523296 13.702167
-214.67119 89.936562 17.656843 14.04
-214.67117 89.721725 18.252047 12.069
-214.45335 89.151382 20.190908 14
-214.58971 89.308098 20.22718 14
-214.48849 89.776138 20.324144 15.05325
-214.60638 89.338242 20.484646 14
-214.68076 89.815689 20.568605 14.52
-214.71867 89.734978 21.580135 13.1725
-214.4631 89.79557 22.274088 13.172
-214.57619 89.363388 23.477385 15
-214.46985 89.826904 23.382357 13.1735
-214.61919 89.459709 23.74733 15
-214.43227 89.359985 24.392841 15
-214.60732 89.641144 24.125412 15
-214.6132 89.797195 24.606464 15
-214.53687 89.992188 26.055878 14.172
-214.11938 84.586761 1.9471763 8.1745005
-214.00041 84.700195 2.083231 8.1745005
-214.3091 87.934326 7.7377319 9.1724997
-214.32292 88.975471 9.4717703 11
-214.20618 89.050812 11.312195 10
-214.3676 89.352852 11.366145 10
-214.34857 89.871216 12.838335 10
-214.18002 89.54895 13.550028 11
-214.38394 89.677948 13.282989 10
-214.33121 89.415405 14.713971 11
-214.2238 89.323326 14.990834 11.17275
-214.33449 89.616615 14.964615 11.023
-214.38919 89.920349 15.88184 11
-214.15788 89.674225 16.464451 12
-214.06143 88.756813 16.91818 13
-214.21886 88.917259 16.97422 13
-214.17139 89.096207 17.417606 13
-214.38724 89.227219 17.298386 13
-214.31924 89.791534 17.921724 12.023
-214.07254 89.364082 18.151756 12
-214.30333 89.689995 18.060133 12
-214.22006 89.482498 18.449793 12.1715
-214.38829 89.619736 18.56061 12.172
-214.22063 89.879562 19.356888 12.5
-214.20088 88.971886 20.197184 14
-214.20712 89.018845 20.451336 14
-214.36377 89.336472 20.670929 14
-214.37039 89.971146 20.945072 13.023
-214.2731 89.845093 21.475302 13
-214.16263 89.549026 21.673719 13
-214.3689 89.815193 21.603241 13
-214.17737 89.6297 22.019485 13.1715
-214.26773 89.96843 22.475838 14
-214.19043 89.079193 23.477409 15
-214.1974 89.659943 23.2041 13.1735
-214.16837 89.073776 23.742973 15
-214.16017 89.146263 24.364172 15
-214.23335 89.323364 24.091188 15
-214.34497 89.106476 24.795759 14
-214.07909 89.407051 24.529577 15
-214.36156 89.62207 24.561384 15
-214.15349 89.726944 25.235989 14
-214.28856 89.83844 25.691193 14.1715
-213.97218 84.77845 2.2669425 8.1745005
-213.89461 84.984024 2.3972604 8.1745005
-213.78587 85.308128 2.3838351 8.0369997
-213.83391 85.138405 4.7575426 9.0319996
-213.90907 88.160019 4.6461735 7
-213.63704 85.26149 4.8226123 8.026
-213.75568 85.198097 7.4729257 10.032
-213.78102 88.264458 10.359426 9
-213.64493 87.843681 11.301431 10
-213.72224 88.656693 11.285086 10
-213.84412 88.853607 11.284947 10
-213.85393 89.435425 12.756996 10
-213.61963 79.986008 13.105326 11.028
-213.88651 89.242111 13.19805 10
-213.76631 89.157837 13.475086 11
-213.65134 88.729263 14.631121 11
-213.87003 89.007881 14.651238 11
-213.92838 88.610558 14.902575 11.175
-213.78333 88.951736 14.949678 11.129875
-213.97839 89.433105 14.988886 11.173
-213.85689 89.48278 15.771634 11
-213.81541 89.687317 15.706281 11
-213.74962 89.308144 16.247747 11.6745
-213.73807 89.313744 16.577312 14.0485
-213.82079 89.64415 16.580643 13.0805
-213.60056 88.372017 16.940035 13
-213.85373 88.598999 16.95245 13
-213.72704 88.703621 17.320704 13.034333
-213.69815 89.178642 17.93008 12
-213.74185 88.72599 18.064022 12.175
-213.76184 89.048904 18.196917 12.003301
-213.7178 89.692825 18.73875 12
-213.74471 89.165482 18.970287 12.1735
-213.87344 89.571426 19.059624 12.0865
-213.91849 89.642029 19.000107 14.0265
-213.68619 89.384041 19.301714 13
-213.81998 88.669228 20.164522 14
-213.9942 88.826958 20.067871 14
-213.60529 88.692589 20.613733 14
-213.97296 88.902222 20.538956 14
-213.73494 89.168808 20.853703 15.037
-213.68274 88.864525 21.294064 13.175
-213.75458 89.341805 21.366652 13
-213.69183 89.137314 21.889803 13
-213.80377 89.292625 21.714777 13
-213.78506 89.73584 21.8832 14.01325
-213.79501 89.54361 22.328781 14
-213.84523 89.688828 22.238913 13
-213.81964 89.396896 23.037529 13.173
-213.89835 89.763275 22.967957 13.173
-213.76463 88.710579 23.417807 15
-213.9758 88.923798 23.325607 15
-213.7128 88.71553 23.697479 15
-213.94556 88.903229 23.804127 15
-213.60326 88.769882 24.037849 15
-213.86777 88.964569 24.196047 15
-213.8223 89.17717 24.506359 15
-213.85262 89.574539 24.788437 14
-213.73122 89.378471 25.008736 14
-213.88905 89.948746 25.014261 14
-213.89685 89.459412 25.405788 14
-213.81146 89.738396 25.359003 14.333333
-213.27534 87.512871 3.3732519 7
-213.52995 87.746063 4.1949377 9.0555
-213.39201 85.88636 4.6629863 9.0354996
-213.36017 87.491173 7.8759289 9.0690002
-213.37592 88.195168 9.3476582 11
-213.29117 87.838188 10.297548 9
-213.36057 88.310997 11.188197 10
-213.23521 87.450012 11.285245 10
-213.50159 87.832893 11.261947 10
-213.3152 88.287094 11.281358 10
-213.26349 88.589798 11.865614 12.0395
-213.34009 88.983574 12.672593 10
-213.39084 88.811058 13.113511 10
-213.26646 88.749832 13.385118 11
-213.46278 88.92347 13.199928 10
-213.34064 88.566719 14.558414 11.102599
-213.46991 88.882454 14.431936 13.0425
-213.34871 88.553696 14.963074 11.08675
-213.38684 89.036644 15.673802 11
-213.30396 89.223518 15.600104 11
-213.40681 89.084442 16.119349 11.690499
-213.25082 88.884094 16.55245 14.04825
-213.36168 88.199348 16.929779 13
-213.35222 88.734215 17.280323 14.05375
-213.26277 88.765015 17.783819 12.1368
-213.31241 88.662163 18.252003 12
-213.49455 88.861061 18.029539 12
-213.24603 89.155663 18.64201 12
-213.54469 89.608192 18.669651 14.0305
-213.3564 89.065811 19.058575 12.390834
-213.53415 89.30233 19.111671 12.51175
-213.32544 89.015602 19.246401 15.04775
-213.56393 89.245949 19.337784 15.04775
-213.34903 88.265053 20.120422 14
-213.4142 88.581001 20.154951 14.527
-213.25705 88.807686 20.209393 15.046
-213.4581 88.487617 20.497601 14
-213.46899 88.706078 20.92271 14.1045
-213.23822 88.953674 21.070999 13.171
-213.24905 88.799683 21.316046 13
-213.44934 88.939003 21.509674 13.003301
-213.37309 89.663307 21.534168 15.0305
-213.27669 88.76841 21.973677 13
-213.36836 88.872963 21.96443 13
-213.24454 89.315224 21.689798 13
-213.57816 89.912392 21.759832 13
-213.28717 89.128975 22.172401 14
-213.47537 89.368088 22.104765 13.341166
-213.49263 89.026215 23.064274 14.1045
-213.21765 88.253624 23.331388 15
-213.4682 88.456322 23.470097 15
-213.44032 88.47718 23.759483 15
-213.32237 88.568573 24.007168 15
-213.33559 89.095322 24.530453 14.226944
-213.3546 89.007935 25.05518 14
-213.32884 89.409782 25.008982 14.341166
-213.38351 89.354668 25.224648 14.5
-213.45633 89.035942 25.662701 14
-213.3799 89.31649 27.688562 15.0165
-212.93642 86.042213 3.3247061 7.5869999
-212.90588 86.092308 4.1023612 9.0410004
-213.07683 87.355484 4.8447223 8.0240002
-213.1237 87.37928 6.7349429 10.041
-212.82307 86.858086 7.5133047 10.105
-212.9803 87.243454 7.4531374 9
-212.90388 87.070168 7.894845 9
-213.06093 87.361916 7.6246824 9.0120001
-213.09163 87.537422 9.0414162 9.0235004
-212.83472 87.438705 10.239965 9
-212.9332 87.292084 11.173236 10
-213.05765 88.058205 11.167305 10
-213.08768 87.430084 11.212016 10
-212.82831 87.897003 11.307156 10
-213.17958 88.240517 11.253207 10
-213.18843 83.506081 11.951824 10.025
-213.01764 88.599022 11.915935 12.02025
-212.82776 88.529366 12.588523 10
-212.88968 88.397606 13.028156 10
-213.0141 88.516655 13.124331 10
-212.80856 87.971886 14.658359 11
-213.08826 88.204666 14.591994 11.042875
-213.05305 88.599785 14.539433 12.346833
-213.10219 89.589302 15.178199 11
-212.85034 88.591843 15.562938 11
-212.9581 88.552299 15.96981 11
-213.05875 88.694 16.041912 11
-213.19868 88.861397 16.250925 12
-213.00867 88.657127 16.469063 14.0495
-212.95848 87.853172 16.913332 13
-212.80307 88.804214 17.186695 14
-213.1402 88.630379 17.238888 14.04
-212.94165 87.897789 17.966492 12.0015
-212.98633 88.381493 17.921808 12
-213.13632 88.681931 17.808981 12.113999
-213.00374 88.450264 18.190376 12
-212.94235 89.700066 18.174286 12
-213.19087 89.342751 18.584597 12
-212.85454 88.678436 18.918556 12
-213.0372 88.856926 18.990883 12
-213.1994 88.935333 19.257561 15.0475
-213.01566 88.007515 19.991219 14
-213.08908 88.684288 19.962662 15.04
-212.93517 87.916428 20.160883 14
-213.09746 88.081665 20.251255 14
-212.95985 88.135048 20.568302 14
-212.80617 88.015144 21.092947 13.0015
-213.12909 88.847786 21.150471 13.171
-212.97403 88.535065 21.371386 13
-213.13116 88.824661 21.235153 13
-212.88727 89.859718 21.237127 13
-213.0963 88.660751 21.83795 13.114667
-212.81761 88.809425 21.930145 13
-213.07315 89.462486 21.610443 13
-213.07367 89.02256 22.007166 13
-213.13342 88.839096 23.12327 13.1735
-212.82988 87.93206 23.331402 15
-213.05547 88.157288 23.41634 15
-212.82082 87.960075 23.7055 15
-213.12959 88.316444 23.860474 15
-213.0356 88.524155 24.393639 14.175
-212.81999 89.043137 24.651857 14
-213.03891 89.593292 24.712925 14
-213.00032 88.718643 24.891178 14
-212.92238 88.995979 25.046097 14
-212.82661 88.468636 25.547781 14
-213.13957 88.846909 25.490442 14.114667
-212.57346 86.248299 2.876981 8.1739998
-212.47203 86.657555 3.2790189 8.1735001
-212.74318 86.345192 3.8488498 8
-212.55083 86.661713 3.8303287 8
-212.6566 86.485794 4.672401 8.5995007
-212.75316 85.722588 5.6568375 8.1785002
-212.79491 86.396187 7.4738483 9
-212.58636 86.547569 7.4662704 9.2105999
-212.53978 86.833916 7.5168109 9
-212.75909 86.3442 7.8384805 9
-212.56775 86.609039 7.7312131 9
-212.69855 86.920715 7.7223754 9.0246429
-212.50433 86.643791 8.9039106 9
-212.42273 86.672981 10.193081 9.5127506
-212.40588 86.838783 10.143397 9.0249996
-212.49423 86.761459 10.437842 10
-212.59943 86.962654 11.131164 10
-212.65395 87.733047 11.156382 10.02875
-212.55429 87.650681 11.225175 10
-212.4054 87.977966 12.94573 10
-212.50989 88.099983 13.039287 10
-212.57549 87.882034 14.615244 11.02875
-212.44693 88.096466 14.705773 11.1735
-212.47606 87.838799 14.816872 11.1725
-212.66377 88.086571 15.009467 11.1725
-212.60596 89.138107 15.080378 11
-212.42996 89.471725 15.004311 11
-212.79022 88.763786 15.493678 11
-212.53566 88.215431 15.905712 11
-212.46408 88.445061 16.384974 13.078
-212.63739 88.611519 16.509127 13.081
-212.51888 87.481209 16.890469 13
-212.74748 87.682526 16.863091 13
-212.64789 88.127861 17.949495 12
-212.43883 87.957291 18.0718 12
-212.70374 88.114182 18.211233 12
-212.43912 89.260582 18.053185 12
-212.40121 87.994827 18.479189 12.1725
-212.50232 88.15947 18.587183 12.1725
-212.74461 88.718819 18.516396 12
-212.64444 88.872269 18.44787 12
-212.52716 88.434319 18.861521 12
-212.4093 88.489113 19.638676 14.081
-212.75803 88.854652 19.896063 15
-212.47574 87.556358 20.14176 14
-212.70059 87.735725 20.15325 14
-212.57138 87.815109 20.539421 14
-212.64639 88.248344 21.490126 13
-212.6611 88.933159 21.502756 13
-212.79057 88.287422 21.852396 13
-212.57309 88.600128 21.858259 13
-212.43108 88.250023 22.182575 13.1725
-212.70366 88.450905 22.600224 13.1725
-212.51112 87.696922 23.191813 15
-212.73938 88.316742 22.999853 14.105
-212.59485 87.762184 23.382357 15
-212.50105 87.781441 23.808031 15
-212.73491 88.169312 24.287498 14.0015
-212.74191 88.293938 24.408913 15.1055
-212.54185 89.133293 24.54283 14
-212.61118 88.328239 25.184706 14
-212.6776 88.536133 24.959774 14
-212.70146 88.804863 24.946722 14
-212.59535 88.30619 27.522053 15.0015
-212.03215 85.98941 4.1719656 9.1020002
-212.39565 86.914665 7.6503406 9
-212.33116 86.873978 8.877739 9
-212.34824 87.050392 10.178142 9
-212.34056 87.009262 10.415483 10
-212.32834 86.606682 11.10964 10
-212.38208 86.858925 11.119146 10
-212.11722 87.29792 11.077591 10
-212.26118 87.687393 11.015078 10.1725
-212.15038 87.472023 11.36199 10.8517
-212.2793 88.215103 11.785885 12
-212.31746 88.109795 12.504961 10
-212.06897 87.703011 12.965158 10
-212.15015 87.551804 14.326654 11
-212.18336 87.65374 14.30448 11
-212.21713 88.251289 14.390933 13
-212.11862 87.471802 14.627927 11.047091
-212.35571 88.261421 15.432114 11
-212.125 87.864174 15.844961 11
-212.01758 87.829666 16.320635 14.0495
-212.06136 87.112465 16.86524 13
-212.26851 87.297363 16.921192 13
-212.20673 87.711693 17.045961 14.0545
-212.19061 88.301483 17.038324 14
-212.11598 87.767197 17.519331 12.278313
-212.12984 87.661636 17.777702 12
-212.25072 89.590843 17.989618 12
-212.15169 87.707756 18.212597 12.0575
-212.25999 88.290848 18.395037 12
-212.16714 88.440788 18.328135 12
-212.05881 87.871559 18.570807 12.08625
-212.3062 88.22332 18.660995 12.343
-212.08038 87.947098 18.865961 15.047
-212.29773 88.14695 19.044775 15.04825
-212.15955 87.78141 19.892221 15.05425
-212.138 88.351295 19.722099 15
-212.21687 87.342606 20.112276 14
-212.06386 87.946793 20.30802 13.0235
-212.09508 87.970123 20.772802 13
-212.09834 87.832748 20.929157 13.057167
-212.36749 89.398201 21.088713 13
-212.09975 89.705147 21.01856 13
-212.08765 87.801689 21.282845 13
-212.132 88.207184 21.465679 14.025
-212.15756 88.4953 21.35458 13
-212.25507 87.88472 21.683016 13
-212.13368 88.182678 21.72677 13
-212.3812 88.411583 21.798576 13
-212.12733 87.902908 22.093218 13.1725
-212.33192 88.403168 22.625172 13.1735
-212.17839 87.413567 23.35018 15
-212.18025 88.148949 23.311693 14.0235
-212.1813 87.442009 23.64887 15
-212.29832 87.707253 23.919378 15
-212.21968 87.967087 24.113081 14.1715
-212.10498 88.141525 24.214411 14.128125
-212.07936 88.702568 24.384691 14
-212.33598 89.565712 24.190441 14
-212.20865 88.20256 24.636404 14
-212.31732 88.606003 24.481375 14
-212.18794 88.008461 24.820847 14
-212.37537 88.084663 25.30759 14
-212.22797 88.102478 25.860804 14.1725
-212.23158 88.339348 26.367664 15.0235
-211.79303 86.989799 10.317409 10.174
-211.78336 87.037819 11.052854 10
-211.92847 87.402626 10.966118 10.173
-211.62451 87.186493 11.690354 12.041
-211.8544 87.372246 11.662142 10.695666
-211.84094 87.779984 12.3922 10
-211.83429 87.610367 12.46062 10
-211.93066 87.564865 12.865013 10
-211.89986 87.609001 13.139634 11
-211.74078 86.985695 14.29047 11
-211.76921 87.231163 14.25514 11.057167
-211.99057 87.63089 14.137833 13.043
-211.68279 87.088234 14.645211 11
-211.96648 87.352547 14.735184 11
-211.62454 87.102089 14.836473 11
-211.83434 87.841026 15.324842 11
-211.66766 87.479225 15.748744 11
-211.90219 87.712891 15.854105 11.5
-211.63635 87.483238 16.285336 14.0505
-211.78772 87.643608 16.238535 14.05
-211.79092 86.910683 16.926348 13
-211.66325 87.369118 16.841295 14.04
-211.63268 87.342888 17.397749 12
-211.96889 87.737549 17.44817 12.015667
-211.92336 87.153099 17.63455 12.173
-211.85353 87.429672 17.772413 12.114334
-211.73743 87.352577 18.206713 12
-211.7774 87.882294 18.274668 12
-211.65773 88.004684 18.201054 12
-211.869 87.799408 18.571301 12.733334
-211.86957 87.80442 18.927307 14.536875
-211.60063 87.425034 19.507332 15.04
-211.79138 86.97052 19.981709 14
-211.82693 87.057587 20.154104 14
-211.69119 87.034325 20.755228 13.0095
-211.79324 87.415993 20.932724 13.172251
-211.9523 87.893715 20.848227 13
-211.94159 88.82354 20.923498 15.0345
-211.64967 87.385719 21.531101 13
-211.73862 87.75808 21.424786 13.675667
-211.79599 88.041191 21.26314 13
-211.61525 87.422112 21.960838 13
-211.90283 87.981239 21.700825 13.5
-211.9505 87.692589 22.069475 13
-211.90843 87.906303 22.515352 13.173
-211.74937 87.054649 23.314032 15
-211.96619 87.238914 23.321829 15
-211.65836 87.197723 23.867279 14.0095
-211.90732 87.392281 23.884802 15
-211.62611 87.662231 23.921156 14
-211.85316 87.445435 24.051716 14.173
-211.8719 88.203438 24.329947 14
-211.99168 89.850388 24.108267 14
-211.68005 87.535393 24.670364 14
-211.84062 87.836136 24.581516 14.114334
-211.96098 88.099724 24.742735 15
-211.76909 87.583115 25.129147 14
-211.96205 87.814552 24.993685 14
-211.65878 87.528084 25.395607 14.1725
-211.70674 87.617424 25.700401 14
-211.7029 89.250847 27.133949 15
-211.8719 89.994858 27.253841 15
-211.44521 86.729591 10.225575 10.174
-211.38724 86.689163 11.028917 10
-211.54587 86.880775 11.107576 10.043125
-211.34059 87.177429 12.379808 10
-211.34361 87.354599 12.310998 10
-211.55719 87.292778 12.878945 10
-211.32762 86.750023 14.267866 11.058
-211.51408 87.014069 14.269766 11.049714
-211.39207 86.858719 14.550153 11.0435
-211.30109 87.485184 15.186613 11
-211.39981 87.34066 15.263415 11
-211.42227 87.353455 15.707097 12.024
-211.34995 87.361458 16.183517 13.563499
-211.38235 86.645477 16.935904 13.034
-211.57036 87.285484 16.904421 14.041
-211.38187 87.028534 17.553823 12
-211.47693 87.291016 17.422014 12
-211.47913 87.110893 17.812445 12.043125
-211.2953 87.009941 18.219166 12
-211.42636 87.337715 18.200983 12
-211.47906 87.824898 18.120899 14.031
-211.33765 87.084175 18.525909 12
-211.4731 87.396988 18.58865 13.357166
-211.57243 87.603775 18.619366 12
-211.3004 87.047813 19.419502 13.1045
-211.48518 87.321945 19.556417 15.041
-211.27109 86.495277 19.951538 14
-211.38394 86.674919 20.119631 14
-211.59949 86.838005 20.045828 14
-211.39572 86.902382 20.693409 13.0135
-211.50191 87.462822 20.655777 13
-211.25081 87.084389 20.935097 13
-211.52997 87.358971 20.997425 13
-211.31717 87.743622 21.010679 14.0155
-211.57523 88.129456 21.168602 13
-211.3813 87.153778 21.306122 13
-211.32568 87.394005 21.455484 13.398833
-211.35173 87.173904 21.942486 13
-211.53368 87.293755 21.903351 13
-211.4668 87.344093 22.31711 13
-211.31676 87.113152 22.631569 13.174
-211.22754 86.609489 23.192387 15
-211.28828 87.075249 22.864634 14.1055
-211.30011 87.450188 22.936476 14
-211.43562 86.887939 23.29303 14.8209
-211.37454 86.990257 23.815821 14.671166
-211.59016 87.683044 23.979452 14
-211.42003 87.197426 24.286221 15.106
-211.42877 87.416382 24.321642 14
-211.45024 87.666687 24.103592 14
-211.57802 88.280006 24.215342 14
-211.30421 87.580635 24.468878 14
-211.46558 87.739136 24.544262 14
-211.4641 87.344162 24.845287 14
-211.42847 87.366104 25.702814 14
-211.37785 87.625908 25.958456 15
-211.215 87.115288 27.138355 15.173
-211.51213 87.316399 27.004793 15.0095
-211.10101 86.436806 10.060837 10.174
-210.87268 86.658287 10.728991 10.1735
-210.84454 86.231636 10.986183 10.069
-211.03708 86.448601 11.075232 10.028833
-211.0582 86.751518 11.475046 10
-210.86441 86.767738 12.301953 10
-210.94754 86.96003 12.246257 10
-211.08295 86.883011 12.895976 10.5
-210.88187 86.376396 14.273516 11.087
-211.01973 86.658737 14.112931 11.028584
-211.14548 86.931946 14.272021 11
-210.83386 86.373512 14.556634 11
-211.05202 86.621964 14.591505 11.057888
-210.94824 86.847351 14.541932 11.1735
-210.85524 86.993462 15.123135 11
-211.08356 87.015617 15.70352 11.5
-211.00018 86.931732 16.145744 14.04975
-211.01524 86.271889 16.824842 13
-211.16235 87.08474 17.09848 12
-210.97206 86.354561 17.434252 12.1755
-210.94827 86.731384 17.329544 12.371166
-210.91669 86.854324 17.25304 12
-210.98761 86.639793 17.868008 12
-210.97951 86.74305 18.155197 12
-210.83948 86.980629 18.367668 12.1735
-211.13895 87.585152 18.072317 12
-210.95438 86.748718 18.421017 12
-210.97778 86.93882 18.532879 12.9138
-211.16318 87.232521 18.515612 12
-211.12433 87.109413 18.849043 15.0495
-210.87814 86.670799 19.264637 13.105
-211.0181 86.79213 19.643421 15.055
-211.03654 86.849983 19.737526 15.0545
-211.18399 87.255058 19.97447 13
-210.98468 86.377182 20.069624 14
-211.07495 86.416901 20.11661 14
-211.16002 87.048325 20.122772 13.103
-210.95018 86.647911 20.549738 13.064167
-210.91916 86.950706 20.588249 13.028584
-210.84909 86.681313 21.171934 13
-210.85373 87.194458 20.986084 13
-211.06929 87.69709 21.020332 13
-210.93373 86.682854 21.343273 13
-211.10246 86.923203 21.393785 13
-211.07399 87.206688 21.490467 14
-210.87943 86.71524 21.796354 13
-211.02162 86.904297 21.772282 13
-210.929 87.037628 22.248648 13.1155
-210.886 86.736443 22.504446 13.174
-211.13045 87.053513 22.538904 13.174
-210.94974 86.520966 23.15201 14.701667
-210.87984 87.071747 22.802883 14
-210.8438 86.305519 23.268854 15
-211.0818 86.51371 23.286156 15
-211.04138 86.651436 23.817982 15
-210.96095 87.014168 23.804382 14.00425
-211.0598 87.213142 23.81797 14
-211.00851 87.081894 24.093605 14.085751
-210.97586 87.376556 24.196321 14.341334
-211.06361 87.843353 24.041677 14
-210.89656 86.86097 24.677864 14
-211.0571 87.329147 24.425362 15
-211.06516 86.981514 24.935993 14
-211.06052 87.03009 25.500563 14
-210.96045 87.260132 25.807272 15
-211.13962 87.114601 26.968622 15.00675
-210.98109 87.316589 27.055193 15
-210.69014 86.209969 10.544723 10.174
-210.47168 85.961967 11.011481 10
-210.64317 86.067123 10.968746 10
-210.64107 86.395592 11.41383 10
-210.56882 86.347336 12.218664 10
-210.53818 86.565521 12.179462 10
-210.71713 86.541901 12.73809 10
-210.677 86.490959 12.920457 11
-210.52971 86.126656 14.153025 11.123713
-210.70377 86.554665 14.188818 11
-210.65407 86.264015 14.482512 11.049714
-210.45346 86.522652 15.06858 11
-210.57275 86.661949 15.524825 11.0125
-210.53117 86.57885 15.660318 12
-210.58643 86.565437 16.138035 14.0525
-210.5854 86.5233 17.105555 12.114334
-210.53882 85.751122 17.41293 12.1785
-210.44234 86.23806 17.494013 12.172
-210.53943 86.299248 17.795816 12
-210.79164 86.518814 17.72714 12
-210.68207 87.171776 17.958158 12
-210.50609 86.32711 18.288664 12.058
-210.74316 86.523781 18.110203 12
-210.73627 86.937859 18.211594 12
-210.64056 86.588898 18.466906 12.8793
-210.79721 86.853096 18.760344 15.05
-210.48827 86.544243 18.967165 15.0465
-210.75092 86.875984 19.85598 13
-210.71924 86.130569 20.128679 14
-210.49045 86.573936 20.353115 13.1715
-210.41302 85.86277 20.459747 13.1785
-210.53679 86.488731 20.518301 13.02
-210.44044 86.410446 20.873976 13.172
-210.60988 87.281601 20.885187 13
-210.58357 86.454735 21.263243 13
-210.70303 86.923149 21.339394 13.5
-210.5162 86.452705 21.692173 13
-210.64388 86.666534 22.196724 13
-210.51491 86.588638 22.694328 13.819875
-210.46828 86.017242 23.2351 15
-210.53586 86.713058 23.569832 14.120999
-210.51997 86.220146 23.776918 15
-210.51852 86.651184 23.748344 14.252418
-210.42772 86.946815 23.842136 14
-210.56932 87.41655 23.874748 14
-210.49931 86.940727 24.240274 14.341667
-210.63597 86.631752 24.796036 14
-210.59227 86.620644 25.316685 14
-210.48518 86.870598 25.636076 15
-210.72322 87.036217 26.701191 15.017
-210.45628 86.889771 26.869654 15.1715
-210.52847 87.5541 26.928129 15
-210.14732 73.806091 8.7724972 11.0535
-210.22438 85.783073 10.76461 10.116
-210.05431 85.529373 10.961864 10
-210.37508 85.749313 10.912644 10
-210.22079 85.94532 11.460135 12.0415
-210.24844 86.031555 11.377748 10.680833
-210.2355 86.164536 12.657138 10
-210.22466 86.120323 12.839813 11
-210.17664 86.360367 13.213878 12.079
-210.05447 84.950371 14.153455 11
-210.28076 85.841522 14.301495 11.043499
-210.32657 86.177841 14.085937 11.057167
-210.10976 85.873337 14.549634 11.116
-210.35025 86.655182 14.990976 11
-210.22054 86.270088 15.517889 11.5
-210.36664 86.409737 15.81522 14.048
-210.1635 86.082069 16.542805 14.042
-210.30145 86.329262 17.042015 12
-210.33829 86.284752 17.248566 12.1715
-210.00203 85.832558 17.684139 12
-210.2372 86.057068 17.746162 12.08625
-210.27603 86.699539 17.878845 12
-210.14499 87.074684 17.623968 14.035
-210.09885 86.291 18.249722 13.691167
-210.28601 86.604164 18.314907 12.0125
-210.05963 86.120834 18.474993 12.174
-210.05396 86.078735 19.162668 15.0415
-210.33603 86.518486 19.742702 13
-210.20555 85.765053 20.263535 13.500999
-210.32285 86.453697 20.457624 13.057167
-210.11491 86.860725 20.740576 13
-210.00569 85.976799 21.118862 13
-210.19603 86.25769 21.049427 13.342626
-210.33028 86.699554 21.012802 13
-210.23445 86.467995 21.233025 14
-210.30392 86.87249 21.255894 13.025
-210.2653 86.212837 21.665369 13
-210.08394 86.311012 22.484665 13.587
-210.09769 85.777519 23.319178 14.698833
-210.31389 86.173546 23.534639 14.1755
-210.13763 85.87796 23.752178 15
-210.12485 87.007332 23.723856 14
-210.22079 86.588501 24.131729 15
-210.13197 86.169395 24.647223 14
-210.3714 86.407982 24.678116 14.115001
-210.17949 86.275909 25.304132 14
-210.19205 86.485962 25.467041 14.666667
-210.29149 86.332771 26.746353 15.1755
-210.04637 87.133095 26.743284 15
