# .PCD v0.7 - Point Cloud Data file format
VERSION 0.7
FIELDS x y z intensity
SIZE 4 4 4 4
TYPE F F F F
COUNT 1 1 1 1
WIDTH 1267
HEIGHT 1
VIEWPOINT 0 0 0 1 0 0 0
POINTS 1267
DATA ascii
-179.47473 142.26256 0.66859382 9.0874996
-179.27148 142.166 1.0552568 9.0881252
-179.28204 142.10016 1.5645289 9.0880003
-179.43443 136.87245 1.801676 10.053
-179.5742 142.30051 2.3071229 10.0875
-179.44124 142.29353 2.4253109 10.0875
-178.86635 137.96315 -0.77156091 8.0719995
-179.03505 137.76155 -0.36547968 8.0900002
-179.01822 137.18074 0.54761082 9.0767498
-179.02132 137.46945 0.61460745 9.0877495
-178.86928 137.74152 0.70320016 9.0897503
-178.99176 141.49339 0.53504115 9.0797501
-178.89946 141.79153 0.72803736 9.0880003
-178.80643 137.86705 0.91039544 9.0904999
-178.88554 141.91173 1.0763168 9.0888748
-179.0152 142.14148 1.0998931 9.0880003
-179.19312 142.01242 1.3768526 9.0880003
-179.11687 137.0618 1.7601327 10.0495
-179.12837 141.5359 1.9263579 10.077
-179.01141 141.84343 1.8644612 9.088666
-178.89001 141.52956 2.105087 10.085
-178.96466 141.82394 2.1848476 9.7545004
-178.40793 138.68733 -0.54837394 8.0900002
-178.78224 137.93988 -0.14768857 8.0279999
-178.41232 138.45343 -0.38102829 8.0900002
-178.77818 146.43236 0.3237679 9.0459995
-178.50807 146.81888 0.38427708 9.0559998
-178.76982 137.31572 0.53906083 9.0673752
-178.72612 137.83871 0.66084468 9.0887499
-178.6218 138.02106 0.79208165 9.0900002
-178.75304 141.11121 0.48031357 9.0740004
-178.5097 141.42194 0.62201792 9.0878334
-178.76714 141.65875 0.67468178 9.0880003
-178.43729 146.80423 0.40801686 9.0699997
-178.47646 138.54547 1.0791198 9.0895004
-178.57053 141.5354 0.85004222 9.0885
-178.59515 141.7124 1.0424187 9.0887499
-178.72316 137.46138 1.7279303 10.0525
-178.60582 137.64766 1.7083372 10.049
-178.55737 141.40767 1.7909545 9.0885
-178.57144 141.47771 2.1968296 10.087749
-178.74805 141.69524 2.3573749 10.088
-178.43056 141.43306 2.406666 10.088
-178.48959 120.80437 5.590867 11.0995
-178.29965 138.58392 -0.81731164 8.0900002
-178.17831 138.94708 -0.5162043 8.0900002
-178.30371 137.97002 0.49976858 9.0668755
-178.39517 138.34016 0.69119561 9.0900002
-178.22995 140.64456 0.44767022 9.0664282
-178.0192 147.49242 0.4651041 9.0810003
-178.18938 147.7541 0.50767058 9.0825005
-178.20105 138.70213 1.0553955 9.09025
-178.10854 141.19489 0.89136696 9.0889997
-178.13864 141.31647 1.1256881 9.0887499
-178.09161 141.05017 1.4142683 9.0885
-178.21506 141.22672 1.4759229 9.0885
-178.27751 138.03227 1.8534456 10.066
-178.26321 140.62654 1.7614295 10.0605
-178.08859 141.05183 2.0472486 9.0889997
-178.3439 141.3826 2.3355134 10.088
-178.16843 121.1312 3.5716698 11.065
-177.89436 138.95959 -0.64100093 8.0695
-177.87196 139.34178 -0.41316691 8.0895004
-177.83366 138.69713 0.35073072 9.0497503
-177.73875 138.93593 0.35617661 9.0415001
-177.91742 146.95786 0.36474851 9.0790005
-177.91403 138.58008 0.4551684 9.0620003
-177.80713 140.34639 0.43662646 9.0745001
-177.7796 140.92873 1.0333078 9.0889168
-177.80006 140.82939 1.5026492 9.0885
-177.96159 140.94257 1.9930072 9.0889997
-177.7244 146.29607 1.8054314 10.0765
-177.25235 139.97594 -0.42795619 8.0895004
-177.34898 139.34583 0.34264618 9.0493746
-177.29332 139.95447 0.33281326 9.0584993
-177.38858 140.16321 0.35384688 9.0404997
-177.3299 146.61472 0.24442534 9.0454998
-177.48543 147.02475 0.31646881 9.073
-177.22369 147.89212 0.31564301 9.0515003
-177.41177 139.17625 0.40187377 9.0614996
-177.38844 139.42903 0.41660485 9.0812492
-177.29982 139.86868 0.46164137 9.0749159
-177.57245 140.31143 0.42581674 9.0834999
-177.40953 140.77562 1.0285285 9.0889997
-177.59921 140.96423 1.0436277 9.0885
-177.24918 144.61769 1.5878662 10.0435
-177.43475 145.54092 1.239035 9.0865002
-177.27832 144.16489 1.7360862 10.075
-177.28854 144.5067 1.6940558 10.06275
-177.52567 145.2115 1.7656716 10.071
-177.59465 146.75925 1.6012225 10.0455
-177.25812 127.5182 3.0559747 10.0965
-177.58319 144.25314 3.1881666 11.075
-177.36252 146.62541 3.012208 11.0525
-177.24254 126.66721 3.6199932 11.0875
-177.36256 143.86481 4.2018948 12.0475
-177.32584 144.05486 4.2284961 12.044
-177.27054 122.4442 7.6070476 13.0995
-177.15451 122.07862 0.76155573 9.0644999
-177.1366 139.77492 0.45291275 9.0804996
-176.82693 125.59273 0.83955473 9.0970001
-176.8094 146.52888 1.5695481 10.042
-177.13 144.35979 1.9202332 10.083
-177.16873 144.75031 1.9624513 9.0190001
-176.94553 148.72777 1.6131783 10.0405
-176.96304 126.43513 2.333359 10.095
-176.98979 143.89673 2.2615039 10.0865
-176.85301 144.00075 2.1747234 10.0865
-177.16321 126.69759 2.4722505 10.097
-177.13924 127.06248 2.8825166 10.0965
-177.06595 127.24107 2.9754498 10.0965
-176.86646 120.87521 3.4305291 11.0655
-177.01605 126.79042 3.3981731 11.0745
-176.85052 120.43233 4.2777486 11.1
-176.99908 144.19746 4.5316801 12.075
-176.82231 121.91268 6.2724857 12.0995
-176.85289 120.98814 6.6946287 13.083
-176.84142 123.45202 6.5416155 13.033
-177.01683 121.23927 6.9957633 13.091
-177.00226 122.09603 7.4775214 12.581124
-177.0813 121.67696 7.7193151 14.0715
-176.97952 122.03286 7.713203 13.1
-176.54099 144.2688 0.29464003 9
-176.74109 145.37181 0.30578944 9.0707502
-176.6481 146.94217 0.27797589 9.0555
-176.76349 125.23733 0.74048907 9.0885
-176.46512 145.66292 1.4952207 10.046
-176.77185 126.01939 2.1510279 10.088
-176.77304 126.43146 2.3603182 10.0965
-176.71341 144.11263 2.1423306 10.0865
-176.4252 144.67946 2.208447 10.086
-176.68716 126.82325 2.6328752 10.0965
-176.53958 143.15097 2.9696538 11.0655
-176.6001 146.32835 2.9181166 11.056
-176.58932 125.09552 4.5320659 11.0975
-176.49222 125.38902 4.7349515 11.0975
-176.58136 123.74174 5.1885896 12.0895
-176.43665 123.4902 5.537313 12.097
-176.78381 122.35544 5.9754872 13.0645
-176.59988 123.97124 5.6280866 12.098
-176.71634 124.6928 5.7804155 12.0985
-176.54672 121.26747 6.2483296 13.072
-176.46793 123.38622 6.0504994 13.0705
-176.52585 121.12785 6.7995987 12.0235
-176.60989 121.38374 6.6378255 13.08325
-176.63234 121.94788 7.1901889 14.0615
-176.43634 122.66219 7.0836525 14.061
-176.53757 120.27919 7.2322516 14.0425
-176.653 120.94106 7.3005247 13.0975
-176.48009 121.8621 7.2743683 13.098
-176.13977 144.15486 0.27273893 9.0539999
-176.04008 144.27577 1.5929848 10.061
-176.20789 146.18646 1.5586847 10.05425
-176.24446 144.38168 1.9475341 10.085251
-176.35384 144.48889 1.7005314 9.0874996
-176.20575 146.24065 1.6286098 10.035
-176.17982 143.76382 2.7146051 10.087833
-176.20859 144.73715 2.5565822 10.087
-176.04155 126.72824 3.1435215 11.068
-176.15331 127.28066 3.1148429 10.0965
-176.38571 143.38615 3.0393066 11.0755
-176.37157 143.6627 3.0219131 11.072
-176.36214 146.14931 3.0415201 11.0735
-176.25168 124.64027 3.4714971 11.080667
-176.11148 126.34937 3.3065391 11.075
-176.1877 126.62233 3.3496108 11.079166
-176.17581 126.81142 3.3259504 11.078
-176.20871 127.36847 3.2503343 10.096
-176.20023 126.65832 3.6997454 11.094
-176.00372 126.31873 4.2028532 10.0945
-176.00311 126.466 4.1377726 10.0945
-176.1355 126.98511 4.2477422 11.0965
-176.27408 144.52516 4.3003964 11.06225
-176.05779 144.6501 4.6930981 11.0875
-176.26685 120.69991 5.0694704 12.079
-176.12849 144.46429 4.8725967 12.0845
-176.37506 124.57316 5.505877 11.097
-176.17798 145.51357 5.4735117 13.053
-176.1368 120.21989 5.8676023 13.0425
-176.18436 120.73116 5.8694882 13.0625
-176.22961 121.02765 6.3173542 13.0755
-176.33095 121.47868 6.5277991 12.0995
-176.30261 122.68683 7.0755229 12.839999
-176.33736 123.1883 7.1491098 14.064
-176.37764 120.22001 7.2307191 13.097
-176.35443 121.0667 7.5594172 13.1005
-176.0383 121.71518 7.3325977 13.0995
-176.12387 122.03089 7.4310198 13.1
-176.17476 120.60462 7.6298685 14.0725
-175.80882 144.09612 0.20228572 9.0434999
-175.797 144.60031 0.23422074 9.0107498
-175.76268 145.10905 0.26462805 9.0799999
-175.63947 147.36273 0.15092139 9.0445004
-175.99759 144.15895 1.5314909 10
-175.63914 144.67102 1.5221828 10
-175.99359 146.13718 1.589129 10
-175.66461 146.76419 1.4747324 10.0415
-175.94511 144.22964 1.9848591 9.0880003
-175.73062 144.2691 2.0723772 9.0880003
-175.7477 143.41043 2.7282996 11.05275
-175.82666 143.96118 2.7832084 11
-175.71123 144.14671 2.7173688 10.797124
-175.60083 144.61888 2.7349312 10.0875
-175.6286 143.58125 2.8335943 11.0615
-175.62096 143.64272 2.8479872 11.065
-175.64395 144.33896 2.8395238 11
-175.70628 144.47398 3.0803216 11.0805
-175.97189 144.80869 2.8851199 11
-175.85483 125.08155 3.3432462 11.076
-175.91486 126.30914 3.3852656 11.0825
-175.75574 125.46748 3.9379268 10.095
-175.77443 143.92052 3.6742005 11.0865
-175.82701 126.18954 4.2348199 10.59575
-175.69414 126.70135 4.0685792 11.09725
-175.80133 127.05717 4.0467296 11.097
-175.64157 143.7617 4.0285001 12
-175.63643 144.26501 4.1337423 12.061
-175.72922 145.55107 4.6927228 12.082
-175.76041 145.14766 4.9256454 12.084749
-175.62134 145.3466 4.9176044 12
-175.82762 145.5372 5.2984905 12.696167
-175.60954 146.02525 5.2877483 13.0455
-175.83856 121.25111 5.7938714 12.1005
-175.80524 123.8056 5.6021719 12.099
-175.87386 120.83321 7.0742874 14.042
-175.77109 121.41455 7.054626 14.0415
-175.99623 121.84812 7.1980233 14.065
-175.75351 120.81342 7.4431672 14.0355
-175.82982 121.44093 7.4639049 14.072
-175.90845 120.71886 7.8054752 13.101
-175.79155 121.32222 7.7674789 13.587749
-175.93953 122.05061 7.8248758 14.0815
-175.62959 120.2225 8.0957365 14.086
-175.31972 133.97464 0.39947554 9.0825005
-175.4473 143.84566 0.23265652 9.0749998
-175.31828 144.34422 0.24832126 9.0804996
-175.50372 147.1172 0.23771378 9.0722504
-175.343 144.2782 1.5415072 10.0215
-175.38429 144.56042 1.5684823 10
-175.4722 144.9304 1.5330372 10.0391
-175.52785 145.37558 1.501694 9.8912506
-175.3237 146.15205 1.5084236 10
-175.33792 146.40543 1.4798822 10
-175.39709 145.01134 1.887457 10.08525
-175.41515 144.68741 2.0334942 10.086
-175.5218 144.48102 2.5704792 9.5877495
-175.3922 145.00298 2.741343 11
-175.44107 145.33487 2.7317612 11.0495
-175.5882 143.71776 2.974699 11.07475
-175.45337 144.21407 2.9011917 10.948555
-175.4558 144.57498 2.8622663 11
-175.42834 144.93042 3.0476499 11.060666
-175.29295 145.42593 2.8298032 11
-175.42036 145.97382 2.8283441 11
-175.40509 146.09457 2.8353939 11
-175.27542 144.20721 3.4089437 10.835875
-175.43381 145.58026 3.4596498 11
-175.21548 147.40111 3.2964501 11.0305
-175.28885 126.21571 3.677218 11.0955
-175.28931 126.73986 3.8525534 11.0975
-175.34187 143.92339 3.8866758 12.047
-175.47443 144.09569 3.9426916 12.0435
-175.37497 144.52922 3.8120215 11.055125
-175.57657 144.86079 3.8449962 10.5865
-175.22554 146.66412 3.9968271 12.0415
-175.52519 126.25462 4.3693175 12.0685
-175.51906 144.23418 4.1298423 12.046572
-175.42058 144.56355 4.2010503 11.869571
-175.35585 144.89061 4.1887417 12.035
-175.29205 146.17802 4.1516538 12
-175.54442 144.49045 4.477181 12.0805
-175.53853 145.17964 4.4222846 11.087
-175.44965 145.43315 4.5849133 11.787374
-175.26074 145.83061 4.6932082 12.010501
-175.59615 145.2126 4.8933053 11.087
-175.29999 145.67429 4.9844646 12
-175.49698 146.12796 5.3182564 13.042
-175.3156 120.72051 7.5587883 14.076
-175.56947 120.84731 7.5581303 13.101
-175.54539 121.4006 7.431972 14.035
-175.2536 122.16407 7.4911323 14.0335
-175.26567 120.47279 7.7343183 14.0795
-175.34825 121.23059 7.7316542 13.1005
-174.99312 144.45607 0.12914398 9.0465002
-174.95676 145.06213 1.5475674 9.0869999
-174.98158 145.31427 1.5124992 10.005142
-174.82501 145.75168 1.5846156 10
-175.16602 146.31816 1.524861 10.03325
-174.93047 144.93811 1.9142267 9.6958332
-174.97412 145.31392 1.884508 9.7718754
-174.81631 145.65425 1.7680198 10.0835
-174.81958 146.16708 1.704777 10.0815
-174.85187 147.33763 1.6461214 10.0345
-175.01706 145.18335 2.0193572 10.0855
-175.09653 144.55711 2.6720366 11.0179
-174.96942 145.0526 2.5702491 10.5665
-175.16872 145.51689 2.692101 10.087
-174.92545 145.82301 2.6959221 11
-175.03204 146.11075 2.7381802 11
-175.06931 147.22865 2.7087233 11.041
-174.95119 144.28191 3.0689113 10.087
-174.85861 144.67445 2.9137239 10.087
-174.92413 144.81779 2.8954937 10.087
-174.9192 145.33029 3.0493605 11.033668
-175.13342 146.00536 2.898689 11
-174.81894 146.45557 2.8866107 11
-175.06497 147.44788 2.9665043 11.0345
-174.93279 144.23796 3.3791223 11.086
-174.86058 144.70386 3.5077214 11.086
-174.85439 145.05174 3.4021327 11.0425
-175.08313 145.41666 3.3967233 10.771626
-174.93195 145.74579 3.2761805 11.010501
-175.0981 144.39925 3.7327683 11.086
-175.11761 144.60475 3.8893974 11.8258
-175.05501 145.06181 3.8818467 11.782874
-175.10808 145.39243 3.782099 11.240334
-175.01079 146.20341 3.9919767 12
-175.08392 146.45245 3.9202659 12.045
-175.16142 144.61768 4.1468763 12
-174.97296 144.91017 4.1442294 11.8724
-175.02019 145.39484 4.1013803 12.016
-174.87267 145.84312 4.0912161 11.859917
-175.04712 146.13286 4.1682801 12.02575
-174.97325 146.68805 4.2193384 12.010834
-175.14679 145.79695 4.5741167 12.0815
-175.12427 146.13298 4.5956397 12.037167
-175.13431 146.66132 4.5761147 12.031
-175.19441 146.91376 4.618845 12.0295
-175.18678 123.38535 5.9274569 12.099
-174.99113 123.67419 5.7307496 12.0995
-174.91937 122.72182 6.0456848 13.078
-174.81627 123.17907 6.0750804 13.081
-175.1722 123.37394 6.2317462 13.084
-175.14165 120.41154 6.5073438 13.086
-175.03308 121.99863 7.070353 12.0995
-175.08524 120.34872 7.4178519 14.073
-174.89272 121.35494 7.5526419 14.079
-175.12057 121.90601 7.3815522 13.1005
-174.44795 123.48904 -0.42928088 8.0955
-174.79726 133.81119 0.38524082 9.0795002
-174.42705 134.20407 0.22187343 9.0515003
-174.5916 134.7054 0.3412897 9.0819998
-174.52943 143.41716 1.4613566 10.066166
-174.57654 143.83136 1.4976664 10.037
-174.78561 145.45441 1.5601789 9.0869999
-174.79559 145.95035 1.5895213 10
-174.49135 146.39461 1.5817522 10
-174.70032 146.61664 1.474095 10.061334
-174.65596 144.25487 1.8926619 10.085751
-174.66876 145.17802 1.7856444 10
-174.66779 145.42279 1.8489306 10.0285
-174.58128 145.74791 1.7754114 10
-174.55203 146.05911 1.6942223 10
-174.49391 122.92358 2.5489206 10.027
-174.44337 143.60265 2.5181429 11.047
-174.79605 145.39455 2.5844629 10.57325
-174.68805 145.66734 2.6016877 11.04375
-174.69806 146.23111 2.6696618 11.0083
-174.6756 144.21242 3.0319643 10.087
-174.64799 144.98061 3.111522 11.032
-174.66823 145.7907 3.0515318 11.05475
-174.68703 146.2527 3.1540644 11.0155
-174.71887 146.66058 2.9881685 11.009833
-174.70708 144.58122 3.5422311 11.086
-174.79541 145.24135 3.2241304 11
-174.68344 145.80194 3.21223 11
-174.66772 147.34158 3.2211871 11.029
-174.56187 147.79034 3.2388453 11.03
-174.41757 121.40319 3.8105216 12.0535
-174.75618 121.92199 3.8398151 12.053
-174.59299 145.73946 3.8842926 12.0392
-174.61119 145.15492 4.1573944 12.074
-174.75169 145.40521 4.1512418 11.730166
-174.76987 145.89684 4.0240169 12
-174.63474 120.25851 4.4928637 11.1005
-174.42493 120.63191 4.5993814 12.073
-174.40854 122.25697 4.6419954 11.0995
-174.45215 124.25563 4.7833443 11.0985
-174.54733 125.00632 4.51793 11.098
-174.72382 147.17155 4.5477185 12.0305
-174.46329 122.31168 4.8819504 11.0995
-174.55505 123.77306 5.0401802 11.0985
-174.58319 124.16304 4.9960384 11.098249
-174.49249 121.3206 5.2921152 12.028
-174.4881 122.32677 5.4263649 12.0995
-174.48058 122.64666 5.484746 12.1
-174.50049 122.95348 5.5598121 12.1
-174.53143 123.3185 5.3815947 11.0975
-174.48666 123.86408 5.402751 12.099
-174.52565 124.01146 5.3056831 11.0975
-174.54509 121.77831 5.6010256 13.0655
-174.7256 122.99617 5.8532686 13.0745
-174.60541 120.50578 6.2610717 13.081833
-174.724 122.91156 6.2436981 13.086
-174.32785 134.11606 0.32954893 9.0690002
-174.2933 143.09357 1.3768773 10.05625
-174.01836 143.25693 1.4510943 10.072
-174.31891 143.80795 1.2373626 9.0874996
-174.30568 146.34233 1.5648829 10
-174.17242 123.87826 1.9342277 9.0205002
-174.39299 143.30557 1.6770486 10.0835
-174.20161 143.64316 1.7982955 9.0880003
-174.13934 120.74525 2.3972874 10.1005
-174.26508 143.94458 2.2047293 10.08675
-174.09126 122.30151 2.5365691 10.0995
-174.3284 143.06346 2.5224354 11.044
-174.02963 144.58887 2.6515148 11.064
-174.08987 144.95398 2.727109 11.036
-174.25966 145.05826 3.1211677 11.03
-174.24384 144.98074 3.2595816 11.042749
-174.33133 120.68694 3.9674904 11.1005
-174.09961 120.7866 4.1715164 11
-174.34067 120.98344 4.1481447 11.067166
-174.2438 121.38322 4.2088871 12.0625
-174.09036 147.05704 4.1332192 12.032
-174.24559 121.79851 4.5619035 12.0755
-174.36789 122.24346 4.597043 11.0995
-174.20865 124.26734 4.6524835 11.0985
-174.17406 121.7706 4.9645348 12.0905
-174.11905 122.90478 5.0306363 11.099
-174.20967 123.54209 5.1941614 12.0975
-174.19711 121.17477 5.3792124 12.099
-174.00854 123.64842 5.3403044 12.0995
-174.37891 120.61562 5.8776112 12
-174.29213 121.06457 5.954474 12.1005
-174.0563 121.42779 5.7649932 13.0725
-174.34433 122.12794 5.7722087 12.026
-174.22104 122.66898 5.7350545 13.07325
-174.35721 120.12624 6.1922364 13.08
-173.87396 140.11649 -0.6700356 8.0895004
-173.61958 136.18938 0.32460514 9.0860004
-173.91153 140.48247 0.10437474 9.0495005
-173.81305 140.8253 0.21150181 9.0830002
-173.69179 141.30431 0.18867017 9.0734997
-173.76816 143.08176 0.46518376 9.0869999
-173.87549 143.3909 0.75914752 9.0880003
-173.97528 143.19499 1.4023017 10.0615
-173.89482 120.8403 2.5034273 10.0505
-173.92175 144.63609 2.6763365 11.0675
-173.80103 144.98203 2.7479398 10.087
-173.84998 145.24564 2.5652289 10.087
-173.9234 122.2829 3.0629783 10.0995
-173.63855 122.49094 3.0499704 10.099
-173.70358 122.94147 3.0636494 11.0715
-173.862 145.62335 3.0200324 11
-173.69722 120.52377 3.3787439 11.0815
-173.78819 121.36771 3.3229921 11.080334
-173.72464 121.82894 3.4982338 11.0915
-173.79886 120.38978 3.9786081 11.1015
-173.97238 120.92937 3.7644434 12.054
-173.81055 122.2156 3.8931177 11.1005
-173.82779 122.75648 3.6519756 12.05375
-173.73134 124.13833 3.9704523 10.0955
-173.89058 120.63467 4.0330172 11.1015
-173.63409 121.70293 4.3901949 12.0725
-173.76384 122.25838 4.0709658 11.10025
-173.87335 122.42201 4.2081089 11.0995
-173.64029 124.15527 4.145556 11.025
-173.62936 147.48672 4.0870442 12.03275
-173.69025 123.46786 4.6539598 11.587875
-173.88383 124.29715 4.472971 11.0985
-173.86496 120.96999 4.9446669 13.054
-173.73752 123.42589 5.0142674 11.752833
-173.83644 123.99814 5.1674891 13.0605
-173.80594 123.41475 5.2787209 12.5495
-173.75906 123.76211 5.2849808 13
-173.99557 121.24654 5.8798823 13.076
-173.9581 121.07993 6.3335829 13.089
-173.25243 149.8868 -2.4121411 7
-173.22661 149.49033 -1.231267 8.0705004
-173.29054 149.67555 -1.2155274 8.0419998
-173.22769 149.24171 -1.1204517 8.0565004
-173.32831 149.82188 -1.1611043 8.0587502
-173.32281 135.87891 -0.63057208 8.0909996
-173.26399 136.48033 -0.48787716 8.0904999
-173.46658 141.44751 -0.69496578 8.0889997
-173.45125 141.84514 -0.65690666 8.0889997
-173.21246 136.68883 0.22006609 9.0804996
-173.55957 140.99083 0.079045951 9.0489998
-173.27008 148.45464 0.098579988 9
-173.26497 149.10165 0.048760071 9.0407495
-173.42703 149.79074 0.033051837 9.0419998
-173.45639 128.85223 0.4469195 9.0734997
-173.32753 129.31967 0.41852558 9.0799999
-173.25737 120.09009 1.9937372 10.077
-173.35471 120.67266 2.3009624 10.0995
-173.29427 122.80305 2.3527198 10.1
-173.22104 120.14367 3.2612224 11.077
-173.49484 120.40879 3.5733867 11.0925
-173.49529 121.9738 3.3967919 11.0885
-173.32825 123.4835 3.5369749 12.0545
-173.32437 124.03712 3.5262361 12.05275
-173.36467 124.57657 3.5243609 12.051
-173.20354 131.97017 3.5219743 12.0535
-173.41649 132.35168 3.5528586 11.094
-173.24873 132.71992 3.4815919 11.094
-173.27351 120.36062 3.8673818 11.101
-173.58331 122.20016 3.714566 11.0985
-173.31221 122.831 3.9604559 11.1
-173.3174 124.11045 3.9080706 12.058
-173.55061 120.1291 4.1480699 11.1015
-173.28262 120.54552 4.1603332 11.101
-173.3651 120.91386 4.2268314 12.0665
-173.55435 122.37771 4.3243556 12.072
-173.4964 122.74946 4.1042814 12.065
-173.49236 122.98089 4.0139151 11.5805
-173.40698 123.44777 4.1010714 11.565625
-173.35217 123.79066 4.0074182 12
-173.49332 124.04212 4.0839977 11.0255
-173.2728 120.45979 4.4384265 12.0735
-173.36824 121.47854 4.4541125 12.076
-173.21344 132.40701 4.5277767 13.044
-173.52477 147.97467 4.4244242 12.0295
-173.5833 123.02669 5.1387362 12.098
-173.21614 132.46729 4.8562522 13.042
-172.95337 145.84097 -2.5128727 7
-172.94124 149.0719 -2.5191021 7
-172.98517 149.33871 -2.432729 7
-172.85472 148.23169 -2.366852 7
-172.8643 148.68625 -2.3674035 7
-173.00255 149.01016 -2.3517885 7
-173.09052 149.48303 -2.3738201 7
-173.09888 149.98622 -2.183651 7
-172.9158 147.04219 -1.2035886 8
-172.96188 147.34785 -1.207014 8
-172.88432 147.85045 -1.2416265 8.0543327
-172.91737 148.19701 -1.3643239 8.0566664
-172.96288 148.5513 -1.2285842 8.0535002
-173.0099 148.97983 -1.249388 8.0637493
-172.9583 149.3741 -1.318568 8.0829163
-173.08403 149.7131 -1.25192 8.0828753
-173.03835 137.10858 -0.89491391 8.0904999
-172.83517 146.2982 -1.1271849 8
-172.84546 146.52509 -1.1250812 8
-172.87544 146.94536 -1.1109663 8.0127497
-172.88902 147.48102 -1.1528975 8.0404997
-172.98297 147.83122 -1.1256958 8.0287495
-172.97914 148.18068 -1.1552476 8.0442266
-173.01289 148.57977 -1.112349 8.0382729
-173.13675 149.00732 -1.1567295 8.0546007
-172.99657 149.48859 -1.1733375 8.0823336
-173.02414 149.6084 -1.1954391 8.0825005
-172.8401 128.11282 -0.23135172 8.0229998
-173.01715 130.23889 0.32944039 9.0655003
-172.93938 132.99301 0.17930283 9.0559998
-173.11507 136.29024 0.16434081 9.0629997
-172.83632 136.9136 0.16642763 9.0594997
-173.19783 142.02917 0.068080582 9.0445004
-172.83545 145.9075 0.093313634 9
-172.88818 146.12566 0.089616112 9
-172.88544 146.55258 0.07227391 9
-172.86758 146.88837 0.056995731 9.0338745
-172.91568 147.57785 0.13690864 9.0217495
-172.98421 147.86205 0.18233296 9.0236664
-173.18961 148.29097 0.091206484 9
-173.18906 148.66754 0.1098715 9.0669994
-173.15086 120.2532 2.0474851 10.0835
-173.07561 123.55206 2.3974915 10.099
-173.14891 120.91741 2.440347 10.1015
-172.91922 123.54038 2.6369426 10.5495
-172.98189 123.63433 2.7161913 10.5495
-172.8877 132.5769 2.6624868 11.074
-173.10583 121.88123 3.0599573 11.0725
-173.09496 122.12856 3.1468058 11.07725
-172.83557 122.53532 3.1700947 11.082
-173.05975 123.19398 2.9920185 10.099
-173.07263 132.53244 3.0630741 10.046249
-173.00906 147.26004 3.0266612 11.0285
-173.17987 120.27416 3.3704479 11.0835
-173.03697 121.22726 3.5885949 12.0565
-173.16743 122.12486 3.292949 11.0855
-173.09186 132.00029 3.5501952 12.057
-173.173 132.52109 3.2803972 11.0935
-173.04898 132.9549 3.3130403 11.568501
-173.01776 139.14554 3.447444 12.0505
-172.92645 120.05544 3.6311224 12.0575
-173.11797 120.59095 3.6321125 12.057
-173.19534 123.54868 3.8974879 12.061
-172.82251 120.02714 4.3681931 11.101
-172.83658 132.95155 4.0526738 10.092
-172.98914 133.76372 4.2449112 11.0935
-173.14394 147.2204 4.3404512 12.0285
-173.14621 147.97481 4.395916 12.028
-173.05388 122.4766 4.4974556 12.082
-173.06702 131.47168 4.6684999 13.05575
-172.91264 131.88472 4.7989759 12.0945
-172.80757 132.30759 4.4382143 12
-172.98997 132.48616 4.5973711 11.54575
-172.83038 133.42494 4.4402976 13.0455
-173.12143 148.73611 4.4498177 12.0275
-172.87198 131.50558 4.8329086 13.0645
-173.0565 132.30257 4.8274536 11.0935
-173.00755 146.35754 4.846024 13.04275
-172.95619 139.68634 5.2427168 10.089
-172.83357 139.26263 5.7864089 12.5895
-172.79315 147.65425 -2.8097763 7
-172.46303 145.85985 -2.4383454 7
-172.51901 146.34642 -2.4500773 7
-172.60001 147.04057 -2.4670162 7
-172.70805 147.38652 -2.6382642 7
-172.73036 147.84439 -2.4505444 7
-172.76802 148.2876 -2.4982517 7
-172.74565 148.52472 -2.4158354 7
-172.54532 149.31836 -2.6452482 7
-172.55266 149.72992 -2.6222162 7
-172.41017 144.97643 -2.2814937 7
-172.45035 145.4037 -2.307858 7
-172.504 145.82635 -2.3019142 7
-172.53535 146.2373 -2.2998495 7
-172.58356 146.59673 -2.3221228 7
-172.60866 147.07101 -2.3167188 7
-172.62352 147.37009 -2.3041091 7
-172.70546 147.78568 -2.3088524 7
-172.72746 148.26422 -2.2397869 7
-172.60106 149.01144 -2.1911044 7
-172.48218 144.94641 -1.3388422 8.0650005
-172.58943 145.3501 -1.2058934 8
-172.53418 145.72511 -1.2207612 8.0566664
-172.56969 146.12711 -1.3075814 8.0715837
-172.64139 146.54901 -1.2369391 8.0637503
-172.41974 147.0723 -1.3855637 8.0854998
-172.68239 147.25107 -1.3165538 8.0842848
-172.70074 147.7236 -1.2163019 8.0839996
-172.66554 148.14917 -1.2607744 8.0843992
-172.70087 148.84256 -1.2032218 8
-172.74187 149.22047 -1.2910821 8.0845003
-172.43062 136.3633 -0.82130259 8.0900002
-172.56619 137.95174 -1.0578394 8.0900002
-172.44611 139.26447 -1.081313 8.0784998
-172.41608 139.86096 -1.0940812 8.0804996
-172.42393 143.47009 -1.1042366 8
-172.45731 143.8472 -1.0951576 8
-172.49846 144.22496 -1.1171653 8.0049667
-172.54367 144.60118 -1.1056426 8.0030003
-172.61497 145.03836 -1.1086249 8
-172.62622 145.42876 -1.1122227 8.0125589
-172.67799 145.79582 -1.0989007 8.0143747
-172.68636 146.11626 -1.1198292 8.0188999
-172.61382 146.63321 -1.1708575 8.0370617
-172.65555 147.00899 -1.060896 8.0179996
-172.64481 147.32907 -1.1417652 8.0523129
-172.68054 147.78979 -1.1059875 8.0352774
-172.67255 148.17989 -1.1664964 8.0421247
-172.68951 148.55943 -1.1834865 8.0281668
-172.53526 130.6913 -0.50305367 8.0927505
-172.45668 133.38223 -0.59894389 8.092
-172.50618 138.09074 -0.77107221 8.0895004
-172.46118 143.72878 -0.0048875613 9
-172.56049 144.50044 -0.00380177 9
-172.67224 145.4142 -0.0018473564 9
-172.57999 128.67197 0.27600181 9.0600004
-172.69928 129.74619 0.25071785 9.059
-172.43697 130.93228 0.17388682 9.0544996
-172.50676 131.9449 0.29864958 9.0354996
-172.60599 132.1004 0.36454284 9
-172.47838 132.55547 0.16328168 9
-172.58827 136.73109 0.083022691 9
-172.69493 136.87555 0.08399 9.0244999
-172.61581 137.44139 0.3339566 9
-172.41031 142.7155 0.089482002 9
-172.41679 142.97011 0.08758527 9
-172.46814 143.39204 0.082095876 9
-172.50229 143.79889 0.084181227 9
-172.58667 144.1942 0.086665131 9
-172.6218 144.65668 0.098339267 9
-172.6696 144.99136 0.098450899 9.0030003
-172.65778 145.44293 0.13196506 9.0041504
-172.69 145.722 0.13455468 9
-172.63589 146.2166 0.12927157 9.0081997
-172.76315 147.07468 0.25298333 9.0157499
-172.70013 148.16771 0.19692266 9
-172.72198 148.56288 0.19682297 9
-172.65063 128.44391 0.44360188 9.0924997
-172.55873 129.32428 0.40808192 9
-172.40552 132.51053 0.57298493 9.0469999
-172.43376 143.84596 1.1516695 10
-172.48001 144.20392 1.1694851 10
-172.53949 144.62964 1.1454837 10
-172.64171 145.2785 1.1593409 10
-172.66821 145.62274 1.1646559 10
-172.4492 132.67258 1.3588998 9
-172.41669 143.40981 1.3778342 10
-172.49411 143.77374 1.3823299 10
-172.60294 120.79988 2.7625303 10.0255
-172.5695 131.50952 2.6556981 11.075
-172.52852 132.0919 2.5178323 11.0675
-172.79794 132.7818 2.6566119 10.094
-172.69905 133.11288 2.6139498 9.7962494
-172.57002 133.39403 2.775095 10
-172.69414 122.67998 2.9571788 11.072
-172.42125 131.94695 3.0487249 11
-172.43004 132.35022 3.0754814 11
-172.58533 132.55968 3.0511084 11.0915
-172.76605 132.81728 2.805232 10
-172.73114 133.23349 2.9421973 10.592
-172.7464 120.21455 3.6988368 11.099
-172.60077 132.3959 3.6194849 12.042
-172.79474 120.23911 4.0407009 11.102
-172.50038 130.90201 4.1582127 11.095
-172.55482 131.83926 4.2205248 10.5935
-172.54819 132.28653 4.3880715 12.523251
-172.69583 133.00406 4.2375493 10.759999
-172.54729 133.3553 4.2204823 11.59225
-172.47005 133.80316 4.3509693 12.06925
-172.77208 120.01357 4.4016023 12.074
-172.55376 131.26805 4.4531941 12.0925
-172.66589 131.80731 4.6142664 11.683999
-172.49376 132.63121 4.5389876 12.068501
-172.52409 133.01979 4.5616913 12.4487
-172.50844 133.42621 4.403193 13.043
-172.64072 148.00101 4.4045267 12.0275
-172.65356 131.45842 4.9980197 13.072374
-172.4899 121.29605 5.3837533 12.1015
-172.642 121.75066 5.51437 12.0255
-172.52457 129.48961 5.5258942 13.0335
-172.05453 144.40082 -3.5291865 6
-172.16583 145.0795 -3.5015488 6
-172.03101 142.60553 -2.4041421 7
-172.06841 143.37292 -2.4478519 7
-172.11812 143.82527 -2.4579124 7
-172.17188 144.21051 -2.4667225 7
-172.27237 144.41411 -2.4037743 7
-172.30176 144.96492 -2.4503598 7
-172.27126 145.45087 -2.4978359 7
-172.062 145.95926 -2.5129111 7
-172.07306 146.06764 -2.5468252 7
-172.14453 146.78355 -2.5200016 7
-172.19574 147.78275 -2.5147841 7
-172.3228 148.24835 -2.5507579 7
-172.34686 148.5947 -2.6371255 7
-172.39064 148.96454 -2.5658653 7
-172.00281 141.46233 -2.2012997 7
-172.01585 141.98532 -2.1777055 7
-172.04317 142.20557 -2.2150371 7
-172.0685 142.60503 -2.2353647 7
-172.11696 142.96576 -2.2353015 7
-172.15501 143.37213 -2.2316186 7
-172.20056 143.8071 -2.2417529 7
-172.25702 144.22543 -2.2607052 7
-172.30667 144.62305 -2.2647014 7
-172.35353 145.00348 -2.2557592 7
-172.35133 145.31638 -2.2534113 7
-172.38037 145.68661 -2.2356341 7
-172.18102 134.5704 -1.7253294 8.0915003
-172.28297 136.27026 -1.7535164 8.0909996
-172.13951 136.67299 -1.6571349 8.0909996
-172.25648 137.9924 -1.7827282 8.0904999
-172.24066 138.28575 -1.7176036 8.0904999
-172.14954 140.01193 -1.7089697 8.0900002
-172.21419 141.46361 -1.8399285 8.0895004
-172.23581 141.68434 -1.770812 8.0895004
-172.10114 143.03595 -1.6146338 8.0869999
-172.11632 132.4144 -1.5199884 8.0900002
-172.05028 133.15175 -1.2901355 8.092
-172.09196 134.17743 -1.4215771 8.0912495
-172.00143 135.106 -1.5986072 8.0915003
-172.08354 135.66246 -1.2644241 8.0909996
-172.00331 136.50858 -1.3844815 8.0909996
-172.12842 137.24857 -1.2863891 8.0904999
-172.27422 137.88307 -1.5581365 8.0896673
-172.14008 138.19482 -1.4559265 8.0882502
-172.02713 138.85291 -1.3769482 8.0904999
-172.19659 139.51338 -1.5843674 8.0880003
-172.2688 139.73444 -1.5161842 8.0885
-172.13669 140.35562 -1.2574935 8.0889997
-172.14842 140.64291 -1.4038129 8.0889997
-172.25386 141.31664 -1.5933933 8.0885
-172.16782 141.79425 -1.4199854 8.0880003
-172.13013 142.45386 -1.2010666 8.0880003
-172.13284 142.94826 -1.2979608 8.0524998
-172.0705 143.48026 -1.2073191 8
-172.18942 143.87057 -1.3094231 8.0622129
-172.23415 144.30563 -1.221754 8.0290003
-172.21515 144.68829 -1.2182432 8
-172.22263 145.02634 -1.2722846 8.0648746
-172.32213 146.04817 -1.3003062 8.0860004
-172.02596 128.17877 -0.92170155 8.0930004
-172.07959 130.07405 -0.95041585 8.0924997
-172.13396 130.52518 -0.82788646 8.0922499
-172.00798 132.20955 -0.9172982 8
-172.02489 132.77591 -0.92683089 8
-172.00032 132.92082 -0.82536185 8.092
-172.11322 133.29602 -0.97219455 8.0458746
-172.09369 133.74983 -0.96713567 8.0284996
-172.05826 134.19495 -0.96688986 8.0499086
-172.05933 134.63036 -0.96560705 8.0068331
-172.056 134.9581 -0.95685726 8.0121336
-172.06795 135.38104 -0.97605401 8
-172.09634 135.77895 -0.98306561 8
-172.13023 136.19815 -1.0019307 8.011344
-172.13889 136.56084 -0.9930023 8.0069227
-172.14348 136.97424 -1.0002402 8
-172.1454 137.39714 -1.023384 8
-172.13937 137.76859 -1.0280383 8
-172.14572 138.1674 -1.0225735 8
-172.16029 138.58203 -1.0445507 8.0111876
-172.14194 138.95496 -1.0522213 8.0180006
-172.17566 139.403 -1.0413251 8.0235004
-172.17845 139.79083 -1.0580523 8.0226088
-172.17355 140.20354 -1.0526701 8.0258541
-172.17006 140.58435 -1.0686562 8.021143
-172.18454 140.9837 -1.0644053 8.0197496
-172.19249 141.39558 -1.068424 8.0193338
-172.18059 141.79732 -1.0849115 8.0087996
-172.21176 142.155 -1.0744241 8.0049171
-172.26328 142.56531 -1.0794716 8.0062857
-172.23885 143.00752 -1.1081806 8
-172.12962 143.3956 -1.1138794 8.004631
-172.16878 143.7693 -1.1334453 8
-172.20213 144.18771 -1.1080083 8.0240936
-172.21927 144.61552 -1.1459268 8.0216875
-172.25845 145.03114 -1.1524918 8.0123577
-172.31126 145.37956 -1.1601708 8.0143328
-172.29961 145.63107 -1.1612691 8
-172.35745 146.10214 -1.1638552 8
-172.35495 146.4243 -1.1636304 8
-172.15591 129.38837 -0.65959591 8.0935001
-172.09802 130.37347 -0.65258753 8.0925007
-172.22592 130.67738 -0.69917339 8.0927505
-172.0513 131.88895 -0.45231158 8.0299997
-172.31169 132.12491 -0.69083548 8.0915003
-172.26231 133.31767 -0.69691747 8.0791998
-172.23032 133.634 -0.71453065 8.0909996
-172.2699 134.59396 -0.76681155 8.0915003
-172.24976 136.49748 -0.58326304 8.0559998
-172.24371 139.57318 -0.79636091 8.0889997
-172.1749 132.99065 -0.32630387 8.0284996
-172.14543 136.84015 -0.30572575 8.026
-172.14435 137.42253 -0.13824606 8.0249996
-172.13373 140.13965 -0.21580176 8.0229998
-172.09465 141.08475 -0.21068966 8.0225
-172.2142 141.78777 -0.0038699163 9
-172.25372 142.25655 -0.0057149688 9
-172.28824 142.43933 -0.0052931309 9
-172.34911 142.98602 -0.0060802274 9
-172.21562 126.9867 0.38316974 9.0684996
-172.31041 128.60298 0.2628642 9
-172.05608 128.88795 0.2989254 9
-172.20377 129.39793 0.1975235 9
-172.37334 129.7903 0.19729449 9
-172.38895 130.31793 0.185423 9
-172.17072 131.84506 0.28734425 9.0213327
-172.00598 132.03087 0.38927448 9
-172.0235 132.59164 0.3307412 9
-172.03415 133.43929 0.27232629 9
-172.03728 133.80606 0.21368937 9
-172.06712 134.20897 0.20146909 9
-172.07692 134.5836 0.21494576 9
-172.09361 134.97989 0.1938545 9
-172.11601 135.39734 0.17676045 9
-172.14426 135.79703 0.16550173 9
-172.14906 136.2476 0.1826786 9
-172.18227 136.53557 0.18148029 9
-172.20897 136.95366 0.16132879 9
-172.21388 137.44888 0.16823307 9
-172.16066 137.79965 0.16388167 9
-172.20728 138.28084 0.096300706 9
-172.09912 138.62621 0.15378636 9
-172.2252 138.98524 0.09495648 9
-172.17369 139.46736 0.076036662 9
-172.19472 139.8495 0.12560479 9.0065832
-172.20213 140.14174 0.12019022 9
-172.24884 140.6158 0.088918276 9
-172.21855 141.05286 0.11701033 9
-172.23753 141.35677 0.083859816 9
-172.24052 141.78922 0.095727444 9
-172.30319 142.16615 0.086219311 9
-172.26311 142.60921 0.14574809 9
-172.19917 143.0153 0.20694388 9
-172.19807 143.39557 0.2408985 9
-172.22282 143.8125 0.24562436 9
-172.22958 144.17081 0.24188672 9
-172.25945 144.52724 0.23988502 9
-172.32738 144.9247 0.24047065 9
-172.33832 145.41391 0.21165651 9
-172.35037 145.63422 0.20189033 9
-172.35847 146.02423 0.16638592 9
-172.19232 127.06475 0.44402641 9.0384998
-172.15807 127.51302 0.59681863 9
-172.08504 127.6482 0.56033164 9.0487499
-172.22438 132.53006 0.55962992 9
-172.02878 136.23436 0.48422423 9
-172.00262 136.77032 0.59774137 9
-172.01505 137.02864 0.57923871 9
-172.03021 138.01237 0.65425307 9
-172.10027 138.57106 0.62380302 9
-172.0174 139.34879 0.63554156 9
-172.06509 141.98213 0.55110365 9
-172.06824 142.06812 0.67802751 9.0177002
-172.02695 142.53847 0.72361028 9.0880003
-172.24615 143.56743 0.48787886 9
-172.14575 132.59782 0.87153739 9
-172.02914 133.8587 1.1731952 10
-172.01393 134.66418 1.1466495 10
-172.04816 135.35376 1.1389214 10
-172.06375 135.80312 1.0269207 9.666667
-172.07545 136.07631 1.0240899 9.666667
-172.11971 136.52377 1.1301442 10
-172.33229 137.27148 1.139812 10
-172.27809 142.35942 1.1126764 10
-172.28081 142.63351 1.1298591 10
-172.33675 143.01518 1.119459 10
-172.36346 143.40782 1.1513157 10.014333
-172.33011 131.99231 1.4655486 10
-172.18057 132.08833 1.4422872 10.044999
-172.01967 132.60977 1.5581206 10
-172.05452 133.28244 1.5395858 10
-172.02823 133.82423 1.5205837 10
-172.00946 134.17157 1.267821 10
-172.04858 134.58028 1.3418963 10.0205
-172.08414 135.00554 1.3345121 10
-172.08549 135.39453 1.2948798 10
-172.11301 135.85811 1.3181483 10
-172.14372 136.14008 1.353578 10
-172.15453 136.52042 1.2423645 10
-172.18388 137.80414 1.2087923 10
-172.24107 140.38522 1.3941318 10
-172.25441 140.71306 1.3908048 10
-172.24571 140.96437 1.3867259 10
-172.24631 141.38043 1.3816719 10
-172.23569 141.74571 1.3765577 10
-172.25189 142.17117 1.373593 10
-172.33017 142.69821 1.3756859 10
-172.38051 143.08839 1.3769788 10
-172.30309 132.20029 1.6980153 10
-172.10439 132.54663 1.8459171 9.8888893
-172.22511 131.8828 2.3211496 11
-172.19691 132.27876 2.1306992 10
-172.25148 132.61562 2.0745616 10
-172.01431 127.80309 2.5819283 10.097
-172.34164 131.72162 2.7502284 11.040751
-172.19443 132.20959 2.5912015 10.598357
-172.14671 132.58154 2.7340872 10.542
-172.05275 133.0307 2.6105187 10.0935
-172.28706 131.92093 3.0201254 11.061833
-172.26093 132.18187 2.9157474 10.386687
-172.15527 132.53098 2.9669335 10.514916
-172.17714 131.46092 3.3678071 12.054
-172.2937 131.91432 3.4224715 12
-172.01131 132.62213 3.3132203 12.053
-172.18507 132.93399 3.3329141 11.56975
-172.11334 132.06992 3.823807 12.078
-172.10246 121.14915 4.397656 12.08
-172.34346 131.29031 4.1454291 11.59
-172.34499 131.79886 4.26366 12.395333
-172.13969 132.05656 4.3460846 12.046
-172.3546 132.64067 4.3530703 11
-172.06331 132.85329 4.2960019 13.04475
-172.25961 133.26768 4.3229303 11
-172.25113 133.60713 4.3782358 11.0935
-172.33849 131.00624 4.5706434 13.058
-172.18449 131.47493 4.4688172 11.0945
-172.13895 131.76167 4.5030217 13
-172.19022 132.18706 4.5383677 12.269945
-172.28871 132.61209 4.5680933 11.26675
-172.1989 133.03279 4.6816959 11.0465
-172.34387 133.29196 4.6294217 11.741834
-172.36488 128.97269 5.1526227 11.0945
-172.19672 129.21687 5.1305723 12.096
-172.15034 132.26097 4.9205575 13.038
-172.26407 132.69272 4.931921 12.645101
-172.24995 132.90536 4.8110108 12.094
-172.37633 133.27434 4.8906727 12.0935
-172.23531 138.71225 5.1773915 10.09
-172.35106 138.90887 5.0020781 10.0895
-172.38716 120.22216 5.5752134 13.074
-172.12294 128.62427 5.3451319 13.084
-172.28078 128.81296 5.4747934 13.087
-172.3082 129.65086 5.440177 13.397
-172.13266 138.59428 5.5076823 11.0895
-172.24492 138.9202 5.2542763 10.0895
-172.13998 122.23952 5.6720095 12.1
-172.32304 138.26344 5.6212711 14.041
-172.20219 138.84003 5.664362 14.038
-171.69489 149.88043 -3.6071017 6
-171.70779 142.664 -3.4668765 6
-171.66562 141.42213 -2.8294117 7
-171.69498 143.16222 -2.8552039 7
-171.60612 137.09735 -2.7700911 7
-171.60683 139.11142 -2.450067 7
-171.61569 139.56429 -2.4783292 7
-171.61147 139.82664 -2.5258346 7
-171.61845 140.26143 -2.5749176 7
-171.631 140.50264 -2.5728939 7
-171.63272 140.99455 -2.522557 7
-171.65819 141.42256 -2.5822668 7
-171.67961 141.7764 -2.594487 7
-171.69757 142.18712 -2.60848 7
-171.71841 142.5853 -2.5289776 7
-171.73073 143.06468 -2.561094 7
-171.76094 143.43159 -2.6246274 7
-171.7937 143.82074 -2.6118751 7
-171.85158 144.185 -2.691982 7
-171.87892 144.58575 -2.5776796 7
-171.9201 144.86525 -2.5977569 7
-171.9518 145.36835 -2.5036402 7
-171.61005 132.97717 -2.1481452 7
-171.6232 133.47308 -2.1387393 7
-171.63609 133.81528 -2.0888095 7
-171.66205 134.19025 -2.101923 7
-171.68509 134.58467 -2.0900521 7
-171.71509 135.03078 -2.1536677 7
-171.72151 135.38417 -2.1078808 7
-171.75735 135.80101 -2.1307929 7
-171.75798 136.17352 -2.1373751 7
-171.78525 136.57019 -2.1776698 7
-171.81908 137.01752 -2.1242297 7
-171.81679 137.42078 -2.1369367 7
-171.80359 137.76508 -2.1742532 7
-171.83543 138.20386 -2.146457 7
-171.8647 138.68369 -2.1719086 7
-171.81828 138.98187 -2.2079625 7
-171.88545 139.37381 -2.2022057 7
-171.85756 139.81734 -2.2268393 7
-171.90068 140.23622 -2.2307284 7
-171.92194 140.58508 -2.2019558 7
-171.9375 140.96678 -2.2310169 7
-171.94823 141.37576 -2.2091136 7
-171.96027 141.75836 -2.2424226 7
-171.9549 142.1357 -2.2513099 7
-171.9314 142.50296 -2.1134932 7
-171.88905 129.37448 -1.6358453 8.0930004
-171.98988 131.44907 -1.6068994 8.0924997
-171.634 131.67267 -1.6637926 7
-171.61195 133.05847 -1.9790798 7
-171.63232 133.49704 -1.9857621 7
-171.64516 133.84357 -1.9687003 7
-171.65895 134.0786 -1.98404 7
-171.72511 134.7907 -1.9993101 7
-171.91191 143.1713 -1.8028119 7
-171.85384 128.79587 -1.2130343 8.0939999
-171.90852 129.89256 -1.232873 8.0935001
-171.62468 130.19209 -1.2346575 8.0935001
-171.60162 130.58337 -1.5445718 7
-171.9422 130.97701 -1.252434 8.0930004
-171.73451 131.39899 -1.3261553 8.0926666
-171.83331 132.36378 -1.2657107 8.0924997
-171.84737 133.11714 -1.4477348 8.092
-171.75214 133.47777 -1.2454767 8.092
-171.9738 133.99428 -1.2931554 8.092
-171.80418 134.51308 -1.261427 8.0915003
-171.87871 134.82645 -1.4192477 8.0915003
-171.908 136.54822 -1.5047406 7.5454998
-171.95935 139.85892 -1.4354024 8.0900002
-171.91043 141.81462 -1.3251112 8.0880003
-171.98071 142.65303 -1.2010056 8
-171.60225 125.52317 -0.85013145 8.099
-171.6183 125.88242 -0.8751002 8.0492496
-171.64709 126.26376 -0.88519681 8.0326662
-171.65494 126.62803 -0.85478652 8.0325003
-171.67412 127.01041 -0.85834062 8.0195999
-171.66637 127.46631 -0.875467 8.0482006
-171.65413 127.81599 -0.90390491 8.0272141
-171.67198 128.26288 -0.88156909 8.0333242
-171.67534 128.61415 -0.88633996 8.0251846
-171.66426 129.03705 -0.89354354 8.0090237
-171.70595 129.42375 -0.91245198 8.0341673
-171.70116 129.80548 -0.91396868 8.013464
-171.71283 130.20979 -0.92845047 8.0170002
-171.75052 130.62015 -0.92750287 8.0273838
-171.7576 130.99843 -0.94644248 8.0226669
-171.7576 131.39796 -0.97418916 8.0288954
-171.88228 131.81487 -0.95712471 8.0728178
-171.84483 132.21458 -0.92933249 8.0040216
-171.81268 132.59801 -0.9911707 8.0055599
-171.85405 133.01195 -0.97948968 8.012557
-171.8455 133.4164 -0.98507434 8.0027885
-171.87001 133.81323 -0.99091464 8.0025549
-171.8784 134.2245 -1.0098712 8.0050831
-171.86794 134.62177 -1.024843 8
-171.86742 135.03137 -1.0472512 8.0070381
-171.89272 135.46237 -1.0488793 8
-171.90936 135.83586 -1.0463566 8
-171.92624 136.25366 -1.0599935 8.0043335
-171.95119 136.66029 -1.0598825 8
-171.96245 137.02097 -1.0585233 8
-171.97083 137.4213 -1.0628196 8
-171.97211 137.82883 -1.0610044 8
-171.97305 138.19923 -1.0758127 8
-171.97598 138.59019 -1.0693406 8
-171.97121 138.97603 -1.0820441 8
-171.97037 139.40034 -1.0837061 8
-171.97108 139.84451 -1.0909172 8
-171.97154 140.18962 -1.0975981 8
-171.96495 140.58862 -1.0952855 8
-171.96196 141.0108 -1.1099198 8
-171.95892 141.42392 -1.1213584 8.0052357
-171.94572 141.81253 -1.1258615 8
-171.94911 142.23738 -1.1298529 8.0059004
-171.94878 142.60378 -1.1296225 8
-171.98174 142.99936 -1.1046822 8
-171.71503 125.58459 -0.74839044 8.0950003
-171.62971 127.78273 -0.44531149 8.033
-171.61089 128.24228 -0.78705293 8
-171.63799 128.55319 -0.70500815 8.0081253
-171.66327 129.05002 -0.79161865 8
-171.79468 129.40596 -0.78843212 8.0623331
-171.89925 130.5435 -0.78776622 8.0930004
-171.93379 132.52086 -0.45743296 8.0295
-171.6059 124.25883 -0.26532528 8.0244999
-171.89069 128.59361 -0.34323844 8.0284996
-171.99812 130.88672 -0.27597928 8.0209999
-171.6013 127.0316 0.39723781 9
-171.63206 127.41521 0.38331109 9
-171.66841 127.79048 0.36219257 9
-171.70537 128.18718 0.34605849 9
-171.70305 128.60025 0.31622458 9
-171.74181 129.04028 0.30736652 9
-171.76054 129.40125 0.2977466 9
-171.80618 129.86804 0.29872108 9
-171.79335 130.1786 0.22155987 9
-171.8223 130.57832 0.1911848 9
-171.87955 130.9959 0.22338761 9.0205002
-171.86591 131.4959 0.20888354 9.0300007
-171.89809 131.84235 0.25716451 9.0203753
-171.92982 132.17859 0.26953119 9.0029993
-171.91322 132.59331 0.230831 9
-171.93817 132.97511 0.2334411 9
-171.9536 133.44731 0.23974499 9
-171.98894 133.88062 0.096960627 9
-171.99759 134.19774 0.098214991 9
-171.91414 134.66821 0.35533601 9
-171.94926 134.90916 0.38953179 9
-171.9529 135.40585 0.3712827 9
-171.94318 135.82091 0.34220332 9
-171.97774 136.23215 0.34141037 9
-171.99104 136.60875 0.3517108 9
-171.99513 137.42717 0.36986089 9
-171.97662 142.35231 0.26310173 9
-171.97551 142.47646 0.20506661 9
-171.63211 126.56081 0.48200458 9
-171.68645 126.97562 0.458648 9
-171.68503 127.42649 0.55891806 9.0107775
-171.82083 127.81619 0.51900226 9
-171.75421 128.31746 0.52642834 9
-171.68878 128.58737 0.5093841 9
-171.70357 129.04767 0.50055271 9
-171.80818 129.43492 0.54515582 9.0137148
-171.7836 129.77394 0.51658452 9
-171.77434 130.13544 0.45526713 9
-171.78127 130.48935 0.50619948 9
-171.80789 132.33463 0.43971202 9
-171.85532 132.57391 0.5176869 9.0208893
-171.85727 132.98764 0.55227745 9
-171.87341 133.36807 0.47983089 9
-171.91438 133.68735 0.62693238 9
-171.9471 134.78876 0.42059907 9
-171.93513 135.17848 0.40513882 9
-171.94495 135.30258 0.75983423 9
-171.96971 135.78497 0.70906889 9
-171.99214 136.6844 0.67195451 9
-171.98575 142.46513 0.59028786 9
-171.67209 123.26044 1.1160158 9.0965004
-171.67009 127.51042 0.91439039 9.0970001
-171.67007 128.61363 0.85080534 9.0142498
-171.67555 128.8846 0.80912858 9
-171.77322 131.02452 1.1864644 10
-171.83934 131.62621 1.1781856 10
-171.83931 132.05293 1.1686777 10.0535
-171.85141 132.5318 0.93587726 9.2857141
-171.90488 132.94379 1.1697136 10
-171.93771 133.46358 1.1660039 10.0185
-171.97093 133.85556 1.1463727 10
-171.9879 134.29871 1.1505481 10
-171.95454 135.57362 0.85396475 9
-171.96404 135.89375 0.85436606 9.0227499
-171.98607 136.23605 0.83381963 9
-171.61342 127.86556 1.4189993 10
-171.6582 128.24689 1.3234904 10.019
-171.66371 128.69695 1.3683102 10
-171.6949 129.02423 1.3726666 10
-171.70822 129.40619 1.3385128 10
-171.7334 129.7542 1.305898 10
-171.7494 130.18016 1.2822194 10
-171.78384 130.62669 1.2783077 10
-171.80055 130.9455 1.3396509 10.032499
-171.87627 131.31718 1.5940609 10.0905
-171.91003 131.76463 1.455687 10
-171.90086 132.15025 1.3918214 10
-171.93048 132.50749 1.3270588 10
-171.96004 133.01305 1.3751711 10
-171.97946 133.52728 1.2927939 10
-171.98906 133.67914 1.2778231 10
-171.87096 129.39742 1.6630046 10
-171.8208 129.70103 1.6464831 10
-171.8143 130.14343 1.6285275 10
-171.84459 130.62085 1.6129748 10
-171.95148 122.27984 2.1941204 10.101
-171.97978 132.78539 2.0977554 10
-171.79199 137.98682 2.2604666 11.0585
-171.64461 139.37885 2.2582135 10.57725
-171.62305 139.94316 2.1389775 11.0495
-171.8922 127.63744 2.4134033 10
-171.81476 132.16373 2.5977836 11.0195
-171.68698 132.76917 2.5437992 10
-171.74446 133.03113 2.5221977 10
-171.65749 139.16833 2.4790528 11.0785
-171.65448 121.83906 3.1335533 11
-171.85516 127.2528 2.9498849 11.087749
-171.87004 132.04262 2.8456252 11
-171.79062 121.95332 3.4058528 11
-171.82469 122.74812 3.3352818 12.0555
-171.7411 127.57983 3.3106053 11.0975
-171.67932 127.96875 3.2204154 11.0965
-171.84818 131.73187 3.3556108 12
-171.69194 132.21989 3.4989965 10.547
-171.97266 132.58282 3.35045 12.0565
-171.70708 132.80035 3.5747631 10
-171.96292 133.36754 3.2126429 12.043
-171.82724 122.34156 3.8852177 11.1005
-171.79619 122.72675 3.843137 12.0655
-171.79701 122.82223 3.7287104 12.062
-171.84509 127.40677 3.9493365 12.0785
-171.73901 132.20105 3.7221274 12
-171.7068 132.62506 3.7318366 11.540501
-171.87952 133.04645 3.6526859 10.092
-171.85315 122.21846 4.1237011 11.1
-171.82602 128.04791 4.0719047 12.0845
-171.92305 132.53287 4.3020492 11
-171.79901 122.75975 4.4469991 13.0555
-171.63458 128.92152 4.7155027 13.067
-171.95975 132.54118 4.5356026 12
-171.72552 121.56202 5.0385461 12.583
-171.79297 121.7636 4.8260512 12
-171.76993 122.86328 4.8603034 13.062
-171.72336 123.38322 5.1487718 11.599
-171.69315 128.09695 4.9723268 11.09525
-171.84003 129.17451 5.1438446 13.0805
-171.82039 129.27408 4.9986286 13.075833
-171.75723 129.67276 5.0111504 11.762
-171.84976 130.07207 4.8691459 12.096
-171.75574 120.24332 5.5716634 13.0775
-171.78424 121.08561 5.5315776 12.10125
-171.96312 121.8009 5.5918665 13.031
-171.66609 122.5182 5.5177016 13.081334
-171.80473 123.32561 5.2953467 12.10025
-171.67043 127.57354 5.4495077 13.088
-171.7072 128.21307 5.3212132 12.072667
-171.70047 128.42859 5.4889078 13.54475
-171.69424 129.36203 5.3991208 13.087749
-171.6445 121.39787 5.8270831 13.088
-171.80151 121.62112 5.7740479 13
-171.88211 122.12633 5.8967957 12.596001
-171.74765 121.79551 6.2408333 13.04875
-171.80222 122.3006 6.0760107 14.0625
-171.20425 129.87369 -3.3975923 7
-171.41603 132.839 -3.3535843 7
-171.20067 133.817 -3.2802749 6
-171.44608 135.92635 -3.2544212 6
-171.31578 140.37718 -3.2224951 6
-171.24666 132.43306 -3.0035636 6
-171.55609 140.03584 -2.8083835 7
-171.57632 140.5488 -2.8157945 7
-171.20171 128.17993 -2.5309844 7
-171.21057 129.3898 -2.4932935 7
-171.2383 129.82733 -2.5444903 7
-171.22389 130.17703 -2.5035169 7
-171.25609 130.65068 -2.5373523 7
-171.25218 130.96931 -2.5335684 7
-171.29277 131.38214 -2.5196586 7
-171.30711 131.61133 -2.4646337 7
-171.33028 132.69328 -2.5893703 7
-171.31715 132.92993 -2.6200106 7
-171.3754 133.40094 -2.4971163 7
-171.37569 133.69351 -2.5532327 7
-171.40742 134.18188 -2.5353837 7
-171.42004 134.66345 -2.540488 7
