# .PCD v0.7 - Point Cloud Data file format
VERSION 0.7
FIELDS x y z intensity
SIZE 4 4 4 4
TYPE F F F F
COUNT 1 1 1 1
WIDTH 65
HEIGHT 1
VIEWPOINT 0 0 0 1 0 0 0
POINTS 65
DATA ascii
-149.34134 -126.45299 15.616402 11.153
-148.02626 -127.77261 13.534976 10.1525
-145.23659 -134.53076 11.817477 9.1555004
-141.55722 -127.36359 10.825102 9.1564999
-137.86407 -121.08918 10.633086 9.1660004
-135.50676 -129.13554 10.581709 9.1599998
-134.00124 -126.29836 11.984474 10.146
-133.67912 -145.63066 14.624264 10.1135
-133.20949 -127.16531 8.7456217 8.1619997
-132.84091 -124.3018 11.538503 10.1425
-132.70419 -145.59889 9.832756 8.1630001
-132.54749 -124.43896 11.574363 10.131
-132.50871 -124.20598 11.44849 10.1385
-132.21104 -124.58331 11.679915 10.14825
-131.61552 -124.91182 10.123309 9.1604996
-131.94875 -120.3698 14.046759 12.1235
-131.50641 -129.60187 8.5396748 8.1625004
-131.23938 -137.45018 8.9075861 8.1674995
-131.45149 -124.96318 10.106614 9.1610003
-131.45549 -124.48128 11.579783 10.147
-131.29285 -120.50114 15.624209 13.1305
-130.85248 -137.44701 11.22176 9.1625004
-130.82906 -123.67178 11.511372 10.1505
-130.96034 -120.65221 15.410126 13.1345
-130.77054 -137.50685 9.3272762 8.1634998
-129.79503 -124.58987 8.1832094 8.1630001
-129.81935 -124.22252 9.8709574 9.1625004
-129.20337 -124.9528 11.931832 10.1615
-129.37016 -124.52317 11.868932 10.162251
-129.01344 -125.00606 11.721379 10.1585
-128.12672 -123.4996 8.2898684 8.1639996
-128.25151 -123.33282 9.7229156 9.1630001
-127.40297 -123.34368 8.3202753 8.1645002
-127.27119 -123.15583 9.6654024 9.1634998
-127.59517 -123.22112 10.047202 9.1639996
-127.53882 -123.10436 12.062684 10.164
-126.91926 -135.96111 12.872514 10.114
-126.66644 -127.74419 8.3453398 8.165
-126.77477 -127.22846 11.416844 10.1385
-126.09143 -124.04062 11.065605 9.0030003
-126.30992 -125.65955 11.531836 10.1535
-126.06548 -145.63177 15.055148 10.117
-125.87221 -124.07395 10.738952 9.1719999
-125.79092 -124.14562 11.081632 9.1759996
-125.92574 -122.86387 11.04066 10.15
-125.05685 -123.10686 7.9073811 8.1665001
-125.03333 -123.18605 8.1713018 8.1654997
-125.16611 -127.9332 10.108231 9.1610003
-124.64703 -120.87341 10.700089 10.1505
-124.14248 -138.03737 13.356484 10.1635
-123.67035 -125.58237 8.0415068 8.1660004
-123.80769 -125.59135 9.8336029 9.16325
-123.64703 -120.00067 10.378444 10.143
-123.46795 -120.50857 10.81573 10.1595
-123.05917 -120.10903 9.9669514 9.1665001
-122.77347 -120.71405 9.2876558 9.1599998
-122.39177 -121.23997 7.8343287 8.1669998
-122.05514 -121.11833 10.038428 9.1669998
-122.23856 -122.64351 11.057482 10.1605
-121.63184 -120.67007 12.331539 11.1625
-121.65472 -121.73834 12.879417 11.1655
-121.59381 -121.63358 10.986429 10.164
-120.41148 -124.2133 7.9208012 8.1695004
-120.23299 -124.16425 8.0216904 8.1689997
-120.18277 -137.48871 8.8521633 8.1674995
