# .PCD v0.7 - Point Cloud Data file format
VERSION 0.7
FIELDS x y z intensity
SIZE 4 4 4 4
TYPE F F F F
COUNT 1 1 1 1
WIDTH 1257
HEIGHT 1
VIEWPOINT 0 0 0 1 0 0 0
POINTS 1257
DATA ascii
-143.4586 124.90777 -3.2218854 5
-143.35378 125.39144 -3.2413187 5
-143.5005 125.68739 -3.2183506 0.5
-143.36142 126.04355 -3.246345 2
-143.37039 126.52035 -3.2254441 1.8
-143.42 126.96482 -3.2373991 3.4285715
-143.4695 127.37079 -3.3024423 3
-143.44681 127.86922 -3.2494998 2.6666667
-143.46864 128.12607 -3.2681339 3.25
-143.3945 128.59973 -3.2793014 1.8333334
-143.32991 128.92097 -3.2885718 2.1666667
-143.3376 129.33144 -3.2981112 2
-143.35509 129.79305 -3.30984 2.2222223
-143.28995 130.33955 -3.3105323 1.5
-143.34998 130.55894 -3.3271003 1.5
-143.45628 130.93117 -3.3272917 2.5
-143.38643 131.39124 -3.3496242 2
-143.3584 131.78787 -3.3279178 2.8888888
-143.37442 132.20572 -3.3530219 2.6666667
-143.39763 132.60881 -3.330822 0.5
-143.35703 133.02701 -3.3843479 2.7142856
-143.35622 133.47093 -3.3837895 2.5
-143.37465 133.80069 -3.392365 1.8571428
-143.45955 134.31154 -3.421828 3
-143.33868 134.61865 -3.4089303 2.7142856
-143.42232 135.04939 -3.4312015 2.6666667
-143.40294 135.44191 -3.4425733 2.5999999
-143.42267 135.81447 -3.4305077 1.6
-143.38376 136.18169 -3.4702878 3
-143.50618 136.53847 -3.4739094 3.3333333
-143.42247 136.99312 -3.4835889 3.1666667
-143.25816 137.45258 -3.4270871 1
-143.395 137.89369 -3.5054193 0.66666669
-143.26761 138.13759 -3.527637 3
-143.44017 138.67715 -3.5361645 2.25
-143.39616 138.96318 -3.5257764 1.6666666
-143.26787 139.53665 -3.5429025 3.3333333
-143.37386 139.8945 -3.5674319 2
-143.41893 140.2486 -3.5846531 4
-143.33728 140.51372 -3.5907018 2
-143.35011 141.11232 -3.3883424 3.2857144
-143.49629 141.25761 -3.3289402 5.1999998
-143.46408 141.85307 -3.5900197 2
-143.37016 142.05557 -3.5686955 2.5
-143.23193 142.57079 -3.5603061 3
-143.44859 143.39886 -3.3586271 4
-143.27205 145.13622 -3.5486579 4
-143.44807 145.40503 -3.5013003 4.5
-143.37158 145.74396 -3.3974757 4.875
-143.36131 146.56868 -3.3085196 5.6666665
-143.44691 147.03438 -3.28087 5
-143.48285 147.20949 -3.3683341 6
-143.40579 120.16463 -3.055089 2.2
-143.41356 120.63296 -3.062844 3.1428571
-143.40747 121.00035 -3.1099041 2.8
-143.39212 121.42221 -3.1084733 1.875
-143.48102 121.79668 -3.1228592 2.2
-143.40259 122.22511 -3.1007857 2.5999999
-143.44476 122.60698 -3.1138663 2.8
-143.40236 122.95756 -3.1483722 2.5
-143.38971 123.48524 -3.1642542 3.25
-143.431 123.79494 -3.1591146 2.1111112
-143.42496 124.2049 -3.1528323 3
-143.39352 124.54357 -3.1698067 1.5
-143.39278 124.99606 -3.1754019 2.625
-143.24648 125.4826 -3.169179 1
-143.30637 125.8632 -3.1726775 3.6666667
-143.33691 126.3727 -2.9597552 5
-143.26791 126.70641 -2.9463823 3.590909
-143.24942 126.93155 -2.8722725 0
-143.41631 128.01654 -3.183198 4
-143.2522 141.09314 -3.170449 2.5
-143.45216 141.35324 -2.9800551 4.1999998
-143.59912 141.63312 -3.0953546 5
-143.48515 142.36014 -2.8369658 6
-143.50394 142.4523 -2.8401387 6
-143.44815 143.26834 -2.8284233 5
-143.29472 143.87791 -3.1947849 4
-143.45612 144.10637 -2.8449867 5.5
-143.44402 147.13185 -3.005805 5.1428571
-143.35814 147.25766 -3.0047193 5.75
-143.22903 126.69833 -2.6725104 3.5
-143.44688 141.10826 -2.6469944 4.5
-143.38115 141.35745 -2.6252921 4.5714288
-143.42198 143.35184 -2.7376311 6
-143.32727 143.90872 -2.5996628 5.5
-143.5336 144.09245 -2.6012635 5
-143.4711 147.12323 -2.6062725 6
-143.38997 147.25031 -2.5537062 6.1428571
-143.5677 141.48932 -2.2708495 5.6999998
-143.57835 142.50827 -2.2828524 7
-143.40991 143.2654 -2.3253496 6
-143.26036 143.75531 -2.2094731 6.3333335
-143.39496 147.16806 -2.319366 7
-143.41148 147.33548 -2.2026789 7
-143.52025 129.32706 -1.6747701 8.0977497
-143.51625 143.31961 -1.8782384 7
-143.5843 147.41092 -1.742278 8
-143.54932 121.51141 -0.83869237 12.07475
-143.45909 121.88731 -0.8863011 10.051417
-143.51126 122.12793 -0.91960067 9.6712246
-143.37317 129.10828 -0.84834844 8.5542498
-143.4202 129.38757 -0.88334084 10.613358
-143.41963 141.3974 -0.91209775 10.197287
-143.4469 141.75606 -1.0015649 9.8523846
-143.40817 142.20047 -0.9245882 10.055344
-143.36336 142.47643 -0.98019111 10.038875
-143.41713 142.88704 -0.95845836 11.056499
-143.55725 144.16989 -1.0652628 10.0285
-143.41873 147.1608 -0.83786201 9.517375
-143.4017 147.26303 -0.99633944 8.6240501
-143.4819 120.17627 -0.53747272 10.563053
-143.28191 120.66097 -0.47013909 10.401312
-143.40118 121.40391 -0.57691199 11.487603
-143.54503 121.94517 -0.70699883 11.282561
-143.57431 122.22929 -0.78398949 11.01325
-143.46288 129.11403 -0.61043084 9.5219269
-143.42783 129.35381 -0.61733413 11.432758
-143.39641 147.13309 -0.67390865 9.0702372
-143.33084 147.28059 -0.49367225 9.6581812
-143.54485 120.11185 -0.36624169 9.6714163
-143.2025 120.70686 -0.32576808 10.0045
-143.3925 120.93605 -0.26926675 10.204351
-143.46065 121.45171 -0.18663152 11.239132
-143.47205 121.74812 -0.15492913 10.610546
-143.3672 122.1282 -0.076598898 12.064667
-143.56306 127.57059 -0.065426685 12.04525
-143.5078 127.75061 -0.14494357 10.592625
-143.49641 129.10831 -0.34088126 10.0555
-143.44739 145.95772 -0.19035199 8.158
-143.34615 146.19727 -0.28995138 8
-143.41219 147.16965 -0.1608521 10.684208
-143.38542 147.29639 -0.20098925 9.8749275
-143.41203 120.10357 0.038347535 8
-143.56607 121.56622 0.01172023 10.1125
-143.44556 121.86693 0.1481563 11.027575
-143.41176 122.11582 0.17739832 11.900414
-143.47443 126.10847 0.37934285 10.106
-143.37662 126.42587 0.38431185 9.0979996
-143.55223 127.56303 0.11735002 11.277063
-143.56602 127.67837 0.14796723 12.394944
-143.48524 129.08922 0.29947028 9.5019999
-143.43442 129.39986 0.30294803 11.229061
-143.38536 129.67007 0.34456143 9.1357498
-143.28276 145.94527 0.29828334 8.4483328
-143.42889 146.05992 0.34016806 13
-143.40942 147.17265 0.16044229 11.423574
-143.3839 147.27934 0.19552898 11.022054
-143.39874 122.08527 0.43107232 12.55875
-143.58578 122.66815 0.68472278 11.056
-143.56532 122.84872 0.72284108 10.14875
-143.39705 125.93964 0.67572898 10.738667
-143.42873 126.22479 0.64676702 12.340002
-143.43259 126.44906 0.58427477 12.083099
-143.48108 129.11786 0.53919035 11.521459
-143.39117 129.41344 0.53347802 12.661513
-143.3531 129.68968 0.58037639 11.49325
-143.3967 145.89821 0.59573549 11.884901
-143.36919 146.02542 0.63955951 13.362893
-143.56956 146.79678 0.56440836 12.0755
-143.43538 147.07819 0.50844347 12.520375
-143.39856 147.20935 0.49281573 12.6286
-143.57788 122.5987 0.86014891 14.006001
-143.57091 123.02111 0.93981427 13.1005
-143.39984 125.95509 0.93181789 11.502874
-143.367 126.1784 0.94184101 11.66711
-143.57336 126.4072 0.99566334 13.111
-143.44881 128.1272 1.1217197 11.104
-143.42841 145.89687 0.92423898 13.035071
-143.42787 146.03081 0.96052927 13.571428
-143.43839 120.41109 1.3759493 9.1785002
-143.44092 121.92532 1.4242302 9
-143.44556 122.29224 1.420781 11.913599
-143.48329 122.50546 1.4327189 11.771682
-143.20206 126.09297 1.2331945 13.115
-143.51064 127.46902 1.5610474 12.552999
-143.48956 127.90014 1.3884864 11.0715
-143.41057 128.18045 1.399792 11.980036
-143.32964 128.46976 1.5196428 10.2775
-143.40308 145.96503 1.3093835 14.5375
-143.46237 147.12021 1.425269 11.082
-143.40733 147.2731 1.4698954 12.671333
-143.52022 120.14509 1.8128223 11.207143
-143.44342 120.4939 1.9799751 15.094
-143.39601 120.94659 1.9836766 9.1420002
-143.32932 121.33968 1.8427889 11.58075
-143.35147 121.83437 1.6686811 14.1015
-143.45338 122.26682 1.7847564 11.476834
-143.39363 122.48991 1.7580643 12.050906
-143.58072 124.16348 1.691743 11.1055
-143.47119 127.40295 1.7764605 12.054725
-143.39137 127.77546 1.6854438 13.05575
-143.29771 128.13828 1.711987 13.252813
-143.22466 128.54507 1.6414572 12.05725
-143.40826 147.24805 1.6388241 12.579
-143.4151 147.60823 1.9826828 9
-143.5643 120.22968 2.0152781 11.612499
-143.52744 120.66733 2.3355205 11.5015
-143.3587 121.00304 2.1503034 10.892333
-143.39148 121.39548 2.2271576 10.846875
-143.46819 121.87467 2.245585 13.7795
-143.42456 122.23793 2.2060215 12.733955
-143.43942 122.5275 2.1623132 12.65277
-143.56964 123.57719 2.3338208 12.109
-143.47388 123.75241 2.3399813 13.002501
-143.47752 147.43658 2.2668912 12.903715
-143.53513 147.61154 2.2406218 10.13025
-143.50728 148.52213 2.2864761 9
-143.45221 120.66386 2.6162064 12.472799
-143.30635 120.97561 2.6246233 11.65505
-143.36217 121.40376 2.5207086 13.408222
-143.42261 121.92818 2.5391996 13.089701
-143.47971 122.3913 2.7794664 14
-143.41588 122.61085 2.6471293 12.852417
-143.39812 122.9446 2.6385994 12.888
-143.43053 123.36897 2.7863443 13.610001
-143.46965 123.7524 2.4529495 14.744166
-143.53468 146.97751 2.6516433 9
-143.43326 147.43309 2.601578 12.541
-143.49786 147.71652 2.6296337 12.540751
-143.44807 120.61167 3.001159 12.669312
-143.36841 120.90584 3.0710983 12.5025
-143.35277 121.57235 3.0896482 10
-143.22159 121.81693 3.1027522 10
-143.47853 122.31 3.1509399 14.116
-143.39706 122.63033 2.9971602 13.6
-143.36824 122.99271 2.8632584 14.623301
-143.47633 123.35329 3.0099533 14.113874
-143.37619 126.55108 3.0895016 13.777874
-143.52835 128.21942 3.1418355 13.069833
-143.49942 128.58005 3.0112779 15.003
-143.41341 120.47551 3.2234197 15.003
-143.50198 121.48029 3.3880627 13.55725
-143.42311 122.3806 3.2781458 14.61625
-143.38686 122.60541 3.3892362 13.495346
-143.45381 123.03925 3.4318933 14.234643
-143.51825 123.50337 3.2123621 15.118
-143.41856 126.37949 3.2799006 14.776334
-143.44162 126.61402 3.4557564 13.084777
-143.43706 128.25105 3.3143158 14.738167
-143.53543 121.69132 3.7209561 13.891001
-143.4249 122.22017 3.8533864 12.6781
-143.37723 122.57531 3.7583127 13.324125
-143.33199 122.94979 3.7604451 13.361959
-143.5314 123.41134 3.8228562 13.608
-143.55424 128.47127 3.6151669 10
-143.51884 121.90329 4.0872908 10.726001
-143.53421 146.2607 4.1060076 9.0019999
-143.2341 146.04182 5.1823845 11.0875
-143.39795 148.0002 4.8670816 10
-143.44904 145.46649 5.4154224 12.575667
-143.56485 145.8645 5.5529881 15.083
-143.3763 146.23741 5.3698359 13.390167
-143.3443 146.46497 5.3368502 12.543625
-143.38434 145.44832 5.7097363 13.5425
-143.49115 145.75902 5.8643079 12.217799
-143.33372 146.11479 5.7151885 13.722833
-143.43788 147.73108 5.6331081 10
-142.93303 124.87527 -4.0449662 4
-142.91527 127.45306 -3.940901 4
-143.13097 138.70203 -3.6229188 6
-142.97728 140.97054 -3.6148398 2.6666667
-142.94498 141.32191 -3.6104684 4
-142.97943 141.82301 -3.6416168 3.8333333
-142.96169 142.10855 -3.6104438 3.3333333
-143.01013 142.65375 -3.6267674 4.5
-142.81104 143.07599 -3.6342275 5
-142.97798 143.46114 -3.6385925 2.3333333
-143.05319 143.74191 -3.6623094 1
-143.02502 144.29089 -3.6494377 2.5
-142.98601 144.62927 -3.6796331 3
-143.07632 145.16492 -3.7058444 3
-142.96016 145.26323 -3.6436775 4.6666665
-142.99594 124.51241 -3.2075038 1.75
-143.06917 124.94997 -3.2444112 5
-142.97986 125.45329 -3.2206473 1
-143.14818 125.90753 -3.2151418 1
-143.00633 126.16917 -3.2356548 3
-142.92868 126.62457 -3.2359688 1.8333334
-142.89717 126.91228 -3.2295146 2
-142.92346 127.35632 -3.2636755 2
-143.05569 127.73089 -3.2563462 1.6666666
-143.01852 128.18121 -3.2857761 2.8
-142.94896 128.67792 -3.2832425 2.5714285
-142.98239 129.00351 -3.2993646 2
-143.0153 129.27841 -3.2990959 2
-142.89345 129.75491 -3.3097427 2.5
-143.01305 130.10933 -3.3069332 2
-143.01839 130.6033 -3.3320775 1.6
-143.0224 131.1236 -3.3011296 2.3333333
-142.93904 131.38344 -3.3435678 3.2222223
-142.91843 131.72118 -3.3589835 3.25
-142.93286 132.27621 -3.3419421 1.8571428
-142.93611 132.64993 -3.3923285 4
-142.91185 133.05214 -3.3802497 2.5
-143.03357 133.30846 -3.3752632 1.6666666
-142.96606 133.80876 -3.4021518 2.3333333
-143.03036 134.19756 -3.4204323 4
-142.93898 134.6152 -3.4278276 2.4444444
-142.97281 134.8791 -3.4292767 2.5
-143.09566 135.38994 -3.447401 2.2857144
-143.19254 135.73621 -3.469141 5
-142.94426 136.34212 -3.4483211 1.3333334
-142.94647 136.54898 -3.4353724 1.5
-143.00859 136.97318 -3.4753003 2.4285715
-142.89084 137.34683 -3.5081341 3.5
-142.97934 137.79593 -3.5334084 2.75
-142.96761 138.07565 -3.5229583 1.8
-142.95007 138.65936 -3.539 2.25
-142.99339 139.00211 -3.5506606 2.7142856
-142.96614 139.46854 -3.5514965 3.2
-143.00603 139.79448 -3.5662596 2.3333333
-142.96594 140.24382 -3.5610301 2.8571429
-142.9541 140.56941 -3.5839856 2
-142.90137 141.01163 -3.5106826 2.2
-142.97955 141.29819 -3.3745761 5
-143.1134 142.60895 -3.4756522 3.3333333
-143.01984 143.25395 -3.5919113 2
-142.85663 143.9903 -3.3974762 2.5
-142.87906 144.08356 -3.3437848 3
-142.85378 144.62961 -3.3530674 6
-142.86966 145.1577 -3.5524402 4
-143.0513 145.38081 -3.5078607 4.5
-142.95731 145.76941 -3.3778701 4.75
-143.16916 146.72774 -3.326721 5
-142.85287 146.86133 -3.3410201 5
-143.02663 120.20013 -3.0757654 3
-143.05937 120.59436 -3.075865 2
-142.94595 121.01807 -3.0943646 3.5
-143.06067 121.38633 -3.1247134 2.1428571
-143.15991 121.79816 -3.109926 2.75
-143.11305 122.18714 -3.1099186 2.8333333
-143.00046 122.62174 -3.1364539 1.75
-142.96855 122.92041 -3.1292839 3.5
-142.9716 123.3653 -3.1574929 2
-143.03215 123.73206 -3.1630082 2.3
-142.93745 124.18247 -3.1562889 3
-143.08026 124.55931 -3.1674831 1.5
-142.95801 125.00674 -3.1798048 2.3333333
-143.01485 125.48619 -3.1575017 2.5
-142.91928 125.80961 -3.1903229 3.6666667
-143.16028 126.62439 -2.9163191 4
-142.89525 127.58547 -3.1866679 4
-143.16725 127.78486 -3.1865604 4
-142.90906 141.17285 -2.9162855 5
-143.00638 141.27342 -3.0022621 6.75
-142.94893 143.91449 -2.9513011 4.125
-142.85956 144.12975 -2.8315368 4.75
-142.83644 144.42041 -2.8731253 7
-143.04715 147.13063 -3.1025159 5
-143.02623 147.25305 -2.9257376 5.1666665
-143.19749 126.64236 -2.7185194 5
-143.1852 141.14412 -2.5314243 5
-143.03156 141.30545 -2.5274327 4.5999999
-143.14684 142.5407 -2.7722831 6
-142.9314 143.95494 -2.5548489 5.3800001
-142.87781 144.15277 -2.4260597 5.8928571
-143.04713 147.10182 -2.5693884 6
-142.99814 147.26578 -2.5270367 6
-142.95207 130.42581 -2.2507138 7
-143.1795 142.62566 -2.2588451 7
-142.88843 143.94098 -2.0737808 6.8333335
-142.81927 144.07687 -2.20997 6.3333335
-142.91084 147.40329 -2.1480007 7
-142.85744 142.75273 -1.6397852 8.0865002
-142.85435 143.18741 -1.724902 8.0860004
-142.87088 143.37248 -1.6480886 8.0860004
-142.9986 147.31493 -1.7699754 7.8275161
-142.90173 141.86429 -1.2253907 8.0015001
-143.02008 142.02859 -1.2817532 8.0885
-142.80493 143.08719 -1.4834673 9.0625
-142.80743 143.70703 -1.4751303 9.0495005
-142.88582 144.23215 -1.4010931 9.0535498
-143.01855 144.60606 -1.2706801 8.0298338
-143.06114 147.31969 -1.3410587 8
-142.99966 141.46291 -1.0102789 9.5457191
-142.99522 141.72829 -1.0509948 9.744626
-142.97002 142.18777 -1.0394468 10.07305
-142.99455 142.46588 -1.06576 9.0080004
-143.09436 147.15005 -0.90070933 9.0788746
-142.99182 147.28886 -0.94568479 9.0266666
-143.05997 120.78766 -0.46356726 9.3369999
-142.9621 120.99742 -0.4699237 11.64725
-143.12482 121.29032 -0.45363623 12.294672
-143.17874 129.36888 -0.47738278 12.053249
-142.99506 147.12442 -0.67222351 8.785821
-142.97116 147.26756 -0.5800463 9.8157997
-143.14984 120.73633 -0.2109523 10.825929
-143.06746 121.002 -0.30497503 11.557269
-143.1217 121.26267 -0.30811402 10.095875
-143.02388 129.76688 -0.14435031 8.1709995
-142.92178 145.99475 -0.34002337 8.1560001
-143.05486 146.19724 -0.30908102 8
-142.98299 147.16092 -0.11875125 10
-142.99944 147.30925 -0.1785046 9.8802319
-143.10318 122.16577 0.18911712 13.089
-143.09288 129.40958 0.3610642 12.60075
-143.13187 129.65662 0.39384317 10.1
-143.01047 146.04543 0.29184863 10.634
-142.987 147.18117 0.12190218 10.518875
-142.98843 147.31308 0.19968227 11.577021
-143.07849 125.87178 0.52237457 9.60075
-142.9897 126.14214 0.73315066 12.073611
-143.07866 126.46465 0.6644845 11.05475
-143.05713 129.47614 0.60059988 12.290093
-142.98024 129.76457 0.62007129 12.917739
-142.97989 145.89296 0.59200019 12.382011
-142.97491 146.02335 0.55025923 12.307693
-143.1039 146.74274 0.59828848 14.064
-143.03979 147.08066 0.49217814 12.917425
-142.89009 147.26042 0.48975959 13.5
-143.04453 125.9039 0.99828368 11.00175
-142.99783 126.18295 0.95043629 11.931894
-143.16492 126.42737 0.99695915 14.10675
-143.09355 129.47498 0.90552574 12.055624
-142.96844 129.74791 0.96598035 13.354437
-143.00783 130.03093 0.94752824 9.0015001
-142.96916 145.90744 0.95585394 12.048829
-143.009 146.02406 0.9055683 12.625
-142.95544 121.43505 1.5034509 12.281938
-142.95334 121.86481 1.4402921 12.094388
-143.04146 122.2158 1.4530305 11.401125
-142.94858 122.72301 1.5050168 12.043167
-142.99883 122.86258 1.5220255 11.558001
-143.16013 126.21297 1.2159363 15.00425
-143.04985 128.26082 1.4972355 11.49895
-143.03233 128.47925 1.4470469 10.68585
-142.96895 121.41129 1.7004071 10.613333
-142.93054 121.76116 1.6866075 12.250828
-143.02032 122.16521 1.7448647 13.002501
-142.93602 122.6341 1.7737703 12.907661
-142.84521 122.88598 1.6396459 13.115
-142.95746 128.29326 1.7960696 13.213614
-142.94197 128.51929 1.713702 13.141148
-143.00005 120.78329 2.3115447 13.002
-142.99567 121.04861 2.2529974 11.908958
-142.98184 121.39417 2.247889 11.856824
-142.99756 122.23764 2.1745379 13.024667
-142.98053 122.63994 2.1986632 11.6304
-143.03992 122.86145 2.3293819 13.581749
-143.02794 120.6823 2.6354029 13.065214
-143.01375 121.00179 2.5904281 11.864417
-142.97424 121.38487 2.5915284 12.37845
-142.95718 121.84563 2.6350627 12.561909
-142.96881 122.28345 2.6653214 11.348625
-142.9272 122.61531 2.5418525 13.410606
-142.95921 122.88663 2.5469003 13.556
-143.08778 120.59884 3.0221148 12.8479
-143.05267 121.05044 2.9581904 12.383583
-142.96103 121.35087 2.9455366 13.526047
-142.91545 121.87099 3.0141566 14.372666
-142.95827 122.18925 2.9446583 13.371627
-143.04393 122.5715 2.9442213 12.985294
-143.1761 122.83269 2.8780482 15.1145
-143.0542 122.28122 3.3075588 13
-143.03711 122.57949 3.4176261 14.172115
-143.11032 122.94304 3.5124512 12.543375
-143.14856 122.34038 3.9446058 13
-143.04478 122.61722 3.8928146 13.588444
-143.04974 122.98434 3.7700787 13.152875
-143.19589 122.55398 4.0342755 15.002
-142.99991 123.02217 4.0599065 12.002
-143.15811 146.3632 5.5085101 12.000375
-143.14291 146.41151 5.2258186 14.001
-142.63432 125.69498 -3.9560935 4
-142.70526 139.99359 -3.6010153 1
-142.49374 140.67023 -3.6008096 1
-142.60577 141.11353 -3.6312203 6
-142.64885 141.3324 -3.6098821 2.3333333
-142.66252 141.85764 -3.6301959 2.5999999
-142.55142 142.15939 -3.6189022 2.25
-142.6776 142.68159 -3.6346037 1.5
-142.58643 142.90625 -3.6475406 4
-142.78191 143.556 -3.6688442 3
-142.57007 143.68387 -3.6744022 2.5
-142.73386 144.27393 -3.6248059 5
-142.70296 144.61024 -3.6682534 4.1999998
-142.64932 145.02605 -3.6922569 5
-142.59245 124.25623 -3.2177134 5
-142.61862 124.56076 -3.2229621 2
-142.55742 125.06505 -3.2218688 4
-142.51753 125.36063 -3.223033 0
-142.64835 125.81345 -3.2247608 2.3333333
-142.60526 126.14683 -3.2431631 2.5999999
-142.54897 126.63936 -3.2226496 2.25
-142.6158 126.97791 -3.2398698 1
-142.54286 127.42319 -3.2634838 2.4444444
-142.64201 127.75919 -3.2352459 2
-142.53546 128.23248 -3.2866397 2.4000001
-142.52354 128.67789 -3.2989216 3
-142.528 128.98604 -3.2822397 1.6666666
-142.54515 129.42819 -3.3090491 2.5
-142.57939 129.8356 -3.3217266 2.7142856
-142.55084 130.56894 -3.3221481 2.4000001
-142.69652 130.97525 -3.3075325 2.75
-142.5744 131.33769 -3.3413384 2.5714285
-142.67711 131.90041 -3.3579934 3.4000001
-142.61467 132.24512 -3.3692985 2
-142.53084 132.51013 -3.3740716 2
-142.57385 132.92728 -3.3681417 2
-142.56458 133.32329 -3.3780208 2.5999999
-142.56262 133.82573 -3.4153996 3
-142.64746 134.18727 -3.420527 3
-142.65102 134.59091 -3.4218287 2.2
-142.709 134.86243 -3.4822543 3
-142.64528 135.49957 -3.4631574 2.25
-142.5679 135.78174 -3.4283803 2.25
-142.5556 136.25809 -3.4772556 2.8
-142.64027 136.61316 -3.4952304 3.3333333
-142.58105 137.00726 -3.490664 2.7777777
-142.56131 137.39951 -3.4806447 2.75
-142.58492 137.79832 -3.5070097 2.3333333
-142.69054 138.20457 -3.5125558 3
-142.64146 138.66966 -3.5375559 2.1666667
-142.57175 138.95009 -3.5268021 1.25
-142.57309 139.4351 -3.5482566 2.5
-142.5408 139.69171 -3.5570223 2.25
-142.44086 140.23804 -3.573741 2.5
-142.54927 140.54985 -3.5995321 3
-142.68884 141.09171 -3.5395429 4.6666665
-142.59856 141.44341 -3.370892 3.5333333
-142.7195 141.80472 -3.5918632 3
-142.59518 142.05643 -3.5878825 3
-142.49367 142.59833 -3.3911483 3.6666667
-142.56125 142.9081 -3.3728189 3.8333335
-142.56157 143.49229 -3.4218957 4
-142.40244 143.62599 -3.5262389 1
-142.6779 144.10432 -3.3089991 3
-142.66887 144.4485 -3.4662135 5
-142.56273 144.90338 -3.312788 6
-142.66931 145.47649 -3.4779043 4.5
-142.58217 145.71622 -3.3104982 4
-142.5092 146.69693 -3.2186782 4
-142.58197 147.27954 -3.2349744 4
-142.65437 120.24329 -3.0758069 3.25
-142.66074 120.60313 -3.0808787 2
-142.56847 121.04041 -3.0896163 3.6666667
-142.66173 121.33273 -3.1165018 2.25
-142.66042 121.78041 -3.1231844 3.2
-142.65147 122.16071 -3.1094458 2.8333333
-142.62129 122.57487 -3.1305151 1.8
-142.77751 122.91162 -3.0999298 4
-142.49455 123.44389 -3.1740499 2.25
-142.57774 123.74184 -3.1547556 2.8
-142.49202 124.17557 -3.1610484 3
-142.67076 124.61705 -3.1633806 2
-142.53175 124.96761 -3.1879258 2.5
-142.61177 125.38277 -3.1584978 2.5
-142.52232 125.60358 -3.1930218 4
-142.61794 127.38962 -3.1873405 4
-142.58177 141.50211 -2.9925334 3.0720723
-142.53625 141.60661 -2.8095295 3
-142.48592 142.70578 -2.9880612 5
-142.62326 142.94577 -3.0600388 5
-142.52377 143.47977 -3.0642338 4.5
-142.69363 143.9799 -2.9249215 4
-142.68684 144.22343 -3.0793777 4.75
-142.478 145.58734 -3.126965 5
-142.44568 145.77972 -3.0329056 5.5999999
-142.63094 147.12958 -2.960536 5
-142.65852 147.27374 -2.9332087 5
-142.54947 141.52963 -2.5465398 4.7931032
-142.50169 142.71848 -2.5145555 6
-142.61499 142.95354 -2.6196594 6
-142.60545 143.53644 -2.7569804 5
-142.4471 143.98872 -2.6173503 5
-142.62064 144.17921 -2.5596557 5.5555553
-142.55763 144.48497 -2.4672532 5.5
-142.65666 147.12448 -2.6398144 6
-142.61002 147.27075 -2.5663767 6
-142.50664 128.88417 -2.2050555 7
-142.55205 141.53334 -2.1736059 6.3735628
-142.51003 141.60562 -2.1753151 5.875
-142.5878 142.77452 -2.150032 7
-142.5172 142.8546 -2.1315932 7
-142.65536 144.15886 -2.139282 6.6923075
-142.57341 144.45848 -2.1267867 6.7142859
-142.62083 147.40565 -2.1405318 7
-142.51237 147.61823 -2.1455994 7
-142.54651 141.52959 -1.7101957 8.0297689
-142.5061 141.62013 -1.7848883 7.7608747
-142.76334 142.58356 -1.7177505 8.0865002
-142.69424 142.95328 -1.6891991 8.0616674
-142.78769 143.91463 -1.673907 8.0865002
-142.67311 144.34247 -1.7341758 7.9486661
-142.57422 144.44049 -1.7452615 8.0206251
-142.68924 147.35379 -1.8214948 7.6858749
-142.52818 141.48167 -1.4019831 8.9301567
-142.56239 141.66248 -1.3935324 9.2040567
-142.75894 142.16287 -1.4901791 9.0646868
-142.77467 142.54167 -1.4917476 9.0587502
-142.78876 142.96907 -1.4766196 9.0591249
-142.76947 143.4438 -1.4654851 9.0616875
-142.7589 143.76509 -1.3752496 8.7047501
-142.62967 144.33974 -1.4644316 9.0460625
-142.5703 144.44038 -1.4418527 8.8566246
-142.67484 144.85608 -1.4863344 8.086875
-142.64056 147.35878 -1.2268864 8.6913338
-142.54199 141.47615 -1.1071367 10.091778
-142.61253 141.74524 -1.1352831 10.196893
-142.66441 142.01503 -1.1247464 9.085
-142.78868 142.62231 -1.1331367 10.0225
-142.58894 147.19969 -1.1212044 8.1774998
-142.67529 147.27844 -0.97615069 8.9901161
-142.76826 120.86212 -0.48398912 9.1195002
-142.60173 147.14284 -0.68171167 9.2782631
-142.59236 147.26315 -0.58999223 10.080525
-142.71329 146.12175 -0.29270852 8.0815001
-142.59489 147.17528 -0.14954671 9.6359005
-142.59332 147.30806 -0.17634106 10.002323
-142.52455 145.98334 0.30594617 10.083
-142.52705 146.11853 0.28025061 12.019
-142.4846 147.19205 0.38523364 11
-142.5948 147.31412 0.16589378 11.511461
-142.78957 129.55408 0.71627539 13.61075
-142.73711 129.86354 0.7004289 12.539438
-142.60799 145.90858 0.57770783 12.386826
-142.62433 146.04706 0.55586571 12.2085
-142.59857 146.94331 0.48089823 13.279343
-142.60989 147.26602 0.45985392 13.581143
-142.60213 145.9174 0.88395995 13.202999
-142.59686 146.04039 0.92454928 11.375
-142.78168 121.45275 1.3969451 11.11225
-142.72569 121.7541 1.4900413 12.46455
-142.73254 122.59186 1.4680985 11.018167
-142.78658 128.19492 1.5411956 11.101
-142.6852 128.62247 1.5170685 9.5887508
-142.62903 146.00484 1.2989303 15
-142.74207 121.49162 1.7114686 12.040166
-142.68761 121.76727 1.7475364 13.413877
-142.75052 122.36744 1.7169236 12.1145
-142.70747 122.65485 1.7510899 13.046417
-142.56107 122.8695 1.804283 14.1095
-142.68896 128.33667 1.7315055 14.0575
-142.6185 128.6131 1.8077515 12.577898
-142.60635 128.87543 1.8479996 12.870251
-142.67055 121.09476 2.2444994 12.1038
-142.75708 121.39168 2.2920358 12.50325
-142.75916 122.1225 2.19875 13.5575
-142.77579 122.65498 2.2242002 12.61375
-142.6375 128.59421 2.0942535 12.666
-142.68787 121.07746 2.5246706 13.5015
-142.73962 121.47461 2.4833624 14.036334
-142.71321 122.68401 2.5504696 12.801687
-142.6105 122.87361 2.6499667 15.1135
-142.7074 121.5502 2.8838127 14.1205
-142.71327 121.90218 2.9821393 13.4248
-142.77028 122.2216 2.9531808 14.61725
-142.78461 122.84016 3.6989503 14
-142.05408 145.24908 -4.5776253 7
-142.25079 140.02582 -3.6032321 1
-142.09789 140.69194 -3.6032069 5
-142.21996 141.04431 -3.6160743 3.3333333
-142.21133 141.37784 -3.6193788 2.25
-142.17462 141.84207 -3.6399293 2.25
-142.29211 142.59093 -3.6165955 2
-142.10905 143.00517 -3.625891 2
-142.25272 143.46193 -3.6390204 3
-142.29376 143.6534 -3.6283574 5.3333335
-142.09198 144.646 -3.6741288 4
-142.33691 145.28163 -3.6406646 5
-142.05296 123.7238 -3.2010565 5
-142.19728 124.2682 -3.2100232 3.3333333
-142.17699 124.47614 -3.2133443 0
-142.2415 125.16133 -3.2038279 2
-142.3768 125.27678 -3.2288558 0
-142.27271 125.84978 -3.2272942 2
-142.20317 126.13466 -3.241869 1.5
-142.1391 126.61524 -3.2288868 2
-142.18784 127.11997 -3.2935686 4
-142.16225 127.39942 -3.2597783 2.4444444
-142.13206 127.8261 -3.2885966 2.2
-142.18948 128.14935 -3.2687433 2.8333333
-142.03931 128.71999 -3.3015583 0
-142.10406 128.88287 -3.2940693 1.5
-142.2184 129.28755 -3.3064818 2.5
-142.0813 129.83051 -3.3162014 1.5
-142.13681 130.27046 -3.3095474 3.6666667
-142.18054 130.54401 -3.297401 2.2
-142.18913 131.01088 -3.3515699 3.25
-142.04538 131.36816 -3.3540006 2
-142.29753 131.72241 -3.3396091 2.5
-142.20755 132.16721 -3.3582308 1.6
-142.19612 132.51575 -3.3588061 1
-142.19035 133.02507 -3.3868444 3.8
-142.11636 133.34486 -3.3988428 2.4000001
-142.22255 133.76129 -3.4086611 2
-142.08986 134.31816 -3.4785621 5
-142.20634 134.57722 -3.463027 3.5
-142.25613 134.96078 -3.4439981 2.5714285
-142.20142 135.43497 -3.4564085 2
-142.15761 135.74464 -3.4571488 2.8333333
-142.21028 136.25484 -3.4680278 2.75
-142.30432 136.52655 -3.4775395 2.3333333
-142.22923 136.99826 -3.4776928 2.1666667
-142.17355 137.28058 -3.414928 0
-142.25459 137.75667 -3.4821093 1.6666666
-142.29878 138.03804 -3.4287589 0
-142.16478 138.52452 -3.5057011 2.3333333
-142.16505 139.03224 -3.5537417 2.3333333
-142.13275 139.52765 -3.5623884 3.5
-142.16591 139.80884 -3.575393 1.5
-142.10846 140.22804 -3.5891476 4.25
-142.30048 140.59004 -3.5792675 1.6666666
-142.28128 140.98418 -3.5834928 1
-142.1873 141.34883 -3.5951786 1
-142.12772 142.14404 -3.2788887 1
-142.05421 142.48779 -3.2505388 1
-142.23289 143.53851 -3.4351201 4
-142.15657 143.64372 -3.425354 2.6458333
-142.3916 144.6506 -3.2064483 6
-142.31407 145.00993 -3.2124958 6
-142.0542 145.43913 -3.4955494 4.5
-142.10582 145.73 -3.3263309 5.6666665
-142.30862 146.13144 -3.2866809 4.5
-142.33482 146.59077 -3.2544765 4
-142.22534 146.82928 -3.2422633 4
-142.38422 147.28085 -3.2069163 4
-142.23683 120.29918 -3.0528407 4
-142.26587 120.64284 -3.1003881 1
-142.18793 121.14388 -3.1037498 2.5
-142.20978 121.38921 -3.1170194 2.1428571
-142.27733 121.7947 -3.1218729 3.3333333
-142.29094 122.2203 -3.1234033 2.4000001
-142.19234 122.56042 -3.1404133 1.8333334
-142.22818 122.90479 -3.1419218 3.3333333
-142.2063 123.46403 -3.1723766 2
-142.18279 123.8035 -3.1610503 2.5714285
-142.23389 124.10594 -3.1601539 3
-142.22098 124.63544 -3.1732326 1.8571428
-142.05917 125.10254 -3.1992371 2
-142.12633 125.31936 -3.1719224 3
-142.37086 125.72829 -3.186939 3
-142.01158 127.04498 -3.1847987 4
-142.31665 127.23491 -3.1839468 4
-142.11938 128.15851 -2.9033074 4
-142.25659 128.94215 -2.8297119 4
-142.26054 129.45554 -2.8141215 4
-142.07816 142.27412 -2.9203334 2.6666667
-142.1293 142.64867 -2.9851739 2.9333334
-142.10228 142.91919 -2.9255517 3.5
-142.38116 143.51422 -3.0708461 4.5
-142.23589 143.66524 -2.9671164 3.6666667
-142.19388 145.77681 -3.0498323 4.909091
-142.35483 147.13768 -2.9606721 5
-142.15132 126.78612 -2.7922814 4
-142.13423 127.32899 -2.7857714 4
-142.07039 127.95721 -2.4269831 5
-142.00426 129.02118 -2.4161618 5
-142.10443 142.27881 -2.6179295 4
-142.11528 142.68221 -2.5500684 4.6999998
-142.25073 142.92824 -2.5251186 5.3333335
-142.16531 143.71536 -2.7504869 5
-142.34492 147.15523 -2.4818842 6
-142.26685 147.30415 -2.5674264 6
-142.12312 126.84962 -2.3245811 5
-142.09718 127.40659 -2.3339856 5
-142.02681 129.64461 -2.0042012 6
-142.11685 142.68309 -2.2418833 6.0571432
-142.22169 142.99455 -2.2429783 6.3333335
-142.21344 144.08754 -2.3149672 6
-142.10478 147.48402 -2.1690667 7
-142.11694 126.93377 -1.8564035 6
-142.06848 127.45464 -1.878056 6
-142.04964 127.94533 -1.9800576 6
-142.08482 144.41853 -1.6234094 8.0082502
-142.2235 147.32799 -1.7611885 7.8513336
-142.25195 141.4771 -1.4057541 9.1135778
-142.22757 141.68333 -1.3084471 9.1196623
-142.12802 142.06499 -1.2421087 8
-142.1162 142.89452 -1.5181308 9.0550833
-142.15689 144.37732 -1.4721061 9.0409641
-142.16623 144.40808 -1.4970173 9.052
-142.00427 147.3492 -1.3550214 9
-142.31281 141.58775 -1.1515255 11
-142.19426 141.89032 -1.1654443 10.537437
-142.14342 142.04448 -1.1100112 11.0545
-142.23952 147.13725 -0.83762395 8.1794996
-142.18762 147.27095 -0.94323504 9.7983847
-142.1676 147.17126 -0.69237715 8.9423122
-142.16664 147.26807 -0.59555221 10.143537
-142.19406 146.02248 -0.2880035 8.1580992
-142.13376 147.1534 -0.25080648 8.5714283
-142.19299 147.32222 -0.19670394 10.36855
-142.22723 145.93329 0.11362238 8.1754999
-142.18907 146.18184 0.22839732 12
-142.35202 147.11563 0.27267149 13.53775
-142.19099 147.32314 0.18773849 11.556715
-142.1946 145.91893 0.58318335 12.863711
-142.25441 146.05034 0.58361375 13.357179
-142.14053 146.91278 0.46145588 14.033299
-142.22801 147.2612 0.46322867 13
-142.2476 145.93045 0.91464514 13.390611
-142.21893 146.06882 0.97090793 13.000046
-142.37665 128.6765 1.8540361 12.0005
-142.37949 128.81526 1.6546814 11.0995
-141.90952 140.01562 -3.6007178 1
-141.99208 140.58975 -3.605191 4
-141.88428 140.96461 -3.6356709 3.25
-141.99037 141.40939 -3.6299398 4
-141.65773 141.91235 -3.6491015 2
-141.84064 142.25519 -3.6323147 2.75
-141.75969 142.61142 -3.6296675 3.5
-141.97093 143.52484 -3.6303561 3
-141.89198 143.65628 -3.6335125 1
-141.64742 144.46902 -3.6582334 4
-141.7086 144.91545 -3.6798728 4
-141.67554 145.28099 -3.6427598 4
-141.64815 124.38277 -3.2106099 1
-141.99913 125.15406 -3.2035673 1
-141.98845 125.35152 -3.2274303 0
-141.84055 125.87069 -3.2188351 1.3333334
-141.69815 126.14771 -3.227298 5
-141.81615 126.52295 -3.233304 2.5999999
-141.93736 127.0092 -3.2868977 4.5
-141.76141 127.36758 -3.2613881 3
-141.70848 127.83192 -3.2631719 3.5
-141.71608 128.0415 -3.2761033 1
-141.92897 128.51224 -3.263984 3
-141.91946 128.9032 -3.3029563 2
-141.93634 129.48552 -3.3184068 0
-141.75658 129.79088 -3.3307195 4
-141.75078 130.14105 -3.2566223 3
-141.81992 130.61377 -3.3438354 1.8333334
-141.96278 130.92749 -3.3636432 4
-141.95662 131.81795 -3.3843031 3.3333333
-141.76144 132.65041 -3.3921697 4
-141.89777 132.96642 -3.3998227 3.6666667
-141.81197 133.48825 -3.4907951 5.5
-141.7859 133.79362 -3.4511957 2.5
-141.77531 134.1825 -3.3986464 1.8
-141.84207 134.5417 -3.4234562 2
-141.79604 135.00307 -3.4490173 2.6666667
-141.80612 135.32497 -3.4593501 0.66666669
-141.69014 135.72679 -3.4123871 0
-141.75395 136.12862 -3.420404 0.66666669
-141.78902 136.58694 -3.4621651 1.25
-141.79294 136.98868 -3.4780564 2.5
-141.73251 137.39032 -3.4819491 2.5
-141.7807 137.81955 -3.4967413 1.6
-141.72989 138.183 -3.5016251 2
-141.74672 138.6021 -3.5250227 2
-141.76443 139.02307 -3.5318844 1.75
-141.78532 139.41881 -3.5502808 2.5
-141.83366 139.74388 -3.5647173 2
-141.97411 140.16522 -3.5711884 3
-141.81752 140.51115 -3.5799296 2.5
-141.90172 140.88065 -3.5735624 2
-141.82526 141.33203 -3.5897617 1.5
-141.7117 141.72049 -3.5949318 2
-141.69017 142.30496 -3.2928855 1
-141.98747 142.55623 -3.3376682 0.77777785
-141.94821 142.97357 -3.5703242 0
-141.75356 143.53012 -3.4250672 4
-141.79912 143.65582 -3.3731711 1.6976191
-141.66595 144.18277 -3.4873524 5
-141.73262 145.43788 -3.5276492 4.25
-141.80827 145.82722 -3.3550673 4.2727275
-141.79562 146.62234 -3.2631507 4
-141.89883 120.19056 -3.0931282 3.5
-141.88422 120.64816 -3.1038637 1
-141.88371 121.02779 -3.1094377 3.3333333
-141.79822 121.45683 -3.1314259 2.4000001
-141.88661 121.80683 -3.1244423 2.3333333
-141.88181 122.20953 -3.1431844 2.5999999
-141.84322 122.60918 -3.1267428 2.5
-141.7141 123.48415 -3.1547499 2.4000001
-141.85947 123.79064 -3.1748683 0.66666669
-141.97194 124.05465 -3.1479785 2.5
-141.87003 124.51931 -3.1814892 2.3333333
-141.62773 125.07758 -3.1417437 4
-141.77826 125.31492 -3.1864717 2
-141.78279 125.63165 -3.1883321 3
-141.70685 126.85138 -3.1870463 4
-141.64705 140.67598 -2.909723 3
-141.7251 141.45923 -2.8507786 3
-141.76567 141.91451 -2.9784172 2.4285715
-141.7796 142.31789 -3.0000858 2.3
-141.89621 142.6237 -2.9611256 2.4637682
-141.89729 142.95116 -2.9683318 2.55
-141.75255 143.50871 -2.9353631 4.6666665
-141.8194 143.68277 -2.9907432 3.3869047
-141.65118 144.2088 -3.1400306 5
-141.7381 146.74942 -2.8373644 5
-141.73709 146.83316 -2.9806333 4.5
-141.71159 141.51498 -2.7037575 3.6666665
-141.86806 141.94395 -2.565007 4.25
-141.79877 142.35347 -2.56406 4.25
-141.85741 142.63649 -2.5241325 4.4666667
-141.90608 143.02617 -2.5302584 4.5555558
-141.80199 143.72081 -2.7673807 4.4444447
-141.75912 144.15904 -2.5199819 5.5079365
-141.79025 146.92824 -2.5238156 5.8333335
-141.63882 141.49905 -2.2740021 5.5
-141.76164 141.93095 -2.315799 5.3333335
-141.90045 142.26065 -2.2765205 5.5
-141.89543 142.60655 -2.2191417 5.8444443
-141.93794 142.90752 -2.1576641 6.1500001
-141.74208 144.19604 -2.2065821 6.3722224
-141.81523 147.15315 -2.1388214 7
-141.62367 149.38916 -2.1806042 8
-141.63649 149.74521 -2.2138784 8
-141.79817 142.48511 -1.9639442 7
-141.67992 144.4404 -1.6252319 8.0072498
-141.728 147.13937 -1.7653683 8.022131
-141.8093 147.392 -1.7593269 8
-141.62195 149.53281 -1.8557738 8
-141.64465 149.90663 -1.8221374 8.0218
-141.79279 141.45891 -1.4471703 8.9645376
-141.8394 141.7888 -1.285259 9.5286245
-141.78767 142.07597 -1.2342027 8.0598335
-141.77905 142.93658 -1.5174003 9.0452499
-141.9348 144.3773 -1.4870386 9.0525007
-141.75496 144.41287 -1.4897693 9.0474997
-141.66525 147.16238 -1.3436748 9.0137005
-141.79289 147.33472 -1.4015514 9
-141.83633 141.96834 -1.1744366 10.807312
-141.76318 142.20419 -1.0657899 10.073249
-141.70059 142.43832 -0.95292062 9.9294996
-141.72746 147.1792 -0.89854676 9.5410833
-141.81467 147.26616 -0.96785033 9.4239998
-141.81123 147.16451 -0.65407443 9.1781559
-141.79279 147.30267 -0.60928965 10.441393
-141.66559 146.07779 -0.0081664473 8
-141.76035 147.12666 -0.18161464 9.8837919
-141.81317 147.34607 -0.17490384 10.273969
-141.83015 145.95193 0.34314042 11.437167
-141.72775 146.14876 0.26901072 12.048625
-141.6212 146.55487 0.17479028 13.0675
-141.83513 147.15364 0.10255796 12.693666
-141.79204 147.32149 0.16594917 12.487713
-141.8009 145.93872 0.60350412 13.280182
-141.79109 146.05327 0.58400404 12.127273
-141.80025 147.1078 0.44365013 11.732333
-141.86046 147.27718 0.43499449 13.166667
-141.76053 145.88548 0.93744409 13.254801
-141.81491 146.06232 0.95271266 13.647438
-141.33359 144.84579 -4.7882257 7
-141.24078 139.61145 -3.6507368 6
-141.2724 140.61057 -3.6309326 5
-141.53139 140.87405 -3.6117053 1
-141.24873 141.25244 -3.6421859 5
-141.38443 142.19766 -3.6450593 3.25
-141.49255 142.78044 -3.625869 2
-141.36067 142.91113 -3.6661434 4
-141.38315 143.33644 -3.632215 4
-141.3309 143.64001 -3.6957123 7
-141.29314 144.10172 -3.7119567 5.5
-141.37717 144.70526 -3.6651516 1
-141.50101 145.13156 -3.6866741 5
-141.55481 145.3031 -3.6379654 4.5
-141.34689 145.64038 -3.8563111 7
-141.36534 146.12489 -3.8206153 7
-141.54933 148.0862 -3.630295 7
-141.29362 123.70028 -3.2001956 0
-141.41786 124.49266 -3.2171776 0
-141.47784 125.34203 -3.2258389 0
-141.3562 125.90767 -3.2247734 1.3333334
-141.35255 126.23724 -3.2413833 2.2
-141.3372 126.65029 -3.2723072 2.75
-141.33777 127.39546 -3.2621281 2.4285715
-141.38239 127.82811 -3.2534761 1.5
-141.36218 128.20166 -3.3061888 3.75
-141.36552 128.5799 -3.3012288 2
-141.21933 129.07843 -3.3152902 2
-141.38171 129.38261 -3.3433554 2.5
-141.34825 129.81728 -3.300385 2
-141.46272 130.27979 -3.3484507 3.25
-141.20212 130.46902 -3.3438647 1
-141.25667 130.95221 -3.350692 3
-141.34007 131.27963 -3.3492525 1.6
-141.3035 131.64906 -3.3672593 3
-141.39818 132.07462 -3.3611646 2.2
-141.35168 132.51678 -3.3842268 3
-141.54083 133.03436 -3.4523098 5
-141.26498 133.35001 -3.4075041 2
-141.38998 133.80566 -3.4152508 2.1666667
-141.37877 134.08168 -3.4315355 3
-141.38274 134.57568 -3.4512377 1.5
-141.38728 134.87144 -3.4588196 1.5
-141.37315 135.39096 -3.4661357 2
-141.36644 135.76564 -3.4857028 3.4285715
-141.38805 136.30858 -3.4922771 2.1666667
-141.42386 136.59242 -3.4997945 2
-141.43658 137.065 -3.498966 2.4285715
-141.52612 137.43732 -3.5006795 2.5
-141.47087 137.83177 -3.5092828 1.2857143
-141.5818 138.19041 -3.5266354 5
-141.46111 138.75029 -3.5528183 0
-141.41545 138.9494 -3.5589061 2
-141.30197 139.57162 -3.5602694 3
-141.43565 139.76929 -3.5695901 0.80000001
-141.45204 140.29878 -3.4529045 1
-141.37012 140.58101 -3.5770605 1.6666666
-141.36775 140.979 -3.5629504 1
-141.39784 141.42432 -3.5971279 1
-141.47717 141.99609 -3.5745831 2
-141.38713 142.44534 -3.5982919 2
-141.26138 143.10689 -3.3450201 7
-141.35968 143.5235 -3.4190795 4.6666665
-141.37335 143.75713 -3.3778629 3.7643681
-141.28192 145.50984 -3.523555 4.25
-141.34619 145.88881 -3.3526597 3.4166667
-141.33345 146.55003 -3.4334428 7
-141.22557 147.10352 -3.4318047 5
-141.20911 147.89828 -3.2771719 4
-141.21463 148.24907 -3.2520976 5
-141.21687 148.65286 -3.32056 5.5714288
-141.23489 148.98427 -3.4040132 5.4285712
-141.28764 149.36743 -3.4662156 5
-141.27594 149.81351 -3.4432485 4.8000002
-141.36652 120.13551 -3.1038325 5
-141.41568 120.61409 -3.1135621 1
-141.43062 121.05193 -3.1177642 3.3333333
-141.38087 121.49185 -3.1280479 0.66666669
-141.40807 121.67074 -3.1227219 3.5
-141.43045 122.16379 -3.122174 1
-141.42279 122.66743 -3.1397603 2.5999999
-141.35213 123.44307 -3.1437092 3.3333333
-141.27429 123.81325 -3.1831098 1.3333334
-141.4066 124.13541 -3.1480327 3
-141.41315 124.60727 -3.1772954 2
-141.25809 125.02695 -3.1702459 3
-141.36986 125.40226 -3.1904445 3.5
-141.40576 126.68763 -3.1879997 4
-141.54678 130.54814 -2.8737876 4
-141.26556 131.8195 -2.8207276 4
-141.22816 136.37021 -3.02057 3
-141.26787 140.1842 -3.0420949 2.5
-141.39412 140.6053 -3.0406854 2.5
-141.52296 141.50388 -2.8574882 3
-141.58318 141.94617 -2.8476043 3
-141.3642 142.39708 -2.9446011 7
-141.21057 143.1904 -2.8587508 6
-141.34531 143.39056 -2.8578534 5
-141.37169 143.76051 -2.9708478 5.1180558
-141.43669 144.04622 -3.0081844 5.25
-141.32361 144.58197 -2.8500531 7
-141.33917 145.96568 -2.9974182 5
-141.30856 146.10703 -2.977699 5.8000002
-141.39256 146.63078 -2.9367838 6.5555553
-141.41696 146.95375 -3.0075219 6
-141.36418 147.42094 -2.9882281 6.9000001
-141.29688 147.77582 -3.0153441 6.0769229
-141.27542 148.17612 -3.0234241 6
-141.25851 148.58514 -2.992136 5.909091
-141.27592 148.96382 -3.0051084 5.6666665
-141.33267 149.77504 -2.9426436 6.25
-141.48758 124.6172 -2.6651306 5
-141.43451 129.81508 -2.4450846 5
-141.46085 130.6794 -2.492137 5
-141.3616 131.75117 -2.5516164 4.6666665
-141.22133 132.69328 -2.7572985 4
-141.24173 132.8965 -2.4101686 5
-141.33522 140.74565 -2.557549 4.4375
-141.4157 140.81711 -2.4220815 5
-141.40771 141.53835 -2.7062993 3.6666667
-141.59149 141.95834 -2.5448744 4.333333
-141.20743 143.15422 -2.746906 6
-141.40508 143.87662 -2.7471232 5
-141.49228 144.20859 -2.5443535 6
-141.30637 145.9547 -2.6145437 5.5833335
-141.27531 146.02559 -2.5689673 5.5833335
-141.51949 147.13153 -2.5436225 6
-141.40767 147.28615 -2.6705179 6.3333335
-141.20984 147.67395 -2.505785 7
-141.21643 148.22362 -2.6134381 6.5
-141.21332 148.65395 -2.6192722 6.4285712
-141.24648 148.98485 -2.6649518 6.4166665
-141.25545 149.96742 -2.5738945 6.6666665
-141.3699 124.533 -2.090343 6
-141.45648 130.05196 -2.0557036 6
-141.44044 130.66083 -2.0925808 6
-141.20161 131.76648 -2.0447907 6
-141.24805 140.25534 -2.3976767 5
-141.20444 140.71396 -2.0794971 6.3333335
-141.46268 141.48102 -2.2741604 5.5
-141.55266 141.96719 -2.1674662 6
-141.55336 144.25523 -2.3597591 6
-141.21735 145.93044 -2.2942581 7
-141.30884 146.00351 -2.3916802 6
-141.25667 146.64214 -2.224036 7
-141.40482 147.15126 -2.186044 7.0714288
-141.36649 147.30153 -2.139873 7.4311252
-141.3378 147.84459 -2.2008746 7.8333335
-141.27638 148.22382 -2.2323401 7.4444447
-141.28793 148.6572 -2.2071002 7.5619998
-141.27083 148.98242 -2.2674906 7.2307692
-141.30884 149.40257 -2.2060804 7.6821671
-141.36902 149.90509 -2.2284305 7.4708328
-141.27527 140.24121 -1.8794371 7
-141.22125 140.62917 -1.9084634 7
-141.46025 141.41881 -1.8421956 7.2520003
-141.31512 141.93283 -1.7137911 8.0877495
-141.34654 142.03693 -1.6583458 8.0869999
-141.28119 142.95567 -1.7307724 8.0477915
-141.35008 144.17557 -1.764606 8.085
-141.37529 144.46425 -1.626464 8.0065002
-141.42691 147.16451 -1.7790769 8.0063658
-141.35379 147.33818 -1.7681605 8.0132828
-141.33549 147.84801 -1.7882437 8.0236816
-141.33591 148.22263 -1.8070837 8.016325
-141.33656 148.62776 -1.8280253 8.0137005
-141.31561 149.00896 -1.8126904 8.0071325
-141.36098 149.49245 -1.763592 8.0103254
-141.37575 149.93565 -1.7547832 8.006526
-141.38947 141.48521 -1.4428422 9.0508823
-141.36642 141.78407 -1.3361971 9.3292675
-141.36913 142.09677 -1.2857579 9.0502501
-141.29181 142.52313 -1.5561721 9.0599995
-141.29738 143.45882 -1.5232689 9.0563326
-141.32178 143.84767 -1.517746 9.0620003
-141.367 144.43814 -1.506277 9.0478001
-141.4066 147.16084 -1.3268644 8.8790312
-141.26285 147.30286 -1.4637884 8.7712498
-141.22881 147.78448 -1.3945539 8.0657501
-141.24843 148.19781 -1.5116552 8.073
-141.20818 148.69006 -1.2807626 9
-141.2334 149.0564 -1.361982 8.6355
-141.27403 149.45573 -1.3930386 8.5142279
-141.29446 149.85822 -1.3817309 8.5342388
-141.42198 141.95775 -1.1814096 10.849401
-141.38953 142.27733 -1.0082982 10.151734
-141.3671 142.48764 -0.87536401 10.307126
-141.42291 147.16974 -0.95738924 9.3599997
-141.34631 147.32614 -0.94004464 9.5
-141.3779 147.81094 -0.82561558 9
-141.34648 148.25496 -0.84449238 9.1491423
-141.40485 148.54257 -0.81466353 9
-141.35588 148.98949 -0.83738977 9.2766819
-141.26863 149.40849 -0.94593531 9.2395563
-141.26607 149.82019 -0.94772667 9.24154
-141.33286 142.6963 -0.72371054 11.19995
-141.26846 142.92184 -0.51030105 12.935222
-141.40611 147.144 -0.59753025 9.8947029
-141.37411 147.31442 -0.58352888 10.180235
-141.35568 147.82945 -0.59090722 9.2271671
-141.37308 148.21184 -0.56623787 9.4108
-141.34616 148.64948 -0.58797973 9.7116995
-141.34778 149.08371 -0.60499752 9.375
-141.32437 149.44928 -0.63127446 9.7937899
-141.33864 149.81396 -0.59045637 9.6884737
-141.38861 146.0715 -0.030213498 8
-141.4109 147.11281 -0.21437164 10.634599
-141.3938 147.2771 -0.158337 10.13898
-141.29102 147.83833 -0.25101545 11.038501
-141.23322 148.1044 -0.2450982 10.570749
-141.26839 148.4725 -0.22156395 10.5585
-141.24483 148.98839 -0.17747261 10.8253
-141.26233 149.40675 -0.18105073 10.58611
-141.24437 149.82974 -0.22400838 10.530477
-141.36571 145.94273 0.31268665 11.37178
-141.36523 146.18433 0.26378772 11.524885
-141.36734 146.61655 0.21358253 11.996601
-141.33974 147.03539 0.16631483 11.766494
-141.27559 147.33784 0.17257129 10.493809
-141.30139 147.79506 0.24316841 9.625
-141.34613 148.2522 0.2136627 10.01385
-141.32922 148.57838 0.23888256 10.019611
-141.35263 149.04399 0.2006543 9.7786541
-141.30457 149.4269 0.21756414 10.205376
-141.29219 149.82053 0.16052081 10.093978
-141.38504 145.92465 0.57247531 12.283231
-141.34814 146.12434 0.54944694 12.110141
-141.28371 146.59001 0.57260215 12.642651
-141.29233 146.97299 0.60122812 11.911945
-141.25793 147.4169 0.60952181 10.919027
-141.27817 147.81271 0.59496081 11.176462
-141.31729 148.1981 0.60393977 10.577714
-141.34222 148.66759 0.57140076 9.7713127
-141.34775 149.01993 0.54549354 10.714399
-141.29727 149.34442 0.48961723 9.7895002
-141.31155 149.85635 0.52220482 11.2
-141.39194 145.86942 0.96026343 12.888176
-141.28474 146.09404 1.016202 13.067375
-141.34567 146.74809 1.0720195 12.57625
-141.27998 147.33844 1.0559555 15.0655
-141.28145 147.81688 1.0569139 13.03175
-141.2112 148.21863 0.87379771 11
-141.34169 148.58168 0.88144934 12.013375
-141.1134 144.7962 -4.7949252 7
-140.84842 136.78824 -3.6003757 6
-140.93271 138.19862 -3.6176589 6
-141.08189 140.61615 -3.6030896 3
-141.03029 140.9718 -3.6110303 3
-140.91167 141.43405 -3.6222131 3.25
-141.06467 141.81216 -3.6575923 4
-141.00392 142.18076 -3.6436484 3.2
-140.96335 143.37372 -3.8037417 7
-141.03915 143.73318 -3.6344442 4.1999998
-140.97491 144.23065 -3.6421669 2
-140.96407 144.6031 -3.7062156 2.4000001
-141.00247 144.97357 -3.6967216 2.5999999
-141.04449 145.44162 -3.6921997 4.0999999
-141.02136 145.7477 -3.6440005 4.25
-140.99797 146.12547 -3.6805015 6.6666665
-140.96497 146.58232 -3.6869397 5.6666665
-140.89192 146.94537 -3.6205373 4
-140.99048 147.38361 -3.6304855 5
-140.92641 147.90782 -3.6398664 4
-141.0148 148.12065 -3.7804914 3
-140.86024 148.5619 -3.6446097 5
-140.9368 149.03592 -3.665293 5
-140.92865 149.31189 -3.6645243 4
-141.05685 149.72694 -3.6674526 4
-140.82901 123.7557 -3.2102609 0
-141.09212 124.49342 -3.2116256 0.5
-141.04002 125.10053 -3.2048566 2
-141.0262 125.34827 -3.2269711 0
-140.95502 125.80368 -3.2516847 3.6666667
-140.96291 126.15314 -3.271121 4
-140.9006 126.54573 -3.2628796 2.3333333
-141.00922 127.01418 -3.2603197 4
-140.96162 127.35048 -3.2724698 2.3333333
-140.92838 127.7321 -3.2528627 1.5
-141.00284 128.17868 -3.2775753 3
-140.84828 128.59041 -3.3030336 1
-140.92952 129.00739 -3.2777283 2.3333333
-140.80978 129.21652 -3.3123465 0
-140.95898 129.76646 -3.3159907 2.6666667
-140.93295 130.2256 -3.3181736 2.3333333
-140.94472 130.59689 -3.3584912 2.5
-141.01825 130.97804 -3.3545575 3
-140.85349 131.35756 -3.3671224 2.5
-140.97392 131.78436 -3.3591456 3
-140.96663 132.11963 -3.3905613 2.8333333
-140.83734 132.4059 -3.3913286 1
-140.92303 133.04132 -3.4096005 3.5
-140.97304 133.25533 -3.4096508 2.25
-140.94788 133.85841 -3.4351048 2
-141.04494 134.37991 -3.4471393 0
-140.90211 134.61786 -3.4623153 3.625
-141.04041 134.96019 -3.4593711 2
-141.10559 135.29463 -3.4879322 4.5
-141.04614 135.67677 -3.4511499 1.25
-140.96379 136.34962 -3.4954588 2
-140.93669 136.61287 -3.5236046 1.6666666
-140.89844 137.099 -3.4639614 2.8
-140.84535 137.36086 -3.5307956 3.3333333
-140.91504 137.82928 -3.4643462 1.7083334
-140.90678 138.26663 -3.5322285 1.6666666
-141.02625 138.66087 -3.544564 3
-141.01604 138.99625 -3.5585833 3.2
-141.03177 139.44669 -3.5418394 2.5
-140.99567 139.77597 -3.5756884 2.2
-141.0733 140.25481 -3.5411427 1.8333334
-140.96477 140.62395 -3.5761597 2
-140.89496 141.02716 -3.5853236 2
-140.84279 141.42328 -3.4126956 3.5
-140.97159 141.83456 -3.405869 3.8
-140.97711 142.21895 -3.401386 5.125
-140.95062 142.61993 -3.5073378 3.5
-140.95554 142.96648 -3.3525753 3.1428571
-140.98624 143.44855 -3.5139346 4
-141.01683 143.67947 -3.5935073 5
-141.14008 145.52736 -3.5512416 4.5
-141.06749 145.87344 -3.4295506 3.9230769
