# .PCD v0.7 - Point Cloud Data file format
VERSION 0.7
FIELDS x y z intensity
SIZE 4 4 4 4
TYPE F F F F
COUNT 1 1 1 1
WIDTH 1249
HEIGHT 1
VIEWPOINT 0 0 0 1 0 0 0
POINTS 1249
DATA ascii
-58.568371 70.275085 -3.1254184 2.5
-58.528961 70.674232 -3.1252942 2.5
-58.526161 70.94545 -3.1181631 3.8
-58.531586 71.342064 -3.1152365 5
-58.653187 71.868973 -3.1154199 5
-58.609795 72.243958 -3.1083539 2.6666667
-58.610786 72.627533 -3.102952 1.6666666
-58.635719 72.984245 -3.0956926 2.3333333
-58.625034 73.408447 -3.0976269 2.5714285
-58.610653 73.790245 -3.0929332 3.1111112
-58.65086 74.168945 -3.0816464 2.9000001
-58.545303 74.576363 -3.0785899 2.5
-58.596428 75.031372 -3.0306683 5
-58.669952 75.324234 -3.0891128 4
-58.646255 75.835159 -3.0858731 4
-58.566483 76.228958 -3.0967467 3.5999999
-58.521721 76.602432 -3.0481467 5.1666665
-58.575886 76.980881 -3.0732114 5.25
-58.608521 77.350662 -3.0688403 4.8333335
-58.59737 77.844353 -3.0244889 5.1428571
-58.563114 78.192726 -3.0370507 4.3333335
-58.621994 78.64727 -3.0347769 5.3333335
-58.631245 79.02597 -3.0106783 6
-58.541382 79.557426 -3.0484278 6
-58.493958 80.321243 -3.1491325 5
-58.650299 80.436981 -3.0671265 6
-58.557671 80.9459 -3.1240704 5.1999998
-58.577095 81.418617 -3.1057036 5
-58.468594 81.644646 -3.0777204 5
-58.583279 82.265785 -3.1007357 5.6666665
-58.698372 82.699486 -3.1484232 5
-58.590088 83.073624 -3.1379774 5.3333335
-58.793133 84.549545 -3.1990211 7
-58.501495 60.226139 -2.6496146 3.4285715
-58.617165 60.580349 -2.6805899 3.3333333
-58.550404 60.951168 -2.7429273 2.8888888
-58.608017 61.428013 -2.7482052 1.875
-58.564598 61.647385 -2.7904444 3
-58.738213 89.870995 -2.5747745 6.5
-58.79953 89.269829 -2.3924572 7
-58.65506 89.866531 -2.3332641 7
-58.764172 72.575874 -1.4957061 9.1140003
-58.461315 75.09948 -1.5107611 7
-58.507584 73.859764 -0.62877876 8.0626669
-58.457409 74.162514 -0.57182741 9.0930004
-58.645527 73.036766 1.1203545 13.317333
-58.521355 74.261894 1.0272309 12.643315
-58.46439 74.425117 0.8229807 10.096
-58.704609 75.053154 1.0527489 9.1077499
-58.657562 72.656372 1.4929116 10.092
-58.660835 72.958221 1.4404114 13.183618
-58.722694 73.248222 1.2314674 12.145
-58.596191 74.335869 1.4644265 11.272416
-58.499302 74.53083 1.3746353 13.947833
-58.449387 75.109993 1.4690021 12.831749
-58.541473 75.322128 1.3924215 9.0821657
-58.751247 75.695869 1.2020049 11.101
-58.752941 76.136986 1.579123 14.1085
-58.482861 77.811356 1.3562081 10.0985
-58.451984 78.260925 1.5566914 10.095
-58.59203 79.806923 1.5263655 10.096
-58.658081 72.712242 1.7590872 12.731834
-58.681175 72.923279 1.7749399 12.283002
-58.788029 73.254387 1.6823853 14.162
-58.620949 73.874817 1.6117622 10.0935
-58.503696 74.264854 1.6718006 11.024
-58.463818 75.144897 1.6212965 12.053
-58.776974 75.949059 1.7015131 12.7565
-58.789978 76.090363 1.6748974 12.032
-58.782955 77.560608 1.6130005 10
-58.790749 77.8097 1.6314 10.063
-58.762402 78.001625 1.6405407 10
-58.772343 73.451996 2.1233096 10.1735
-58.795345 74.316116 2.0068319 9.132
-58.696598 77.660309 2.1143401 10.1225
-58.533524 79.197388 2.2621937 9.0974998
-58.627682 73.842247 2.7253075 12.281875
-58.492828 74.174957 2.4104698 11.0955
-58.651451 74.47802 2.4809318 9.1330004
-58.740692 77.800896 2.6709385 11.097667
-58.548672 78.138344 2.6230705 9.1285
-58.505638 78.603088 2.7196186 9.0094995
-58.733353 79.368347 2.5587454 12.1035
-58.61385 79.764435 2.5890822 12.12675
-58.544903 80.032501 2.663244 12.10375
-58.575005 73.348824 3.0927804 13.55775
-58.601482 73.90757 2.9223719 12.242
-58.678684 74.098709 2.8968403 11.812249
-58.589287 77.684586 3.0181489 12.061125
-58.572803 78.192329 2.9918072 13.159905
-58.759129 78.615776 2.9813981 13.258801
-58.716537 78.878319 2.9324982 14.117416
-58.557556 79.378166 2.9589419 13.434334
-58.621403 79.794243 2.8689308 13.727833
-58.592617 73.456757 3.2754035 12.408701
-58.642326 73.77446 3.3922429 12.415999
-58.715584 74.05188 3.2443674 10
-58.539639 77.808723 3.379349 12.066501
-58.622601 78.281189 3.317462 14.606251
-58.7999 78.753632 3.2965605 14.106
-58.705479 73.880516 3.6980946 13.666667
-58.70974 74.288208 3.8060527 15.0365
-58.437061 74.512451 3.7847829 10.1285
-58.63633 75.081314 3.6771698 14.622
-58.734085 75.210678 3.6421156 11.115
-58.51445 75.894905 3.8117073 14.159
-58.653687 77.766594 3.8144052 13.045286
-58.528683 78.204681 3.8275213 11.4583
-58.547768 73.464134 4.2902169 11.5035
-58.579731 73.850655 4.0298395 10.151
-58.594532 74.073822 4.0755501 10.153
-58.640343 74.495781 4.1141939 10.479437
-58.486095 75.403137 4.3467484 14.024
-58.444134 75.73941 4.250977 14.526751
-58.52412 76.2015 4.1763101 14.032001
-58.650547 77.450249 4.1203256 12.0975
-58.558727 77.758949 4.1703067 13.750916
-58.500202 73.518753 4.6083117 13.084249
-58.587681 73.811783 4.6708722 13.202356
-58.480972 74.251862 4.682961 12.355834
-58.486874 74.567688 4.6823649 11.105124
-58.665581 75.049271 4.5011296 14.052
-58.617664 75.410789 4.5750575 12.419334
-58.686089 77.516106 4.5676312 11.780856
-58.540207 77.720078 4.5979691 14.054
-58.513321 78.020157 4.4346471 14.1025
-58.564022 78.527344 4.5187206 14.60375
-58.693302 78.862114 4.6285682 14.103
-58.45055 79.587204 4.7163386 15.1055
-58.58897 80.195793 4.5818014 14.1045
-58.782162 73.416626 4.9924965 14.05925
-58.575657 73.77552 4.9196987 15.13
-58.603065 74.178047 5.0742626 12.732417
-58.549088 74.60099 4.9209247 11.155375
-58.514172 74.80265 4.9777479 11.1125
-58.552071 76.765198 4.9661083 11.5905
-58.786842 77.244469 5.1766953 15.0245
-58.631824 77.733025 4.9254475 14.4237
-58.657318 78.841911 4.8019991 14.1025
-58.574486 73.873466 5.2711577 14.028333
-58.595119 74.200089 5.4151583 13.843
-58.451279 75.467529 5.484304 11.0075
-58.569839 77.466766 5.391511 15
-58.431427 78.896996 5.5044584 11.124
-58.795822 73.016411 5.923337 11.0275
-58.761898 73.342545 5.9913249 12.169
-58.601727 74.271896 5.9266224 12.58525
-58.61639 74.622398 5.8892999 11.764125
-58.578506 75.37384 5.762702 13.535625
-58.732285 72.715759 6.0160255 11.024
-58.595329 73.535339 6.019412 13.088
-58.784557 74.604645 6.1289921 10.149
-58.707027 75.06366 6.10146 12.071
-58.69791 75.48494 6.2236419 12.20905
-58.771763 75.805145 6.3929234 15.098
-58.742268 78.165947 6.2194424 12
-58.771866 78.706123 6.2903318 12
-58.410572 74.372391 6.7451096 10.0145
-58.506901 74.932358 6.4083109 14.0915
-58.625206 75.452164 6.612988 13.264999
-58.506519 75.676277 6.6125069 12.063
-58.729321 77.027985 6.6539431 11.165251
-58.593956 75.337013 6.8793712 14.4444
-58.402111 76.585808 6.8457499 15.0185
-58.540768 76.912186 7.0937209 11.1685
-58.797592 78.516449 7.7484388 11.0095
-58.125023 78.482529 -3.930325 7
-58.399086 68.028793 -3.2092924 4
-58.26469 68.675087 -3.2180331 2.3333333
-58.372543 68.977257 -3.2336514 0.66666669
-58.177956 69.464424 -3.2422998 2.625
-58.189526 69.839668 -3.2567918 2.2857144
-58.276657 70.138443 -3.2569208 3.25
-58.276814 71.619247 -3.2114768 6
-58.014175 77.665802 -3.4073684 7
-58.187366 78.337044 -3.3941307 7
-58.055195 79.546837 -3.5963151 7
-58.204243 82.49614 -3.2242091 7
-58.207851 84.115524 -3.2277858 5
-58.256184 84.468781 -3.2457809 5
-58.020115 85.923302 -3.3440399 6
-58.287907 86.236702 -3.3567123 6
-58.142811 86.526474 -3.2621129 6.1999998
-58.310425 87.485619 -3.3669164 6
-58.031643 87.794121 -3.3354619 6
-58.011768 88.581619 -3.4215255 6
-58.307121 88.981247 -3.4265368 6
-58.104485 89.379845 -3.429826 6
-58.155224 61.09214 -2.8082507 5
-58.129269 61.917614 -2.8297749 3
-58.157372 62.242912 -2.8595526 4.3333335
-58.112495 62.522888 -2.9066067 3.7142856
-58.133259 62.953533 -2.9760294 2.3333333
-58.205631 63.347618 -2.9960845 2.75
-58.328739 63.900173 -2.9745569 2.5
-58.235447 64.126755 -3.0642972 3.6363637
-58.133064 64.524796 -3.099484 3
-58.243168 64.951134 -3.1321342 2.2
-58.302868 65.35479 -3.1375592 2.2857144
-58.358665 65.725822 -3.143477 2
-58.355991 66.108513 -3.1528685 3.6666667
-58.27301 66.58609 -3.1203616 4.3333335
-58.382401 67.00106 -3.1749227 4
-58.222393 67.354584 -3.0718365 4.75
-58.225906 67.776932 -3.0631902 4.875
-58.178024 68.269035 -3.0621028 5
-58.115814 68.651283 -3.0782323 5
-58.107113 69.070183 -3.1071408 5
-58.204121 69.405846 -3.084446 5
-58.282131 69.835716 -3.1010146 5
-58.147015 70.229713 -3.1452603 3.5999999
-58.200825 70.565063 -3.1256225 2.4000001
-58.208981 70.984901 -3.1310248 3.5
-58.085262 71.318817 -3.1076097 3.6666667
-58.286579 71.699669 -3.1230061 3.75
-58.190182 72.182655 -3.1157393 1
-58.169456 72.587143 -3.0958235 1.8181819
-58.274273 73.012497 -3.0892043 3.25
-58.235935 73.474228 -3.1120415 3.2
-58.1772 73.810097 -3.1049874 2.8888888
-58.158794 74.204514 -3.0799594 3.1111112
-58.186523 74.579163 -3.0824838 3.2307692
-58.250599 75.045021 -3.0968909 4.3333335
-58.264954 75.262199 -3.0901947 3
-58.24144 75.742981 -3.0819938 4
-58.219608 76.233147 -3.0878391 3.5
-58.179077 76.565399 -3.0990362 4.4000001
-58.16301 77.011574 -3.0657926 5
-58.182945 77.422325 -3.0391655 4.8571429
-58.257679 77.658562 -3.0341332 4.8000002
-58.239983 78.231476 -3.0426805 4.3846154
-58.37513 78.407646 -3.0482922 5
-58.146816 78.861328 -3.0813048 5
-58.149448 80.160065 -3.0982976 5.5999999
-58.232262 80.606926 -3.1000757 5.5
-58.230362 80.884071 -3.1081023 5
-58.126007 81.391258 -3.1129489 5
-58.181225 81.79113 -3.1100717 5.6666665
-58.192326 82.095047 -3.1245673 5.5
-58.205833 82.553131 -3.1468871 5
-58.208382 82.962189 -3.1625693 5
-58.033184 84.755241 -3.0580478 5
-58.068485 85.578842 -3.0931175 5
-58.206776 60.196152 -2.6515138 3.5333333
-58.166382 60.610344 -2.7212422 1.9
-58.204288 60.98597 -2.73962 3.090909
-58.247501 61.375134 -2.7843637 1
-58.387913 63.493057 -2.4586728 7
-58.073109 74.081444 -1.0967119 9.0970001
-58.159527 73.778023 -0.62152147 8.0621672
-58.342575 73.050621 1.1813409 14.104
-58.327709 74.300568 1.0583862 12.564499
-58.07571 74.528633 1.1267159 10.605249
-58.178448 74.278946 1.4377551 11.425334
-58.218624 74.577461 1.3766884 14.119125
-58.227322 75.076157 1.5179162 13.270667
-58.183643 75.360603 1.4578873 11.12025
-58.112072 75.002068 1.7209088 11.5285
-58.29908 75.465599 1.678598 14.7755
-58.055439 75.657364 1.9928192 14.1535
-58.083645 77.854515 1.6343265 10.0945
-58.021465 76.286049 2.3862872 14.14
-58.361256 77.078384 2.7528458 9.132
-58.170292 73.066277 3.1122823 10.045
-58.220928 73.368988 3.098259 14.034
-58.293186 78.136078 3.0049949 13.604
-58.22665 79.034889 3.0470078 14.426333
-58.395309 79.227921 3.127964 14.0305
-58.393982 79.984238 2.9386196 14.0455
-58.243397 73.358765 3.2565453 10.686833
-58.252022 76.052002 3.556529 12.097
-58.229824 77.513184 3.4809136 12.5785
-58.057144 77.878967 3.5602176 14.104
-58.321964 78.153297 3.3977442 13.1019
-58.00882 79.152077 3.2232237 14.0295
-58.266563 73.402824 3.7434905 13.624642
-58.103786 73.751785 3.7937732 13.914357
-58.110714 74.223564 3.8353913 12.1775
-58.148922 74.623985 3.9415021 13.022
-58.342049 74.93663 3.6027572 9.1499996
-58.170383 75.300629 3.897805 13.277125
-58.277046 76.006432 3.9536834 15.1025
-58.28344 77.083168 3.7878325 11.1045
-58.214073 77.244308 3.7128773 11.112
-58.145042 77.878807 3.6221099 14.10375
-58.106449 78.200584 3.98786 11
-58.364594 72.969696 4.2844038 13.086
-58.272732 73.481232 4.1808424 12.611166
-58.189827 73.8144 4.2161107 13.375027
-58.189503 74.143669 4.1737595 13.359668
-58.05154 74.678757 4.0302525 15.07
-58.121437 75.032349 4.241395 13.0181
-58.338512 77.755714 4.2096124 14.552
-58.108097 78.138962 4.0532646 10.8195
-58.114704 79.154671 4.2192321 12.0985
-58.296242 73.508003 4.4175048 14.00975
-58.272629 73.866119 4.655118 14.2215
-58.183872 74.119507 4.6126251 13.449701
-58.09203 74.548294 4.592001 13.555
-58.186584 74.979553 4.6125298 13.478144
-58.152035 75.327347 4.5626602 14.022751
-58.210808 75.788773 4.6225019 11.084249
-58.376999 77.483994 4.4212127 14
-58.053139 77.606903 4.6016693 13
-58.195938 78.266891 4.703155 13.56025
-58.321182 79.159592 4.6985192 15.105
-58.345737 73.498978 4.9198918 15.162
-58.293701 73.8564 4.9251118 14.008834
-58.20948 74.188316 4.9619546 12.690626
-58.194637 75.041603 5.0605788 13.070499
-58.046291 75.341919 5.1331835 13
-58.169559 75.645477 5.1891985 13.04825
-58.245594 76.592873 4.998601 14.113
-58.376675 77.498764 4.8867407 13.098
-58.323681 79.062874 4.956161 15.1045
-58.292835 73.897499 5.2697434 13.040751
-58.258369 74.222038 5.3332043 12.875929
-58.145294 74.755981 5.4512634 10.034
-58.085724 75.467484 5.3552012 14.058375
-58.194683 75.693848 5.4308691 10.04725
-58.12075 76.65065 5.2627311 12.125
-58.315025 77.989891 5.2023211 15.0235
-58.115063 78.23484 5.2438278 13.5585
-58.368244 74.271072 5.7939029 12.076
-58.252399 74.653023 5.7042737 11.0965
-58.385876 74.960739 5.9880381 11.0125
-58.116966 75.354218 5.7568631 12.4511
-58.101681 75.779999 5.7455034 13.51775
-58.226639 75.179062 6.0116634 12.014
-58.204094 75.511063 6.0451603 10.151
-58.112007 75.845612 6.0896611 12.163
-58.014961 77.410011 6.0845757 12.0945
-58.155479 75.114479 6.5884972 13.6728
-58.232349 75.388817 6.6160564 12.714168
-58.336575 75.974937 6.6527476 15.0855
-58.260479 76.343269 6.6248422 15.1755
-58.220051 76.56443 6.5900617 14.764667
-58.125126 77.211708 6.6073766 15.072166
-58.02726 74.930634 6.8677578 13.081
-58.026226 75.210037 6.8033724 14
-58.188961 76.249352 6.8567815 14.0175
-58.359207 76.539047 6.9772868 15.018
-58.056412 76.998352 6.863193 15.018
-58.251453 77.49382 7.1136975 14.699166
-58.235767 77.650558 7.1388202 15
-58.025993 78.105392 6.8623748 11.1775
-58.221035 78.631775 6.952827 13.096
-58.284534 77.083214 7.5882511 12.008
-58.251579 77.325981 7.3890467 15.070999
-58.121128 77.808762 7.459446 12.345668
-58.269714 78.298393 7.6778188 14.178
-57.767895 76.570175 -4.0053444 7
-57.898335 77.196365 -4.3372021 8.1190004
-57.901928 77.235687 -4.1291013 8.1120005
-57.83474 86.141785 -4.2156277 7
-57.981567 71.336266 -3.9587359 7
-57.883656 79.311386 -3.8163304 7
-57.63372 67.56131 -3.2252538 6
-57.767704 67.94783 -3.2060909 1
-57.79377 68.266022 -3.2195168 2.5
-57.812492 68.671028 -3.2302644 2.25
-57.898697 69.107964 -3.2479649 3
-57.661148 69.425941 -3.2673142 5
-57.670624 69.760422 -3.2619019 4
-57.783779 70.123795 -3.2711437 5.3333335
-57.633736 77.043404 -3.5268216 7
-57.802456 77.520508 -3.3244832 7
-57.634968 79.139854 -3.3880658 7
-57.721897 79.367546 -3.4736793 7
-57.752747 79.95504 -3.3075712 6
-57.715439 83.17514 -3.2006052 5
-57.607883 85.078026 -3.2215986 5
-57.860672 85.450043 -3.2473388 5
-57.619293 85.774979 -3.2387018 5
-57.716164 86.177528 -3.2422323 6
-57.868946 86.671242 -3.271107 5.8000002
-57.815544 87.020218 -3.3320966 6
-57.775185 87.471642 -3.3407266 6
-57.787289 88.247818 -3.3780112 5.6666665
-57.744823 88.7006 -3.3602257 5
-57.82515 89.013969 -3.4045236 5.3333335
-57.852837 89.467751 -3.3923528 5.6666665
-57.753643 89.778778 -3.4159584 5.8000002
-57.929256 61.308437 -2.829968 5
-57.752682 61.696327 -2.8484647 5
-57.71838 62.28722 -2.8737586 4.25
-57.800362 62.643311 -2.9088714 3.3333333
-57.696949 62.974308 -2.920397 2.5999999
-57.757462 63.363022 -2.9543769 3.1818182
-57.782749 63.857418 -2.989121 3.3333333
-57.793941 64.149513 -3.0169711 4.25
-57.921459 64.603348 -3.1330161 3
-57.757698 65.035683 -3.0863771 2.8571429
-57.738338 65.43428 -3.0868351 3
-57.732262 65.85331 -3.0735397 3.5999999
-57.734707 66.225929 -3.0678165 3.875
-57.768364 66.623779 -3.0513067 4
-57.752712 67.006836 -3.0430713 4.2857141
-57.766682 67.405022 -3.130549 2.75
-57.808186 67.750488 -3.0739121 3.8333333
-57.873463 68.110664 -3.1201122 3.4000001
-57.955376 68.6241 -3.0481789 5
-57.72583 70.216087 -3.0993509 3.2857144
-57.821144 70.621185 -3.1272297 4
-57.882923 71.012177 -3.1053655 3.5999999
-57.691952 71.219757 -3.100661 4
-57.76432 71.893433 -3.0878544 4
-57.857311 72.221909 -3.0866842 1.1111112
-57.815544 72.605507 -3.0816638 2.4285715
-57.842617 72.972359 -3.0886807 3.3
-57.85511 73.414627 -3.1024461 2
-57.769093 73.779526 -3.1002586 3.3636363
-57.755096 74.170486 -3.0660732 4
-57.817211 74.670425 -3.0850723 2.1666667
-57.804657 74.980209 -3.0716777 4.1999998
-57.80632 75.48732 -3.0949156 3.25
-57.788406 75.816521 -3.063194 5
-57.804356 76.209541 -3.1023185 3.1428571
-57.772324 76.55011 -3.0746009 4.5999999
-57.841492 76.967926 -3.0196893 5.4000001
-57.798706 77.374474 -3.0021584 5.4000001
-57.884857 77.902779 -3.0185251 4.3333335
-57.766216 78.190987 -3.0271645 4.25
-57.880913 78.629234 -3.0359733 5.3333335
-57.678806 79.325294 -3.0417166 6
-57.757328 79.796425 -3.1096649 5.3333335
-57.751381 80.171265 -3.0856981 5.5
-57.680756 80.452286 -3.0789971 5
-57.674103 81.043076 -3.0810935 5.3333335
-57.867264 81.297371 -3.085264 5.6666665
-57.997967 81.631485 -3.0894306 6
-57.723263 82.233955 -3.126545 5
-57.873146 82.580292 -3.1206772 5.5999999
-57.779259 83.031479 -3.1573331 5
-57.883377 83.418335 -3.1739154 5
-57.948055 83.763802 -3.1919813 5
-57.792271 84.29982 -3.0218532 5
-57.82674 84.839012 -3.1437595 6
-57.917736 85.599266 -3.1896698 6
-57.807343 60.214737 -2.6947401 3.3333333
-57.771652 60.587418 -2.7198901 2.9375
-57.864338 61.008617 -2.7379758 2.4545455
-57.789108 61.389385 -2.7768903 1.5
-57.743141 61.694447 -2.7961776 4
-57.696507 77.47747 -2.077446 8
-57.668453 78.077614 -2.1166 7
-57.635334 77.692604 -1.7211878 7.6991668
-57.636604 78.076065 -1.9229294 7
-57.628002 77.570969 -1.3903049 8
-57.645584 77.670135 -1.5241619 8.0084372
-57.648052 77.564087 -1.0037465 9
-57.643124 77.648277 -1.0191212 9
-57.616627 73.763832 -0.77044272 8.0050001
-57.936665 74.172707 -0.74205786 9.0930004
-57.641979 77.534409 -0.61389261 9.6995649
-57.738773 77.689415 -0.61321718 9.0128002
-57.715508 81.07309 -0.42262909 9.6217499
-57.662247 77.479004 -0.21331833 10.4549
-57.71373 80.961868 -0.23962697 9.9735718
-57.902645 81.261551 -0.19846538 10.622499
-57.655834 77.464958 0.21021967 11.666667
-57.660263 77.428223 0.60959399 12.054054
-57.676235 73.80957 1.1159266 9.0565004
-57.7938 74.157715 1.0923593 12.115233
-57.888512 74.444466 1.0811727 15.113
-57.781895 74.953148 1.0898848 10.096
-57.961483 76.34967 1.1490831 9.0959997
-57.670334 77.418312 0.99873185 13.032743
-57.874928 77.749268 1.0097612 9.066
-57.732204 73.837547 1.2435678 11.027
-57.777229 74.159233 1.3153056 12.896326
-57.880829 74.529381 1.4204886 13.708427
-57.783596 75.104103 1.5214354 12.056666
-57.680305 75.258957 1.4136443 15.112
-57.602116 76.723907 1.5892687 10.0945
-57.658634 77.401482 1.3865455 13.88
-57.652344 78.683487 1.4779946 10.0965
-57.943481 74.368927 1.6331682 11.0235
-57.962627 74.476189 1.6143948 12.1005
-57.826603 75.057365 1.7417279 12.400833
-57.72834 75.384087 1.6746731 14.919001
-57.727283 75.732506 1.6345649 13.104
-57.645874 77.385712 1.6977888 14.555555
-57.735546 75.789154 2.2153378 12.947945
-57.870449 76.024551 2.0611668 14.1505
-57.856686 76.534935 2.1318209 12.113999
-57.606945 77.359062 2.0073404 13
-57.90419 74.074631 2.7757363 9.1499996
-57.801174 76.241028 2.4246416 14.138
-57.627422 76.778702 2.4715378 14.1415
-57.660591 79.583008 2.6269414 14.136875
-57.836338 73.17453 3.026643 10.167
-57.948818 73.620949 3.1747775 13.162
-57.86269 77.775101 2.8768425 11.097
-57.713741 78.908943 3.0449102 14.1065
-57.656002 79.571556 2.8973062 13.1055
-57.868782 73.517029 3.5937052 13.0825
-57.887154 73.785446 3.3823628 13.788249
-57.818401 74.957558 3.4999421 12.508901
-57.790813 75.456451 3.4103353 14.079071
-57.671463 76.204735 3.4722998 12.097
-57.821678 77.453232 3.4195666 11.707166
-57.883797 77.76828 3.4304903 12.620501
-57.759571 73.64769 3.786556 10.02925
-57.822277 74.203476 3.8716271 12.045
-57.792633 74.621803 3.7920713 12.790001
-57.831635 74.975136 3.7272775 13.100126
-57.877724 75.291855 3.7224746 14.05825
-57.982971 75.827415 3.7297988 15.1025
-57.691227 76.401741 3.8652947 12.1775
-57.780273 77.169861 3.8304799 11.101
-57.737007 77.574707 3.6749547 15.105
-57.753391 77.67923 3.7119863 13.57325
-57.790668 78.200356 3.7958813 13.4718
-57.693752 78.568626 3.7344878 12.61175
-57.799973 79.311203 3.7099752 11.096
-57.886532 72.903397 4.1640978 10.0205
-57.963238 73.392593 4.0069299 14.0255
-57.995617 73.722893 4.2155151 11.169
-57.923527 74.395119 4.1241441 14.0245
-57.923752 74.614464 4.1848826 13.385666
-57.87569 77.873978 4.0798507 11.04725
-57.644306 78.381332 4.1836948 10.125
-57.910053 79.02504 4.1728888 12.0985
-57.8908 80.031708 4.2664757 12.099
-57.887157 73.868706 4.5095921 12.092751
-57.79528 75.275909 4.5531321 10.141251
-57.733223 77.578751 4.5072165 13
-57.745819 77.651085 4.6988077 13.706166
-57.747437 79.141632 4.4970608 14.1035
-57.815571 79.443787 4.6635733 14.6045
-57.613468 79.765526 4.5719452 14.104
-57.696129 80.096115 4.6940432 14.56325
-57.8223 74.501511 5.0637999 10.0875
-57.846413 75.197449 5.1096678 11.1195
-57.891354 75.490074 5.1760678 15.0235
-57.858692 75.868149 5.1116996 12.736833
-57.644714 77.837883 4.8360472 15.164
-57.871162 78.481422 5.0796962 9.0065002
-57.905727 74.34977 5.293138 10.1445
-57.691288 74.49585 5.4618354 10.0305
-57.937687 75.45369 5.3939276 15.0225
-57.847553 75.821358 5.533936 12.361
-57.697468 77.695557 5.5090122 11.106
-57.932178 74.269318 5.800931 11.0235
-57.698257 74.737648 5.9124041 12.7015
-57.785965 74.985519 5.8693933 12.554625
-57.678726 77.765457 5.9555068 13.047501
-57.884396 74.259277 6.1184893 15
-57.798141 74.56765 6.1821513 13.405667
-57.785625 74.965546 6.1494222 14.02125
-57.679462 75.385857 6.052927 14.1785
-57.613613 75.913887 6.0622792 13
-57.832825 76.102577 6.3191352 11.1055
-57.808277 77.129715 6.3215108 15.099751
-57.758255 77.488907 6.1323471 13.11025
-57.634018 77.784836 6.2687902 13.096499
-57.931896 74.941994 6.6580334 13.173
-57.782391 77.402878 6.5832515 14.5175
-57.92868 77.810722 6.4644132 12
-57.936939 75.452766 6.8465004 14.0175
-57.808086 75.722687 6.8713903 12.0405
-57.90097 76.057838 6.893496 11.732834
-57.91943 76.429855 7.0318918 14.51725
-57.842915 77.169273 7.1367874 11.173
-57.706345 77.332344 7.1000218 15.0392
-57.726032 77.628189 7.0359755 15
-57.809826 78.113777 7.0147843 15.099
-57.658302 74.469345 7.4629717 11.044
-57.870907 77.482468 7.4670029 12.022
-57.921684 77.808159 7.4993606 11.541667
-57.972214 74.333138 7.6523218 11.0505
-57.692421 77.771797 7.8756227 14.115167
-57.629025 77.577347 8.2969322 15.0165
-57.67931 77.631218 8.177289 14.0795
-57.312237 79.614075 -4.0076365 7
-57.407505 62.520622 -3.7335742 7
-57.210766 63.396412 -3.7679455 7
-57.594181 67.073776 -3.2114325 6
-57.279739 68.159584 -3.2092311 2.5
-57.359039 68.600731 -3.2136347 3.1666667
-57.349884 69.002098 -3.2261164 3.375
-57.373554 69.511917 -3.240176 3.8
-57.402729 69.763809 -3.25507 3.8
-57.402519 70.065269 -3.2645426 3.5999999
-57.253578 75.832451 -3.5856793 7
-57.521091 82.005547 -3.2170227 7
-57.436646 83.230835 -3.2078679 5
-57.534393 83.819229 -3.239743 5
-57.209797 84.108833 -3.2948 5
-57.363064 84.698242 -3.3362343 5
-57.407505 84.894905 -3.202575 5
-57.515667 85.416794 -3.2221065 5
-57.457348 85.91584 -3.2303388 7
-57.270348 86.661339 -3.296505 6
-57.402828 87.073738 -3.2782755 5.6666665
-57.399879 87.425613 -3.320262 5.8333335
-57.272327 87.79052 -3.3451061 6
-57.433544 88.322823 -3.4126856 5.3333335
-57.362728 88.730476 -3.4579082 5
-57.458927 89.187408 -3.4791863 5
-57.340584 89.295647 -3.3861651 5.3333335
-57.423393 89.759323 -3.4332199 5.25
-57.384075 62.213448 -2.8407493 4.3333335
-57.35878 62.606415 -2.8833225 3.75
-57.23373 63.142513 -2.843101 5
-57.293587 63.297443 -2.9042766 4
-57.327663 63.813744 -3.0107975 3.8
-57.423058 64.204208 -3.0122781 3.9333334
-57.467571 64.65731 -3.0523193 4.3333335
-57.402084 64.9972 -3.0094562 4.6666665
-57.419083 65.429665 -3.0230658 4.6428571
-57.340923 65.797577 -3.0808396 3.9285715
-57.346096 66.228477 -3.0889425 3.6666667
-57.353352 66.642174 -3.1079063 3.4615386
-57.32402 66.971825 -3.1133165 3.4545455
-57.348221 67.360008 -3.1297357 3.625
-57.38176 67.768173 -3.1732795 3
-57.340698 68.189827 -3.1921549 2.3333333
-57.439587 68.421707 -3.166836 5
-57.452515 68.888901 -3.1853294 5
-57.467113 69.205246 -3.197947 5
-57.409565 70.292938 -3.1240113 3.3636363
-57.385464 70.535309 -3.0436382 3.8571429
-57.367367 70.991173 -3.0601101 3.3333333
-57.408463 71.483597 -3.0707946 4.3333335
-57.362339 71.881378 -3.0681694 2.8
-57.450542 72.220642 -3.0664182 3.0769231
-57.420471 72.663368 -3.0532765 2
-57.391727 72.99939 -3.0853784 3
-57.420616 73.346222 -3.0867147 3.1428571
-57.419434 73.717285 -3.0691214 3.1538463
-57.451279 74.279434 -3.0696154 2.75
-57.411293 74.576462 -3.0619082 2.9166667
-57.288391 75.060089 -3.0723226 3.5
-57.39307 75.279663 -3.0893497 4
-57.392239 75.827438 -3.098752 4.6666665
-57.462791 76.212013 -3.0894411 4.125
-57.403934 76.574776 -3.0803561 4
-57.395477 77.039711 -2.9835904 5.5999999
-57.450771 77.413589 -2.9232178 5.5384617
-57.424637 77.726974 -2.9296608 5
-57.434761 78.186516 -3.0156684 5
-57.278027 78.561699 -3.0264902 5
-57.469868 79.029892 -3.0619452 5
-57.490181 79.446404 -3.0780542 5.3333335
-57.365108 79.781319 -2.9640996 5.25
-57.399357 80.239525 -3.0912192 5.1999998
-57.424911 80.668343 -3.0550163 5.5
-57.403683 80.995316 -3.0614569 5.6666665
-57.377228 81.397987 -3.0621221 5.5
-57.368404 81.821228 -3.0851016 5.25
-57.488018 82.117195 -3.1198406 5
-57.227341 83.073494 -2.9339881 5
-57.35527 83.457458 -3.0748022 5.5
-57.474468 83.833992 -2.9795756 5
-57.42049 84.068573 -3.1897576 5
-57.442387 84.402374 -3.1968718 5
-57.405289 86.392578 -3.0762627 5
-57.283051 86.708611 -3.08128 5
-57.429504 87.181252 -3.1144936 5
-57.365101 87.549049 -3.1273651 5
-57.227345 88.701591 -3.1757412 5
-57.415955 60.175915 -2.6950316 3.2857144
-57.446415 60.690941 -2.7244525 2.7142856
-57.396404 60.924747 -2.7154801 2.4000001
-57.382954 61.361591 -2.7626669 1.8
-57.374695 61.719982 -2.7839293 3.6666667
-57.382061 62.121506 -2.79649 3.6666667
-57.410469 77.503845 -2.6386306 5.881978
-57.416328 77.719902 -2.5778267 6.4166665
-57.361408 77.503319 -2.2215953 6.4761906
-57.435028 77.663147 -2.2334812 6.7727275
-57.401741 77.530899 -1.8439875 7.2173634
-57.39336 77.681847 -1.8235407 7.1776519
-57.413731 78.655296 -1.7179967 9.1195002
-57.43446 77.564537 -1.4675328 7.9347825
-57.435322 77.670662 -1.4361225 8.0103931
-57.221684 78.699234 -1.5448204 9.1125002
-57.431381 77.502922 -1.0385067 8.4860725
-57.428204 77.663696 -1.0061362 8.5733395
-57.275196 80.685425 -1.0583587 7.811625
-57.315357 80.981606 -1.0019811 9.1003246
-57.461067 77.51133 -0.58218837 9.3325577
-57.464077 77.670906 -0.59571517 9.0792904
-57.214733 79.843307 -0.60661608 9.1365004
-57.277523 80.152145 -0.45475399 9.5130911
-57.296013 80.638428 -0.43979418 9.5559454
-57.373219 81.056633 -0.48064947 9.8579578
-57.357044 81.31765 -0.59460133 8.7568331
-57.303333 77.055061 -0.093253627 8.350667
-57.430172 77.477402 -0.24779601 10.205008
-57.52124 77.659943 -0.22615616 9.8582697
-57.38699 80.641907 -0.25713846 10.1129
-57.401489 81.013405 -0.10623334 10.76975
-57.21476 81.528259 -0.30144423 10.1145
-57.235363 81.636017 -0.34567767 10.116
-57.537735 77.164551 0.1627682 9
-57.455482 77.460472 0.18038651 10.85255
-57.482998 77.644783 0.24448611 10.5
-57.571697 80.845688 0.048403718 10.62525
-57.303379 75.74398 0.62498218 10.124
-57.452206 77.178047 0.63051212 10
-57.437 77.436157 0.58447677 11.159951
-57.534019 77.675774 0.52802479 11
-57.246441 73.435356 1.1736132 10.0885
-57.413963 73.81543 1.144253 9.6084995
-57.449623 74.213036 1.0938224 12.864
-57.529495 74.463135 1.1631715 12.14525
-57.514271 75.097977 1.1737108 9.1145
-57.470062 77.157333 0.87567115 10
-57.453186 77.440025 0.98857546 12.287066
-57.477482 77.67543 0.95502502 11.5
-57.330418 73.466774 1.3700135 9.6275005
-57.434032 73.888313 1.4624977 11.469501
-57.384689 74.303421 1.3728389 12.099294
-57.407852 74.561798 1.410692 13.347136
-57.258068 74.988274 1.3740997 12.490582
-57.342495 75.359871 1.5315779 13.82
-57.203136 75.60041 1.5213299 13.1485
-57.514721 77.078613 1.3577651 10.5
-57.438408 77.435997 1.3578423 12.618544
-57.477146 77.61319 1.3272933 12
-57.217632 78.945648 1.5782888 14.152
-57.238213 79.321335 1.5779344 10.0955
-57.423477 73.536324 1.6747173 11.022
-57.232208 73.66568 1.6358362 12.0305
-57.326771 74.342873 1.7096723 11.43
-57.299927 74.486961 1.7070839 9.7806673
-57.406677 75.429893 1.7037661 13.141335
-57.557159 76.196205 1.757082 15.1115
-57.518753 77.008026 1.6779746 10.2752
-57.376472 77.400993 1.6366044 10.4568
-57.351688 75.827484 2.1869309 12.825
-57.420254 76.149681 2.2816565 11.34075
-57.345875 76.530518 2.1460621 11.073
-57.403088 76.924133 2.2214065 11.0975
-57.371178 77.498871 2.1800821 15.115625
-57.33522 77.614365 2.2332537 11.098
-57.330734 75.929794 2.667598 11.0965
-57.233711 76.24205 2.5843031 12.61375
-57.470913 76.594116 2.6463549 12.286501
-57.292614 77.144928 2.5412066 15.1505
-57.337727 77.359039 2.6051817 12.348928
-57.310143 77.65451 2.4987531 14.13975
-57.294842 78.8283 2.5945413 10.123
-57.474365 79.499184 2.6309776 12.1035
-57.321701 79.732231 2.7993438 13.106
-57.420124 80.156418 2.6602633 11.6175
-57.286579 74.378677 2.9811738 10.85675
-57.201958 74.455299 3.1350725 12.0965
-57.466854 74.911148 2.9689424 11.596251
-57.20755 75.684135 3.0875583 14.0305
-57.44978 76.954369 3.1317215 13.602751
-57.428806 77.464684 3.0730903 13.063832
-57.40332 77.706123 2.9939754 11.0965
-57.464767 78.734177 2.9180856 11.0975
-57.371395 79.043045 3.001591 15.1095
-57.362408 79.409775 2.954303 14.3675
-57.298855 74.319679 3.4093454 13.560124
-57.456692 74.604927 3.3750217 12.2585
-57.463066 74.983719 3.401958 13.809929
-57.212036 75.427399 3.5802708 15.102
-57.379959 76.254646 3.5085151 12.63825
-57.236832 76.865288 3.5920339 13.101
-57.498356 77.516159 3.4337401 12.588375
-57.442905 77.811569 3.3745086 13.589874
-57.449265 78.202744 3.4548211 14.438499
-57.269115 78.690689 3.2657878 14.601625
-57.348705 79.020027 3.4971788 11.096
-57.44463 79.208908 3.5564837 11.096
-57.203964 80.089211 3.417392 11.114501
-57.29689 74.637642 3.7645831 10.125376
-57.368275 74.914421 3.9151905 10.452168
-57.344028 76.129997 3.7440636 12.08075
-57.383698 76.5811 3.84918 13.434001
-57.291504 77.365067 3.6545267 14.567249
-57.392868 78.334946 3.8327403 15.03
-57.531044 78.606049 3.7832422 11.108749
-57.24152 74.764366 4.328299 9.0139999
-57.316498 75.974808 4.0076237 14.0235
-57.339115 76.256363 4.1874199 11.0125
-57.558247 77.978653 4.1195517 11.0945
-57.515453 78.236732 4.0790205 15.105
-57.40086 78.576645 4.1685152 11.549
-57.331253 78.92968 4.3685122 14.1035
-57.398197 79.274208 4.1267819 11.095
-57.593643 79.752968 4.1476331 12.099
-57.42963 74.416245 4.743433 9.0074997
-57.532707 74.849594 4.7234354 10.0865
-57.29694 77.361771 4.6472335 11.347167
-57.373127 77.66539 4.5114555 13.074
-57.403942 78.319016 4.7122798 15.1635
-57.326553 78.732437 4.455966 13.741666
-57.44154 79.109177 4.6523271 14.813625
-57.424152 79.340454 4.4903255 13.2683
-57.355366 75.448631 5.0341816 12.248417
-57.290874 75.875473 4.9700451 13.58325
-57.444984 76.189865 4.9608049 11.353125
-57.355286 76.638 4.8757691 13.476666
-57.337749 77.515282 4.884212 14.122334
-57.504887 77.799377 4.8879671 13.10025
-57.294559 78.223663 4.9596057 15.023001
-57.347797 78.670433 5.0512409 9.0074997
-57.333607 79.279907 4.8054514 15.0235
-57.27964 79.807854 4.8794966 15.023
-57.523991 74.98465 5.2736139 10.14775
-57.466881 75.427635 5.4430809 11.423833
-57.335735 75.687157 5.2406445 11.114
-57.395401 77.444435 5.3657961 11.1225
-57.300156 78.124268 5.341207 10.801
-57.294632 78.457527 5.4553456 11.1075
-57.250042 74.396362 5.95681 11.02
-57.516304 75.023407 5.724586 13.0875
-57.480396 75.539146 5.9680862 13.55025
-57.344414 76.082497 5.9032655 11.1025
-57.345627 77.43943 5.9387002 14.065333
-57.340603 77.742043 5.8421211 13.401833
-57.496563 74.29985 6.1814437 12.16525
-57.20985 74.5504 6.1343946 11.0165
-57.430809 75.291946 6.0620551 12.1635
-57.585129 75.655594 6.0871177 11.132
-57.419289 76.982109 6.2800193 15.085
-57.310768 77.302841 6.0619345 12.0945
-57.412807 77.848442 6.053731 14.367
-57.208382 75.946266 6.7164688 10.0215
-57.263752 77.19207 6.4413066 14.0975
-57.574707 77.874176 6.5342426 15.1
-57.233002 78.209625 6.4549065 11.105
-57.305107 78.520515 6.5327978 15.10075
-57.311871 76.906921 7.0675087 14.0865
-57.305374 77.33757 7.1165261 15.00825
-57.420147 77.713348 7.1778111 14.0875
-57.430367 78.876053 7.0379429 11.0095
-57.319824 74.845619 7.4061575 11.037
-57.553558 76.589622 7.3134727 13.774333
-57.40765 77.037445 7.3423734 14.016
-57.353519 77.341515 7.4031429 12.027333
-57.434856 77.657295 7.3788142 12.025
-57.300289 78.004822 7.5021181 14.1785
-57.217339 76.229668 7.685039 11.0435
-57.545879 76.660599 7.6860232 15.017
-57.331303 76.98114 7.6734943 10.0065
-57.538277 77.364708 7.6437821 11.1275
-57.44902 77.78421 7.6342707 12.369834
-57.448429 77.770058 8.1731262 12.0115
-57.098213 70.539871 -3.9804709 7
-57.018803 76.964096 -3.8306899 7
-57.071014 63.84306 -3.2061656 7
-57.134678 67.806938 -3.2011287 4
-56.806877 68.730202 -3.2122245 1
-57.078606 68.966255 -3.2152846 1.75
-57.101513 69.356735 -3.2279503 2.3333333
-56.980885 69.856651 -3.2536895 1.8333334
-56.943733 70.227028 -3.2361302 3
-56.837368 83.139343 -3.2032411 5
-56.974644 83.554161 -3.2613225 5.5
-57.186554 83.690201 -3.2376451 5
-56.988388 84.302818 -3.2170985 6
-57.004948 84.590469 -3.3673315 5
-57.157295 85.762718 -3.2529953 6
-57.001152 86.334183 -3.2814336 6
-56.977333 86.490334 -3.2861428 5
-57.038002 86.935738 -3.3848238 5
-56.966461 87.473412 -3.3413203 6
-57.034161 87.79361 -3.3753192 5.6666665
-56.948318 88.027328 -3.3121781 6
-56.846375 89.051346 -3.4123201 6
-57.141979 61.376865 -2.8967974 6
-56.964699 62.37114 -2.8112636 3
-57.006462 62.538174 -2.8319738 4.3333335
-56.997433 63.038036 -2.8801966 4.3333335
-56.944538 63.430878 -2.8953424 3
-56.985752 63.859165 -2.9341908 3.7272727
-57.023964 64.172951 -3.0262601 3.5
-57.00333 64.558578 -3.0730524 3.6875
-57.063 64.976784 -3.0720038 3.6363637
-57.02103 65.372307 -3.0772266 3.6428571
-56.994053 65.780304 -3.0766628 4.181818
-57.004887 66.226768 -3.0820558 4.25
-57.042591 66.626747 -3.0911715 4
-57.02737 66.980812 -3.0810816 4.3076925
-57.027573 67.38308 -3.0964649 4.25
-57.0299 67.763184 -3.1013424 4.2727275
-57.009537 68.201279 -3.1261559 4
-57.047653 68.600998 -3.1280882 3.875
-57.041328 68.98185 -3.1582279 4
-57.034702 69.440292 -3.1258266 5
-57.012283 69.890457 -3.1488173 5
-56.996155 70.242561 -3.1066456 4.25
-56.983063 70.59314 -3.0942018 2.9166667
-56.906948 70.997902 -3.0667281 4.625
-56.98896 71.398773 -2.9886863 4.25
-57.018841 71.797379 -3.0436554 3.9166667
-56.993443 72.232811 -3.0425463 1.5384616
-57.000568 72.6436 -3.0434678 2.375
-57.00901 73.04187 -3.0440419 2.2727273
-57.065453 73.411438 -3.0586729 2.090909
-57.057251 73.699074 -3.0643296 1.5
-56.981197 74.189041 -3.0447288 3.1428571
-57.003887 74.666145 -3.0696654 2.1666667
-56.964081 75.032257 -3.0465438 3.8888888
-57.052464 75.574173 -3.0636835 3.5
-57.046921 75.922005 -3.0703142 5
-57.004013 76.226318 -3.0667083 3.6923077
-57.032883 76.629951 -3.0284429 5.1428571
-57.080471 77.004272 -2.995002 5.25
-57.069839 77.417091 -2.934268 4.3913045
-56.88953 77.79599 -2.964927 5
-57.043835 79.306061 -2.8308113 5
-56.952816 80.203606 -3.0785339 5.1666665
-57.023628 80.570137 -3.028507 5.1999998
-56.95335 80.950569 -2.9839704 5.6666665
-56.804535 81.514557 -2.9136989 6
-56.957794 81.908195 -3.0987518 5
-56.881439 82.258545 -3.0312796 7
-57.097664 82.707619 -2.9118748 5
-56.968906 83.159782 -3.1513186 7
-56.800976 83.523415 -3.1287417 5
-56.948177 83.62085 -3.1528761 5
-56.839905 84.093513 -3.1098032 6
-56.801182 85.702087 -3.166568 5
-57.166893 88.244728 -3.1475821 5
-57.066296 89.239693 -3.1931221 5
-57.031048 60.218975 -2.6746585 3
-57.030075 60.628109 -2.6879334 2.7272727
-57.00087 60.993275 -2.7306192 2.2857144
-56.936817 61.377964 -2.7476223 2.625
-56.997246 61.802719 -2.7662468 4
-57.126873 62.179626 -2.7984605 5
-56.841873 62.590984 -2.7834744 5
-57.038807 77.178543 -2.634944 7
-57.070694 77.512047 -2.5534465 5.3125
-57.128803 77.65844 -2.4791274 6
-57.106731 77.519638 -2.2185853 6.1666665
-56.803761 78.005997 -2.0787067 7
-57.150867 79.824158 -2.1329677 8.0979996
-57.038124 80.357285 -2.1531656 8
-57.134075 80.593468 -2.157517 8
-57.012398 71.315788 -1.6397763 7
-57.141899 77.590286 -1.8474436 7
-57.115612 77.617973 -1.8544682 7
-56.853973 80.380867 -1.6326247 8
-57.063438 80.51149 -1.7358762 8.0994997
-56.916363 80.843575 -1.8207761 7
-57.17038 77.570625 -1.4808166 7.8000002
-57.083775 77.608429 -1.4446311 8
-57.08466 79.272102 -1.2329178 7
-56.942093 80.564178 -1.4227405 8.1428747
-57.151512 77.571945 -1.0657324 9
-57.127258 77.610268 -1.1144972 9
-56.978306 79.890045 -0.97836804 8.9541616
-56.884983 80.180222 -1.0194192 8.8185835
-56.973476 80.632263 -1.0348021 8.8189993
-57.106148 80.930489 -1.0099581 9.1218338
-56.941223 81.395706 -1.0574198 8.774333
-56.859932 81.659164 -0.90924966 8.4534998
-57.197681 77.05896 -0.4552485 8.04
-57.172466 77.543915 -0.59651524 9.666667
-56.988285 79.841461 -0.47028875 9.8638906
-57.026077 80.136795 -0.50567895 9.6767817
-57.004574 80.635658 -0.59523201 9.5679998
-56.999821 81.026222 -0.59216642 9.0166817
-56.964748 81.479446 -0.46162957 9.1047497
-57.073971 76.721733 -0.058275327 8.0225
-57.194328 77.541451 -0.29659584 11
-56.905518 78.875259 -0.17496577 9.1230001
-56.871758 79.507324 -0.20519757 9.059
-56.974266 79.776825 -0.23262425 9.9184036
-57.016071 80.106171 -0.25929847 10.0645
-56.996819 80.633904 -0.12778564 10.619187
-56.971668 81.077034 -0.25009009 10.11225
-56.983505 81.47245 -0.22111641 9.7736673
-56.826164 81.651634 -0.24438003 9.0780001
-57.142117 76.672951 0.10658841 8.0190001
-56.872017 79.501328 0.12016609 10.299375
-56.946724 79.81649 0.22535792 11.001518
-57.018871 80.058914 0.091195874 10.806
-57.104301 80.599838 0.1145671 10.417333
-56.903702 80.970482 0.31967908 10.358375
-56.882595 81.252602 0.015613335 10.109
-56.887276 70.907898 0.71301335 12.773
-56.828125 79.793724 0.45071778 12.035812
-56.993423 80.253197 0.6924839 11.469153
-57.023869 72.674049 0.99713618 10.093
-56.975113 73.054871 1.0433029 13.290708
-56.978565 73.20372 1.1442108 13.157
-57.131054 73.838371 1.1584586 8.5297499
-57.10463 74.73291 1.1679568 13.1045
-57.004368 80.175209 0.87096769 12.094666
-56.970497 72.668129 1.2022389 11.0265
-56.901897 73.076515 1.2447021 12.783166
-56.921448 73.412781 1.3908169 11.464916
-57.078133 73.716942 1.5123899 12.1346
-57.185574 74.293793 1.4543686 11.024
-57.064224 74.6604 1.3942269 11.443438
-57.067665 74.93795 1.460916 13.3268
-57.114197 75.483063 1.5140353 12.277167
-56.911739 75.711571 1.4873636 12.904563
-57.014168 76.948822 1.458019 10.095125
-57.159801 77.597801 1.4818809 10
-56.869595 77.8722 1.3558255 10.096251
-57.089497 78.134789 1.3449472 10.0965
-56.995071 78.713943 1.3713553 10.722875
-56.974911 78.909363 1.4867294 14.127055
-56.872742 73.428688 1.7866457 12.070375
-56.887543 73.805565 1.7680728 12.309
-57.018715 74.098587 1.778434 11.380751
-57.042992 74.421326 1.7192446 10.093
-57.069443 75.046196 1.6471469 10.847375
-57.055573 75.385742 1.7688743 11.9835
-57.002468 75.797318 1.7357943 12.478227
-56.934631 76.219414 1.7862171 12.437943
-56.947163 76.58213 1.7845323 12.1215
-56.917961 76.832924 1.7623726 9.0970001
-56.964817 77.394043 1.9964252 9.0965004
-56.950375 78.188797 1.9818907 14.1105
-56.903778 78.73362 1.7820244 13.875875
-57.046097 78.872375 1.6748015 14.240972
-56.949696 74.139038 2.0518012 12.5665
-56.886005 74.649078 2.2260082 14.1405
-56.986919 75.844208 2.1940167 11.8361
-57.108013 76.204849 2.2083807 12.2955
-56.830215 76.605568 2.1479392 14.139
-56.915993 77.031509 2.1057293 12.691199
-56.976971 77.591393 2.1045249 12.5515
-57.031872 78.166107 2.212626 14.89175
-56.829716 78.711273 2.0680141 14.111
-56.889301 78.882423 2.0628817 13.0645
-56.894463 75.242096 2.7365556 14.035
-56.94873 75.869637 2.663831 13.1185
-57.132118 76.248726 2.7560606 11.0965
-57.093922 76.62252 2.4805541 11.097
-57.092697 76.997993 2.6643107 11.58375
-57.092049 77.3116 2.6691425 11.725667
-57.021496 79.146416 2.678282 12.103
-57.111858 79.712593 2.700964 13.56675
-57.078934 80.237053 2.6728685 13.516398
-56.885498 80.607719 2.6316702 13.28315
-56.916439 80.837242 2.4427216 14.644751
-57.101768 74.357948 3.034936 11.549749
-57.032261 75.845314 2.992234 11.780999
-56.864635 76.224319 3.1266236 12.4285
-57.011242 76.681763 3.0402863 13.4355
-57.094948 76.995522 3.187417 11.764167
-56.819954 77.359589 3.1096406 11.430833
-57.071632 77.848465 3.0990174 11.765167
-57.090351 78.513161 3.1108885 15.1385
-57.113564 78.969376 3.1142547 14.115666
-57.172646 79.344612 3.047086 14.62175
-56.996525 79.857491 2.9015374 14.633
-56.854408 80.163338 2.8131752 12.019
-57.06319 74.265305 3.3099203 13.862918
-57.136307 74.462914 3.2546856 13.599501
-57.05394 75.353722 3.5447259 15.0335
-57.161926 75.679451 3.4353588 14.0645
-56.918518 76.120667 3.3810573 13.441334
-57.035408 76.74752 3.3397086 15.0335
-56.895863 76.964378 3.4732575 14.401084
-57.032143 77.4533 3.3797832 13.0762
-56.866436 77.902504 3.5238342 13.063
-56.911533 78.661079 3.2914596 15.10775
-57.100315 78.93795 3.3464339 14.3175
-56.942982 79.523239 3.2198069 14.034
-56.913094 79.93531 3.2262135 14.0275
-57.133636 80.154579 3.5325596 11.0965
-56.95528 85.96553 3.5312889 15.1455
-57.172989 74.939659 3.8385873 9.1335001
-57.00687 75.43158 3.7138269 13.524
-56.970276 75.63401 3.6814406 11.58725
-56.994995 76.104698 3.8955758 11.168
-57.005669 76.557579 3.7179964 10.57475
-56.983761 77.078705 3.8555868 10.127501
-56.934917 77.931114 3.9618571 14.103
-56.952679 78.437675 3.7915151 14.1635
-56.835423 85.895882 3.8426912 13.617126
-56.943729 76.040298 4.3324332 10.095
-57.176712 76.672028 4.196815 15.027
-56.895958 76.907982 4.264771 12.51075
-56.885406 77.267769 4.1438494 14.602751
-56.995312 77.889236 4.0668783 12.056499
-57.136066 78.01078 4.1396394 15.1045
-56.970615 78.569183 4.2877874 12.098
-57.068279 79.926796 4.3331313 13.1015
-56.804485 85.58287 4.0314283 12.103
-57.089638 75.078049 4.6365523 9.0120001
-57.0382 75.324341 4.6335187 10.0865
-56.883541 77.072502 4.6710696 10.0945
-57.059902 77.248909 4.7613811 15.165
-57.038578 78.373222 4.718483 14.5485
-56.892406 79.027153 4.6602054 14.103
-56.92577 79.544456 4.6335163 14.521749
-56.985233 79.852882 4.6553421 13.5605
-57.133522 75.348946 4.9825306 13.627001
-57.026218 75.688705 4.961041 12.756332
-57.076904 76.887077 4.9936705 15.0225
-56.940613 78.519852 4.8517404 13.684834
-57.112942 79.346519 4.9148769 14.019
-57.117542 80.169968 4.9785519 14.5205
-56.903309 74.864792 5.2369003 10.144
-57.164288 75.342232 5.233757 15.022
-56.836452 75.754288 5.285603 15.0825
-56.974201 76.167305 5.2665801 15.082
-57.090725 76.492195 5.5786133 11.0075
-57.000359 77.509613 5.4026604 10.125
-57.103672 74.759834 5.8337879 10.027
-57.024487 75.684166 5.9331455 11.118
-57.0961 76.076096 5.9904895 10.1505
-56.979759 76.631729 5.734839 13.5165
-56.900681 76.849007 5.9207578 11.0155
-57.023262 78.261909 5.692687 12.0955
-57.111591 78.598351 5.8404756 10.033
-57.014187 76.118263 6.0835023 11.114
-57.013512 77.729134 6.1204529 11.521
-57.018269 78.099571 6.3184853 10.62525
-57.117939 78.48616 6.1915131 12.740167
-56.880157 77.918922 6.5883365 14.016
-56.959221 78.134407 6.4001069 11.11
-56.889721 76.361626 7.1790915 12.03
-57.092453 76.542801 7.1081505 12.3405
-57.078941 77.01857 7.0149918 13.750668
-57.192604 78.292564 6.8133249 11.0125
-57.00362 76.310539 7.2424316 13.073
-56.949986 76.603539 7.3858624 12.4368
-57.011799 76.966454 7.4034657 12.032135
-57.009365 77.439919 7.4352307 13.37575
-56.940479 77.756447 7.5682511 12.0185
-57.056305 78.336922 7.4760861 12.1165
-56.820766 77.446854 7.7675858 13.0665
-57.132771 78.232437 8.525836 11.148
-56.797951 79.972572 -4.0477076 8.1055002
-56.425522 73.204529 -3.9627743 7
-56.741158 74.051712 -3.9741883 7
-56.542206 68.360802 -3.2051899 2
-56.625751 68.653084 -3.2111409 1.6666666
-56.525829 68.996162 -3.2213955 3
-56.519142 69.356071 -3.2288477 3.4000001
-56.460491 69.697083 -3.238241 4
-56.499069 70.048241 -3.2613149 4
-56.770435 70.811775 -3.3567827 7
-56.500095 72.686722 -3.5161853 7
-56.587223 73.497337 -3.538316 7
-56.407192 76.49395 -3.4339106 7
-56.539959 80.598068 -3.2416723 7
-56.695431 83.178284 -3.3158951 5
-56.663662 83.422371 -3.3141284 5
-56.629181 84.637207 -3.2908642 5.3333335
-56.540443 85.085243 -3.3956242 5
-56.583515 85.519684 -3.2647133 6.3333335
-56.744934 85.614769 -3.3344381 5
-56.745224 86.074242 -3.2836647 5.75
-56.536552 86.69281 -3.3613579 6
-56.79084 87.239571 -3.3943169 6
-56.630341 87.846329 -3.2966168 6
-56.597328 88.228813 -3.3117027 6
-56.633587 88.58123 -3.2471058 5
-56.47298 88.863007 -3.4097023 6
-56.72966 89.338501 -3.271029 5
-56.759624 89.98243 -3.4406548 6
-56.676819 61.223286 -2.9436781 6
-56.670692 62.160515 -2.9667616 7
-56.554142 62.589874 -2.8120153 4
-56.565182 63.025219 -2.8447955 4.2222223
-56.591824 63.362701 -2.8832626 2.8333333
-56.646088 63.848137 -2.9598267 4.3333335
-56.645332 64.166641 -2.9932473 2.75
-56.527176 64.68689 -3.0757449 3.6666667
-56.655651 65.043076 -3.0754337 3.4000001
-56.607704 65.424324 -3.0770957 2.75
-56.577541 65.862503 -3.0978734 2.7142856
-56.543118 66.292152 -3.1246839 2.375
-56.575851 66.701996 -3.143481 2.2
-56.531128 67.00219 -3.1245661 2.75
-56.572109 67.415184 -3.1394718 2.875
-56.634796 67.837181 -3.1589961 2.2
-56.670887 68.209305 -3.1387062 3.1666667
-56.600208 68.585037 -3.1311009 5
-56.552876 69.038071 -3.108532 5
-56.591141 69.467506 -3.1104825 5
-56.517471 69.711159 -3.1400766 5
-56.580116 70.130783 -3.1426589 4.2857141
-56.568604 70.597809 -3.050736 4.8000002
-56.638905 70.970406 -2.9905908 4.09375
-56.589012 71.24884 -2.9810016 5.5
-56.582985 71.837128 -2.9921627 4.0666666
-56.608936 72.182037 -3.0015161 3.7272727
-56.606773 72.548927 -2.9948256 1.6153846
-56.669525 73.078262 -3.0159543 2.3333333
-56.569088 73.42588 -3.0071137 2.3
-56.581242 73.795525 -3.0158231 3.9000001
-56.563488 74.215965 -3.0221324 4.3000002
-56.659042 74.608513 -3.0490921 3.2
-56.604382 75.079407 -3.0380673 4.6666665
-56.538849 75.298347 -3.0182223 4.1999998
-56.74276 75.767654 -3.0533631 3.75
-56.644211 76.174301 -3.0435045 3.8181818
-56.546635 76.74614 -3.0116909 4.75
-56.635895 77.093697 -2.975399 5.6666665
-56.723328 77.460732 -2.94823 4
-56.608406 77.770981 -2.9488864 4.8333335
-56.6465 79.827156 -3.0341129 5.5
-56.59407 80.14785 -2.9391255 5.5999999
-56.573677 80.590714 -2.9790654 5.5999999
-56.675247 81.325371 -2.9910738 5
-56.602718 81.826096 -2.8825862 5.5
-56.548134 82.272926 -2.8978136 5.5
-56.655582 82.777794 -3.1668711 5
-56.653728 82.98941 -3.1434338 5.3333335
-56.768841 83.290695 -3.1362143 5
-56.539173 84.457413 -3.1486704 6
-56.44117 84.906754 -3.1324167 6
-56.785675 85.833977 -3.1551542 5.5
-56.671753 86.31031 -3.1648312 6
-56.595398 60.162769 -2.6658502 3
-56.580662 60.695522 -2.6587427 2.75
-56.535877 60.961536 -2.6657264 3.175
-56.664688 61.452789 -2.7394021 1.5
-56.547684 61.858425 -2.7722647 4.25
-56.635307 62.247116 -2.7832401 4.4444447
-56.593792 63.733017 -2.7493355 7
-56.550961 70.730637 -2.4792268 6
-56.650261 70.977875 -2.5405717 4.7943158
-56.478321 73.173119 -2.7926822 5
-56.607555 73.442284 -2.7990224 5
-56.723053 78.975044 -2.7987335 5
-56.699291 80.432327 -2.7388146 8.0965004
-56.574066 70.692421 -2.08392 6
-56.674591 70.996025 -2.1797695 5.1929827
-56.631935 80.717514 -2.3036883 8.0977497
-56.570099 70.752792 -1.7620879 7
-56.649036 70.992683 -1.7638979 6.7361879
-56.601627 78.16539 -1.6396966 9.1160002
-56.665813 78.466377 -1.9729668 8.1315002
-56.618423 80.26136 -1.6643783 7.9346423
-56.423954 80.589348 -1.9353333 8.099
-56.591713 80.969055 -1.7893336 7.5497499
-56.556625 70.740051 -1.2385716 7
-56.626438 70.98407 -1.3875555 8.1676483
-56.564049 80.266685 -1.4999659 8.1233387
-56.690895 80.508324 -1.441995 7.9447007
-56.598969 80.977875 -1.3956324 7.3684998
-56.468769 81.206192 -1.4692966 8.1363335
-56.451439 81.650017 -1.2569599 8.1335001
-56.554726 70.790894 -0.96965665 8
-56.633759 70.995956 -1.0622305 8.5951252
-56.589695 79.91478 -0.95587766 8.9298754
-56.62109 80.183136 -1.0112534 8.8183508
-56.60421 80.586159 -0.98981798 8.6153374
-56.529236 81.10247 -0.91231227 8.3234377
