# .PCD v0.7 - Point Cloud Data file format
VERSION 0.7
FIELDS x y z intensity
SIZE 4 4 4 4
TYPE F F F F
COUNT 1 1 1 1
WIDTH 1210
HEIGHT 1
VIEWPOINT 0 0 0 1 0 0 0
POINTS 1210
DATA ascii
-2.2969742 118.90846 2.9547939 12.078751
-2.1191425 90.065643 3.2354958 10.0535
-2.2153978 109.54832 3.5607176 14
-2.2034278 118.94338 3.2601979 12.077667
-2.1823399 109.54179 3.6641395 14.445333
-2.0706544 116.26051 3.7771993 14.0935
-2.3655257 117.02197 3.8029134 14.09075
-2.1822627 109.46493 4.3304677 13.166667
-2.1438198 109.47668 4.5858264 15.170199
-2.12888 109.42456 5.1882992 13.65125
-2.2652564 109.4426 5.2195888 15.1715
-2.0318127 109.5993 5.8539982 15
-2.0241067 109.62919 5.6712918 13.14
-2.3306637 119.01665 6.1885929 14.1
-2.2460017 109.38647 6.7628093 12.077167
-2.0960021 118.22916 6.4553776 14.0085
-2.0904319 109.22588 7.5489254 11.0635
-2.1954086 109.6885 7.9588828 13.1125
-2.0635331 118.24873 7.8790793 15.0085
-2.1997147 109.16805 8.3667879 12.092
-2.280211 109.2965 8.2409515 13.033666
-2.2034113 109.25523 8.5794497 12.058001
-2.1924267 109.65121 8.9048004 14.1685
-2.1557035 109.5612 9.5007048 15.0765
-2.0283649 109.80737 12.571271 13.1645
-2.2534707 109.85107 15.933717 15.161
-1.7396344 99.177399 -4.0005708 4
-1.7567124 99.461647 -4.0025415 4
-1.7997133 99.737289 -4.0018568 4
-1.775874 100.23177 -4.0155768 4.6666665
-1.809989 100.60537 -4.0184531 4
-1.9272528 100.99811 -4.0141826 4
-1.8110566 101.40333 -4.0241399 4
-1.7612485 101.78312 -4.0488 4.5
-1.7903292 102.21828 -4.0585222 4.5
-1.7999313 102.61996 -4.080575 4
-1.9296625 102.92169 -4.0742593 4
-1.9565717 105.51443 -4.2259574 6
-1.8592321 109.69341 -4.1521978 3.0769231
-1.9977906 93.156845 -3.6626141 6
-1.6994092 93.296898 -3.6403952 6
-1.8005029 93.837646 -3.6352665 5
-1.8285609 94.179428 -3.6339369 2.75
-1.8485142 94.55706 -3.7073193 3.6666667
-1.7798051 95.070045 -3.7973189 3.7142856
-1.8333213 95.429527 -3.7886121 2.8
-1.7424715 95.807182 -3.8179767 3.3076923
-1.9084667 96.320854 -3.8337235 2.5
-1.8933833 96.627647 -3.849864 4
-1.8450826 97.043449 -3.8363111 3.347826
-1.8420709 97.516037 -3.8436258 3.5454545
-1.7971941 97.866776 -3.8379278 2.5
-1.8552011 98.197639 -3.8759558 2.6875
-1.8388093 98.649765 -3.8939533 2.7777777
-1.8445605 99.055771 -3.9090428 3.5
-1.8402402 99.450241 -3.9055436 3.2
-1.8557495 99.862373 -3.8932915 3.1764705
-1.8437877 100.26205 -3.9013767 3.2
-1.7533981 100.5349 -3.917403 2.7
-1.8269898 101.00877 -3.9150701 2.3571429
-1.7235047 101.38285 -3.9280469 2.3
-1.7998759 101.81042 -3.9479291 2.5999999
-1.8776751 102.23138 -3.9578786 3
-1.8280978 102.6384 -3.9315684 3.75
-1.7773806 102.86623 -3.8363991 4.75
-1.9351041 106.78331 -3.6058865 3
-1.9742934 107.08643 -3.7481446 3
-1.9891185 107.42718 -3.6721804 3.5
-1.9929901 107.60178 -3.6080842 4
-1.8237486 109.73576 -3.8323119 3.9642856
-1.7343549 110.66151 -3.8287928 5
-1.8139516 112.76612 -3.7707751 5
-1.938959 112.85156 -3.8178556 5
-1.7644823 113.29137 -3.8847742 5
-1.7276981 113.95392 -3.6368864 5
-1.7502264 114.21871 -3.7066674 5
-1.7892293 114.46588 -3.7085841 5
-1.9309628 115.72112 -3.6874671 5
-1.7204539 117.51698 -3.9360168 6
-1.8079059 118.82475 -3.9777749 6
-1.9195504 119.37659 -3.6268449 4
-1.7610936 119.7409 -3.6392934 4
-1.8456427 90.32486 -3.2137208 6
-1.8278449 90.662186 -3.2357311 5
-1.9375746 91.083984 -3.2528927 4.3333335
-1.8410711 91.368629 -3.2677982 4.1999998
-1.7446483 91.833008 -3.2794058 3.8
-1.8452872 92.283348 -3.3441441 4.4000001
-1.8057884 92.652756 -3.4040449 3.3125
-1.7769881 92.920929 -3.3902979 3.2105262
-1.8055055 93.384445 -3.4857635 3.2105262
-1.7945983 93.793999 -3.5607443 3.1333334
-1.9142745 94.264557 -3.3479104 5
-1.7290673 102.70224 -3.3157434 5
-1.7766364 102.95573 -3.3736219 3.3684211
-1.8355361 103.39824 -3.3093061 4.0999999
-1.7559521 103.80679 -3.2922797 2.6666667
-1.818517 104.04204 -3.3283656 4
-1.8437674 104.51608 -3.3234556 2.3703704
-1.7654294 105.0428 -3.3369572 2.151515
-1.7798262 105.27663 -3.2997715 2.6666667
-1.8750447 105.88651 -3.3188684 2.6666667
-1.9152607 106.34698 -3.4109921 3
-1.9372865 106.57672 -3.4790902 3.6666667
-1.9752878 107.1033 -3.5527995 4
-1.8457295 109.78399 -3.4128366 4.9736848
-1.6722686 110.01809 -3.4249461 6
-1.6859831 112.04733 -3.2367766 6
-1.9667966 112.44608 -3.5709052 6
-1.7875667 114.13342 -3.5647736 5
-1.9857107 115.62552 -3.5270808 5
-1.6335562 117.90287 -3.4020522 6
-1.7277523 90.224861 -3.0769794 4.75
-1.7188852 90.61203 -3.157649 4
-1.991183 91.08609 -3.1663263 6
-1.6318955 91.221191 -3.1777186 6
-1.9811566 92.315109 -3.0276303 5
-1.923502 92.557724 -2.9944737 5.1999998
-1.7686316 92.985107 -3.0013912 5.4000001
-1.7853912 93.370384 -3.1132054 5
-1.6980429 93.841537 -3.1779795 5
-1.8280634 102.7962 -3.0335732 6
-1.9691879 105.19669 -2.9290571 4
-1.8316944 105.22803 -2.9680526 3.7692308
-1.955924 107.03938 -2.9338212 7
-1.7759935 109.76221 -2.9356985 5.9545455
-1.8911356 112.04266 -3.103893 6
-1.9129897 112.63496 -3.0898328 5
-1.9730121 115.60988 -3.1968722 6
-1.6547359 117.90033 -2.9846468 6.6666665
-1.8226777 105.23631 -2.6196582 5.9222217
-1.8245889 106.99776 -2.5845895 6.5238094
-1.8905693 107.33099 -2.4486506 7
-1.8049967 109.79064 -2.5440726 6.9615383
-1.6306487 110.14941 -2.562705 6
-1.9073358 112.0913 -2.6027865 6
-1.8972834 114.82917 -2.6480644 6
-1.6390103 117.89467 -2.7405109 6.6999998
-1.8473908 105.23694 -2.2811956 7.557375
-1.9283795 107.03993 -2.1379197 8.0668745
-1.8904928 109.70583 -2.1611345 7.9907188
-1.822348 113.65951 -2.1651134 8.1220007
-1.6711959 117.77589 -2.1402907 7.6301255
-1.9570276 109.79088 -1.730011 8.8221493
-1.768792 117.76579 -1.8155006 8.3286066
-1.9685529 106.74375 -1.2963303 12.1315
-1.9440855 106.95428 -1.377248 10.593111
-1.8729067 109.85616 -1.4677484 9.5567379
-1.6692111 117.86203 -1.4387182 8.815999
-1.9197367 109.89471 -0.94657373 11.090909
-1.7454507 110.01436 -1.1831738 9.0575008
-1.7616823 117.79117 -1.0790304 9.8920555
-1.616982 92.525818 -0.53775096 12.039
-1.8162165 109.85938 -0.50950778 11.48979
-1.7492781 110.0032 -0.56497031 11
-1.8961875 117.78574 -0.50659835 11.052299
-1.6682292 92.509277 -0.25969195 8.4406672
-1.8241788 103.02599 -0.34903705 6
-1.7992697 109.80856 -0.18319561 12.095716
-1.7370661 112.02393 -0.1951347 13.1365
-1.6774641 114.34524 -0.3199068 11.154
-1.6351436 116.36144 -0.37732643 11.1485
-1.9734406 119.15118 -0.060345292 12.137
-1.6641805 90.529083 0.0681713 8.1514997
-1.7492163 90.914482 0.36264867 12.396333
-1.6902627 91.458664 0.35557377 9.5904999
-1.6662496 91.901299 0.35755339 9.5909996
-1.7275934 92.301842 0.26891288 10.766418
-1.8054465 92.611504 0.24838866 13.155427
-1.6818552 92.891304 0.27717569 14.133806
-1.7957149 109.82877 0.17658247 13.236415
-1.6167282 110.02043 0.1192191 11.06525
-1.7324018 90.161026 0.63700652 9.0927505
-1.6431468 90.500015 0.58604497 13.6569
-1.7199627 90.953789 0.50204754 13.2995
-1.7183697 91.532883 0.55682975 14.541249
-1.7566752 91.832359 0.53216326 13.104874
-1.6875257 92.146744 0.61942315 13.1608
-1.7541767 92.645279 0.59778601 12.087195
-1.7248641 92.88578 0.75148702 13.361667
-1.898249 107.18909 0.65092838 7
-1.7971932 109.79138 0.57796514 12.677171
-1.7237616 110.07956 0.73028195 10.092834
-1.8923999 118.93398 0.71192431 11.611625
-1.7222173 90.622261 0.87114459 10.023
-1.679347 91.097198 0.84148955 10.53825
-1.7111192 92.159241 0.94237792 10.646351
-1.7567279 92.59214 0.89954501 11.902599
-1.6977844 93.00235 0.97502571 12.425416
-1.7728562 109.43787 1.0920283 13.193231
-1.8462309 109.76562 0.96522158 13.068326
-1.6156917 118.9492 1.1852959 13.025
-1.7219098 90.163803 1.3681983 11.5084
-1.6907847 92.634773 1.3597137 11.165358
-1.6771722 92.817154 1.3711065 12
-1.7905517 109.38869 1.3663377 13.450714
-1.8467336 109.97582 1.2906764 12.572001
-1.9441146 119.07024 1.2250118 14.031626
-1.7749491 119.73299 1.2238128 15.04825
-1.7135634 90.122887 1.7052988 9.0726662
-1.7922803 109.54179 1.6719023 14.05125
-1.9268022 109.60737 1.6756583 14.0565
-1.7976213 90.277435 2.0853758 13.116562
-1.6811217 90.502823 2.2124302 12.6362
-1.849243 109.48808 2.2439673 13.501166
-1.6707593 90.222466 2.6096282 13.032666
-1.7743456 90.583199 2.5734885 12.2547
-1.8795788 118.9426 2.4900725 11.0765
-1.7599063 90.143532 2.9370265 13.714833
-1.8735939 90.285194 3.5100355 10.06575
-1.7625264 109.53596 3.3269861 14.444667
-1.7572776 118.79108 3.7388098 12.0765
-1.7539363 90.149818 4.0446382 11.053
-1.8845917 109.41291 4.2793989 12.8545
-1.7087277 109.35052 4.7061915 13.57975
-1.9299784 109.45858 4.9085398 15.171
-1.8857859 109.4861 5.5773931 14.165
-1.973226 109.67747 5.4062324 13.128
-1.9064 114.52823 5.6045165 13.0005
-1.902274 109.31538 6.1113973 14.1595
-1.9394264 109.43723 6.7012177 14.363625
-1.7813323 110.247 6.5917125 14.178
-1.6551105 110.19995 7.2283545 15.1795
-1.7698811 109.23804 8.3421459 12.05075
-1.9773378 109.6405 8.1092997 15.1325
-1.9094498 113.97294 8.1142111 14.178
-1.908476 113.77498 8.5089035 15
-1.9464877 109.83573 10.686 15.1685
-1.8374461 109.62059 11.754337 15.1125
-1.9575435 109.12595 12.185454 14.071751
-1.8858742 109.6389 12.140662 15.1115
-1.6091745 110.16865 12.20549 14.11
-1.6869648 109.71597 12.503084 15.111
-1.2356552 109.56495 -6.0385985 5
-1.529229 109.71662 -4.4413886 3
-1.2999191 101.37023 -4.0014615 4
-1.247335 101.70866 -4.013855 4
-1.2853689 102.01891 -4.0164838 4
-1.5392298 102.55287 -4.030448 4
-1.4547023 102.86418 -4.0205488 4
-1.4024106 109.72202 -4.1417947 3.4385962
-1.3060789 93.427002 -3.6270707 6
-1.4134139 93.787148 -3.6407547 5.3333335
-1.4139538 94.18679 -3.6427796 4.3333335
-1.3696849 94.595741 -3.6862442 4
-1.4090258 95.022835 -3.7663403 4.25
-1.4894643 95.405296 -3.8270638 5
-1.3862934 95.865616 -3.8000228 3
-1.4154323 96.151123 -3.8183186 2.9000001
-1.4237115 96.519577 -3.8398921 2.25
-1.354362 97.028603 -3.8474402 3.3333333
-1.3018996 97.467293 -3.8640149 3
-1.4208453 97.820793 -3.8485432 2
-1.4521858 98.291252 -3.853029 2.7272727
-1.4003655 98.661583 -3.8522527 3
-1.4437276 98.912674 -3.8757854 2
-1.4316437 99.399071 -3.8711994 2.5
-1.4059198 99.767395 -3.870054 2.5
-1.3273121 100.17196 -3.8878391 2.9230769
-1.3108836 100.58099 -3.9027886 2.8333333
-1.3027242 100.96791 -3.9153349 2.5999999
-1.4023126 101.38921 -3.9314494 2.3333333
-1.3453892 101.80204 -3.9406118 2
-1.4540533 102.20046 -3.9651148 2.5454545
-1.3472236 102.60148 -3.9680941 2.8
-1.3366785 102.88507 -3.7386029 5
-1.371484 109.79335 -3.7847948 4.5374999
-1.5648584 112.71844 -3.9314423 5
-1.3277798 112.81969 -3.8093379 5
-1.3285716 113.35616 -3.8141687 5
-1.5089319 113.63278 -3.9213924 5
-1.5081183 114.53397 -3.9107893 5
-1.4458066 114.82076 -3.9137247 5
-1.3019818 115.58364 -3.7075727 5
-1.3244735 115.70294 -3.7960336 5
-1.5639555 117.8285 -3.8182158 6
-1.5123482 118.00222 -3.8389945 6
-1.5142788 119.12971 -3.989161 6
-1.4115751 90.65361 -3.2225943 6
-1.4705775 91.104126 -3.2263603 4.75
-1.4040953 91.540924 -3.2492523 3.6315789
-1.3897572 91.808678 -3.2651148 4.1666665
-1.3924129 92.180061 -3.2853725 3.5
-1.4526193 92.613991 -3.3528085 3.875
-1.372575 92.998947 -3.387996 3.4705882
-1.4065906 93.454857 -3.4508572 3.3333333
-1.3756466 93.751114 -3.4998655 2.9444444
-1.3883191 94.192055 -3.53618 2.6153846
-1.2778751 102.73209 -3.2420719 5
-1.4036101 102.97272 -3.3639514 3.52
-1.4438088 103.45364 -3.314141 3.3333333
-1.4299631 103.84605 -3.2956295 2.9166667
-1.4491445 104.19994 -3.3206885 1.5
-1.4056447 104.51066 -3.3414998 2.3229165
-1.3784379 105.03372 -3.3535345 2.2916665
-1.419547 105.25003 -3.2754335 4.5454545
-1.4110831 109.79066 -3.3920853 5.2441859
-1.3440769 110.04561 -3.3414094 6
-1.2304596 112.59941 -3.3274431 5.5
-1.479202 113.3311 -3.4829223 5
-1.581175 113.7632 -3.5056942 5
-1.2901658 114.02719 -3.4596746 5
-1.560111 115.34368 -3.5340776 5
-1.2803237 115.6944 -3.2566314 5.8461537
-1.3586141 90.225235 -3.1483829 4.6666665
-1.3461925 90.526222 -3.1358063 5
-1.5237072 91.575638 -3.0130577 6
-1.2563379 92.111633 -2.8725631 6
-1.5217383 93.131393 -3.0078645 5
-1.3935896 93.358284 -3.0429161 5.1999998
-1.4107155 93.640678 -3.1252973 5
-1.2412803 94.054237 -3.1698785 5
-1.431987 105.26722 -3.1220617 5.6363635
-1.3788129 109.81169 -2.9477377 6.1538463
-1.3517849 115.54535 -3.1007693 6
-1.2689592 115.7646 -3.137794 6
-1.5719537 117.82944 -3.0933282 6.3333335
-1.5411081 118.02667 -3.0741205 7
-1.3530878 105.24805 -2.6884673 5.7142859
-1.3946939 109.8011 -2.5849321 6.8139534
-1.2486191 110.06268 -2.6814525 7
-1.2182527 112.55206 -2.653028 6
-1.2843643 115.53388 -2.6524894 6.5
-1.2605457 115.75049 -2.5977976 6.9666667
-1.5135279 117.59807 -2.7586887 6
-1.4694648 117.64675 -2.6918619 7
-1.343348 105.25781 -2.2850873 7.5568752
-1.2634921 109.72748 -2.1268713 7.9498549
-1.2218546 112.65723 -2.2268887 7.5
-1.3250899 113.70874 -2.1765308 8.1257496
-1.2564342 114.67368 -2.1504712 8.1529999
-1.3863049 114.84515 -2.312813 8.1330004
-1.2870022 115.53828 -2.0966125 7.6666665
-1.2739819 115.76496 -2.0874906 7.8914838
-1.4517001 117.4684 -2.2149467 7.5425
-1.5082133 117.83396 -2.2336986 7.922318
-1.2694906 109.78269 -1.876819 8.4325151
-1.216591 112.62451 -1.6799858 8.166667
-1.3220702 115.54269 -1.7679671 8
-1.2654759 115.7663 -1.8428748 8.1550331
-1.2613178 116.11728 -1.885116 8.0637503
-1.2737188 117.59444 -1.996403 8.1625004
-1.426633 117.83941 -1.8093095 8.2766676
-1.2850686 109.84658 -1.4479691 9.6228571
-1.2361163 110.02026 -1.4654207 9
-1.2616888 112.73059 -1.4169703 9.4386663
-1.27689 115.55171 -1.4216096 9
-1.2616289 115.7666 -1.3962651 9.003068
-1.4637227 117.84646 -1.455091 8.9552088
-1.5429717 118.00235 -1.5481024 9
-1.2664795 92.379532 -0.91480207 8.1204996
-1.2377965 93.057907 -0.97441912 10.636
-1.2690735 109.84977 -0.96065259 10.571103
-1.2274963 110.13785 -1.1029824 9.0530005
-1.215904 112.61824 -1.1504096 9
-1.2957214 115.73533 -1.169327 9
-1.4566116 117.76914 -1.0499723 9.7658749
-1.3364208 92.310638 -0.56435853 9.6125622
-1.4116797 92.502586 -0.53500581 10.992568
-1.3624548 109.87306 -0.53081411 11.628423
-1.2555901 110.00079 -0.48247984 13
-1.4443914 117.78867 -0.51355135 11.086667
-1.3317707 92.224762 -0.22145504 12.0928
-1.4041322 92.551903 -0.23691727 9.6754999
-1.4050566 109.83658 -0.18109393 12.259864
-1.3940421 112.08384 -0.20791391 13.131249
-1.4705275 113.39339 -0.27935639 11.15625
-1.4835322 114.59795 -0.32049343 11.1535
-1.3365778 114.91695 -0.31407639 11.348299
-1.307398 116.51566 -0.38679767 11.148
-1.4871951 90.502098 0.17516141 8.7097864
-1.3803566 91.051941 0.29251403 11.246249
-1.3491106 91.351051 0.31953776 12.737332
-1.356185 91.652222 0.17969143 10.108167
-1.3122149 92.186577 0.10434397 11.823268
-1.5302913 92.567055 0.27734411 11.365339
-1.4423687 92.958214 0.23524822 12.641655
-1.35912 93.218735 0.39744729 11.159
-1.3838515 109.83945 0.19315897 12.548023
-1.3327742 110.02902 0.14089905 11.065
-1.4277791 90.147949 0.61808366 12.868751
-1.4004987 90.650932 0.61853975 12.503026
-1.3679266 91.005547 0.54637456 13.073679
-1.3522485 91.299034 0.58274019 13.134766
-1.400857 91.784256 0.62609243 12.918463
-1.3990978 92.170288 0.60715193 12.837424
-1.3871869 92.623085 0.55540931 13.37716
-1.4156551 92.94175 0.55469292 12.089033
-1.3950485 109.81533 0.5931893 12.837379
-1.3855577 110.11961 0.66503918 10.5865
-1.3477763 118.87947 0.67832607 11.111
-1.4253827 90.166847 1.1283907 12.795251
-1.2941161 90.562523 1.0876675 9.5492496
-1.4274411 90.994873 1.0481341 11.0315
-1.4738414 91.448242 0.93673021 10.0655
-1.5318431 91.849266 1.0429293 10.305751
-1.3735282 92.290741 0.96461767 11.822389
-1.4192269 92.624367 0.99579889 12.334198
-1.3561985 93.011436 0.95307004 13.075809
-1.4543216 93.218079 0.99141598 12.757167
-1.3653644 109.163 1.1339313 10.156
-1.4212601 109.44849 1.078523 13.205625
-1.420909 109.78751 1.0136746 13.135843
-1.4104244 118.99471 0.9419806 12.4792
-1.3466791 119.52232 0.94146246 13.1215
-1.308619 119.80127 0.90556705 13.13425
-1.3672361 90.12059 1.4419004 12.548736
-1.3474526 90.510971 1.3817021 13.028875
-1.3556353 91.889458 1.29695 12.05925
-1.39493 92.238144 1.2699331 12.05975
-1.3617938 92.62532 1.4463958 12.06275
-1.5075104 93.003517 1.3823397 11.430901
-1.2945099 93.271851 1.4761885 12.0345
-1.3451194 109.41365 1.3018744 13.766125
-1.3901162 109.77376 1.3373036 12.6465
-1.4548403 110.00156 1.4108909 13.065
-1.213703 119.04848 1.233873 13.529
-1.5389355 119.44965 1.2310352 15.044
-1.4873973 119.80756 1.2144405 14.7935
-1.4304713 90.237907 1.9428604 11.9435
-1.4366416 90.46666 1.9486421 14.068251
-1.2394673 92.555763 1.6528577 12.052999
-1.4843689 109.58537 1.7245795 14.054
-1.4585891 109.66617 1.7164159 13.0725
-1.3587184 90.198074 2.1914432 12.389125
-1.3373228 90.495598 2.2201047 11.6735
-1.3912354 109.43867 2.2624712 13.126499
-1.4836246 118.89252 2.3817191 11.0765
-1.3799428 90.210197 2.5705349 12.189667
-1.238209 90.556519 2.7451975 14.05425
-1.2265099 90.269478 2.8593705 13.026
-1.3442278 90.478638 2.8627975 13.5365
-1.3389962 109.55246 3.3737357 14.307251
-1.3840359 115.65045 3.4913392 13.085
-1.5955884 90.001015 4.0364828 11.052
-1.4879361 109.55049 4.2967854 14
-1.3622577 109.42729 4.6487403 14.1715
-1.2888308 109.61458 5.0782452 13.1355
-1.3902115 109.35407 5.3390088 13.482501
-1.2128409 109.24533 8.3205824 12.0495
-1.3161547 109.23064 8.6321812 12.059
-1.3085079 109.66267 8.8687859 14.1135
-1.528246 109.64326 11.959124 15.112
-1.449273 109.15835 12.020082 14.0595
-1.5904527 109.63014 12.212149 14.1595
-1.5839876 109.68082 12.864324 14.16
-0.89852208 105.53706 -5.3024054 5
-1.1458846 109.46364 -5.5263352 5
-0.84196109 109.59422 -4.6303158 6
-1.0574037 109.61601 -4.6589823 6
-0.81200999 96.631439 -4.0511141 6
-0.89500123 97.673653 -4.0252881 5
-0.85951823 98.154808 -4.0302138 5
-0.85426289 98.62059 -4.0378637 5
-0.80111974 99.088432 -4.0426574 5
-1.1458726 102.38992 -4.0403342 4
-0.974953 102.58857 -4.0052485 4.6666665
-1.0521897 109.50764 -4.1932569 6
-0.97425836 109.74352 -4.2149835 2.5599999
-0.99792093 92.532608 -3.8287575 6
-0.89371252 93.752892 -3.6561933 6
-1.0819563 94.309418 -3.6333704 4.8888888
-0.97119063 94.563454 -3.6605132 4.3333335
-1.013571 94.997978 -3.7432208 3.7272727
-1.0527656 95.390343 -3.7925284 4.0833335
-0.96572399 95.85157 -3.8250008 3.5
-0.92254961 96.336365 -3.8362515 3
-1.0470706 96.639046 -3.8527567 3.3333333
-0.97916293 96.999306 -3.8376794 2.4444444
-0.95951712 97.455177 -3.8535328 3.1666667
-1.0357019 97.851631 -3.8675501 3.8333333
-1.0276473 98.18792 -3.8515656 3.25
-1.004861 98.664696 -3.8508029 2.3333333
-0.96218318 98.956352 -3.8532722 2.5999999
-0.99471289 99.252182 -3.8745282 3.5555556
-0.96829277 99.680687 -3.8823254 3.5999999
-0.88836461 100.17843 -3.8880777 2.7692308
-0.95782787 100.42245 -3.9059708 4
-0.99345177 100.91805 -3.8979914 4
-1.0098931 101.3839 -3.9183598 3
-0.9860602 101.78691 -3.9352221 2.7777777
-0.95522565 102.20615 -3.9561193 2.909091
-1.0022086 102.66278 -3.9117808 2.8333333
-0.92413157 102.87244 -3.8308613 3
-0.96092612 109.78388 -3.7799914 4.1616163
-0.95740712 110.45792 -3.7918756 5
-1.1547728 112.68728 -3.8361223 5
-1.0789301 112.88105 -3.714396 5
-1.1790845 113.68496 -3.8891859 5
-1.1315082 115.53335 -3.7968299 5
-1.1341119 115.67496 -3.8419578 5
-1.0453618 118.50039 -3.9804454 6
-0.86973548 90.528137 -3.209327 4.6666665
-0.99327099 90.894775 -3.2084255 4.8000002
-1.0250901 91.436852 -3.2429988 4.1999998
-0.98657978 91.764427 -3.2435734 3.7
-1.0246929 92.220474 -3.2834563 4.4285712
-1.0109521 92.61779 -3.3256142 3.6470587
-0.97829312 92.993607 -3.3590984 3.4666667
-0.97710973 93.377907 -3.4116404 3.8888888
-1.0148853 93.794243 -3.4756141 2.8518519
-1.0387003 94.171135 -3.5495775 2.7727273
-0.9615888 102.66782 -3.4446335 6.3333335
-0.9416849 102.91889 -3.3716726 3.7272727
-1.12603 103.84252 -3.3785782 3.5
-1.0300767 104.38883 -3.3745375 3.3333333
-0.98477423 104.52797 -3.3553696 1.7857143
-1.0068166 105.04324 -3.3796403 2.6923077
-0.96988565 105.27268 -3.289798 3.5326087
-0.99615514 109.78262 -3.3986742 5.1189189
-1.0042131 110.047 -3.3990076 6
-1.1439568 112.72464 -3.2592781 6
-1.0838798 112.8686 -3.2901952 5.875
-1.0694422 113.64525 -3.449779 5
-1.0987691 115.65388 -3.3281159 5
-0.88564634 116.00481 -3.2567704 6
-0.85159898 118.36938 -3.3073366 7
-1.014222 90.201546 -3.125304 4.909091
-0.95474714 90.559296 -3.1463165 4.8333335
-1.1797419 90.897415 -3.1767972 5
-0.87852037 91.559799 -3.0395896 4.8571429
-1.0179478 91.876976 -3.1846242 6
-1.0306036 93.520294 -3.0384629 5.3333335
-0.94809729 93.805145 -3.0838387 5.25
-0.93435901 94.297028 -3.1984205 5
-1.0276457 105.00975 -2.8397305 6
-0.93963426 105.25995 -2.9819081 4.4513888
-0.9749437 109.55966 -2.8719699 7
-1.0196909 109.80144 -2.9668102 6.0540543
-1.0885628 110.04217 -2.935725 6.3333335
-1.1401118 112.71611 -3.0758076 6.0999999
-1.1261306 112.8567 -3.1486027 5.818182
-1.1109515 113.39439 -3.1508453 6
-1.1465665 115.71239 -3.0599635 6
-0.86756444 116.25235 -3.1738491 6
-0.81656927 105.02383 -2.6206203 6
-0.92069733 105.25874 -2.5538683 6.0611115
-1.0177637 109.81715 -2.563138 6.9375
-1.1044586 110.06329 -2.6583378 7
-1.1374116 112.70892 -2.6641855 6.7857141
-1.0677707 112.87157 -2.648735 6.814815
-1.1541522 115.6662 -2.6350737 7
-0.83512926 117.42639 -2.5970459 7.5492501
-0.88253605 117.62318 -2.6816566 7
-0.91249138 105.265 -2.3350651 7.2472782
-1.0509729 109.82693 -2.1328366 7.9686337
-1.132244 110.05133 -2.0428834 8
-1.1109502 112.69416 -2.1273606 7.8311815
-1.0701127 112.87086 -2.0739686 7.8707957
-1.1974738 113.56293 -2.2978325 8.1324997
-0.99896705 113.83272 -2.1420777 8.1534996
-0.86120522 114.71553 -2.1912727 8.1505003
-1.0650547 115.53171 -2.0180359 8
-1.0835276 115.75089 -2.11323 7.925467
-1.087693 117.71148 -2.1927068 8.0732508
-0.84299874 118.00338 -2.1821558 8.1099997
-1.0219413 109.82281 -1.8560975 8.5198221
-1.0601047 112.68168 -1.7298156 8.3108463
-1.0348523 112.89511 -1.6875219 8.0066252
-1.0409062 115.80407 -1.7795422 8.5389776
-1.002246 117.79109 -1.7801251 8.5282145
-1.0539519 118.01802 -1.8641727 8.1105003
-1.0250854 109.86469 -1.4384027 9.3757658
-1.113602 110.06027 -1.4274529 9.0121565
-1.1028329 112.73018 -1.4766518 9.2617121
-1.0917758 112.87012 -1.4581228 9.012907
-1.0718693 115.80698 -1.3937513 9.3416824
-1.0216637 117.82706 -1.286599 8.7184992
-0.89780599 91.139427 -0.96593112 9.5908756
-0.88655311 91.672035 -0.86186671 9.6853333
-0.95774585 92.763222 -1.046446 8.8009996
-1.0400589 93.030388 -0.89382076 10.139761
-1.0010257 109.85323 -0.99581224 10.294779
-1.0385636 110.07632 -1.0389035 9.0200005
-1.05621 112.71092 -1.0714048 10.0041
-1.0381693 112.92148 -1.1788251 9.0088339
-0.99972326 115.78571 -1.113018 9.4714994
-0.95624721 117.83286 -1.1549519 9.4924994
-0.91209167 91.141487 -0.67295706 8.0244999
-0.94469666 91.436043 -0.6806249 10.385
-0.90447384 91.674896 -0.68562889 10.720375
-1.0922533 92.237473 -0.48544347 10.341
-0.94898623 92.556366 -0.57050323 10.990493
-1.0032374 93.017296 -0.55810452 9.9863005
-1.0077635 93.371735 -0.46309716 11.865162
-1.0250423 109.85181 -0.55956352 11.109653
-1.1579981 110.0788 -0.48075491 10.728667
-0.99957466 117.35289 -0.40793714 11.145
-0.97978789 117.77843 -0.53636813 11
-1.0224699 90.733475 -0.032583579 12.0315
-1.0198771 91.011375 -0.11428171 10.885401
-1.0177039 91.726814 -0.1555246 9.7458334
-1.0082024 92.178452 -0.18204656 11.209205
-1.0398554 92.706612 -0.23791717 11.560304
-1.0068748 93.018684 -0.23009135 12.165547
-0.81292009 100.90808 -0.29027066 6
-1.0057422 109.85504 -0.20212129 11.777779
-0.9276194 110.03902 -0.22473787 9.7671671
-1.1224172 112.0583 -0.20431982 13.12975
-1.1811748 113.74102 -0.28600961 11.1555
-1.003969 115.00286 -0.31047592 11.479083
-0.94822812 115.35139 -0.33528626 11.150249
-0.82850242 116.79791 -0.39434406 11.147
-1.1010911 90.085739 0.350117 12.0825
-0.96262002 90.977638 0.12590894 11.672899
-0.9747138 91.368431 0.28242797 11.344214
-0.92726237 91.871567 0.17500091 13.337
-1.0042554 92.160347 0.13337298 11.968348
-1.0429922 92.634056 0.08085902 9.3754997
-1.0250199 92.96714 0.12950833 10.0345
-0.99358273 109.85234 0.19292197 12.555387
-0.83705699 110.06233 0.13376833 11.062
-1.0341599 90.249168 0.63498443 12.354917
-1.0693514 90.691193 0.69702762 13.068833
-1.0029184 91.073341 0.6191293 13.410652
-0.99660611 91.257324 0.6668092 12.421333
-1.1110878 91.907768 0.52282482 10.548
-1.0308501 92.368042 0.7058568 12
-1.0849745 92.592209 0.65967584 11.612232
-1.0128341 92.971146 0.63529801 12.939143
-0.85653317 93.767113 0.5788945 15.0245
-1.075457 107.25796 0.72074181 7
-0.91705632 109.59318 0.68181539 10.159
-1.0113212 109.82174 0.63073713 12.621707
-1.0273196 110.04062 0.63659376 11.407001
-1.0412064 90.03698 1.0787147 13.320375
-1.006103 90.705696 0.8743701 14.504681
-0.93174523 91.060905 0.92373776 13.053333
-1.0549445 91.302094 1.0502415 11.342875
-1.0691369 91.831116 0.9307375 12.277637
-1.0038232 92.16819 1.0170476 11.110389
-1.0703844 92.619194 1.0143092 12.719001
-1.0303262 93.016235 0.9904269 13.129848
-0.81042564 93.45723 0.80432957 12.1495
-0.90773028 105.3266 0.88950324 7
-1.0394574 109.44608 1.068617 12.994625
-1.0176448 109.79148 0.989811 13.029882
-1.0880789 110.00381 1.1547358 12.0745
-0.90434563 118.88834 0.85808021 13.127251
-0.86606246 119.47095 0.83290416 13.134063
-0.99178469 119.86487 0.91583413 13.361876
-1.0277928 90.140633 1.3886417 12.921185
-1.1327109 90.508377 1.3754683 14.083
-0.85964471 90.996582 1.3183409 11.83375
-0.95825028 91.476349 1.3614275 12.0675
-1.1386858 91.91333 1.3766971 11.535749
-0.95774329 92.222107 1.3689891 12.443749
-1.0480709 92.558617 1.2762632 12.272773
-1.0368968 92.942299 1.3753599 11.673251
-0.96170568 93.377274 1.3242273 11.613535
-0.96646523 109.42461 1.3110195 13.571358
-0.95981258 109.81364 1.2739512 13.008416
-0.98435366 110.03451 1.3932418 13.062
-1.0615512 119.23547 1.233508 13.026
-1.1636176 119.73627 1.2346461 13.0255
-1.0232251 90.134842 1.7349808 12.344856
-1.0918733 90.434891 1.7872055 10.014
-0.9595505 91.425568 1.6157484 12.027
-0.8062858 92.082863 1.739998 12.0745
-1.0638573 92.502594 1.6915095 9.0985003
-0.95614707 92.853775 1.7375538 12.05225
-0.82103848 109.49952 1.8847603 14.595
-0.85108346 109.65925 1.8479215 14.349125
-1.0577065 90.270088 2.2634647 13.266084
-0.94850308 90.494072 2.1191363 14.598857
-0.93850052 92.95253 2.0286531 13.0695
-0.86280698 109.47112 2.2023489 13.83075
-1.1168498 90.247063 2.608876 12.710667
-0.84587407 90.432526 2.5958393 15.093
-0.89624602 109.46389 2.6640959 15
-0.89703929 109.71959 2.5018783 15.0525
-1.0092279 90.113243 2.9509704 11.174
-1.1404061 90.529335 2.8893418 11.014999
-0.84868497 109.45627 3.157887 13
-1.1704603 90.043976 3.2813811 10.1575
-0.87102324 109.51612 4.2304363 12.55575
-0.86966354 109.51299 4.4075394 15.17
-0.9073438 109.49292 4.8671389 15.171
-1.0283216 109.58928 5.2951622 13.127
-0.90861553 109.64262 5.3984737 14.061501
-0.85990435 109.77419 6.7561345 14
-1.012632 109.69496 8.602664 14.61925
-0.9587639 109.31319 9.8526754 13.0525
-0.91130507 109.32471 10.477068 13.0595
-1.0161455 109.7303 11.716084 14.158
-1.0541697 109.11095 12.082061 14.0825
-1.0762064 109.79266 12.141425 15.11125
-0.87829775 110.08634 12.254072 14.1095
-1.1184168 109.67835 12.628262 13.662001
-0.92949218 109.81084 12.887692 13.1645
-0.83569282 109.87685 16.166758 15.1605
-0.59060043 109.47365 -6.7985826 4
-0.57948709 118.73145 -4.4749312 4.3333335
-0.68578643 95.793434 -4.1250067 6
-0.56184673 97.437241 -4.113544 6
-0.75572425 99.55275 -4.0486612 5
-0.68251389 100.0204 -4.0533438 5
-0.75348759 100.52289 -4.070446 5
-0.58831084 109.76218 -4.1570439 3.1884055
-0.576249 118.32316 -4.2632279 4.1999998
-0.57743603 118.60606 -4.2345309 4.8000002
-0.53495783 118.88812 -4.1894908 4.75
-0.64496386 94.227592 -3.8748028 5.8571429
-0.51431841 94.6576 -3.6456411 4.6363635
-0.52772838 95.016235 -3.7170415 4
-0.70225835 95.437302 -3.7956614 3.3636363
-0.58382469 95.812378 -3.7942562 3.1428571
-0.60026777 96.197861 -3.8268116 2.8
-0.73768991 96.591362 -3.8343008 2.2857144
-0.58189833 96.898781 -3.8416166 2.8333333
-0.46604988 97.303474 -3.8380797 2.7142856
-0.63401109 97.785927 -3.8363879 2.8571429
-0.65423632 98.212334 -3.8414214 2.9000001
-0.5706408 98.627731 -3.8537426 2.1333334
-0.52728838 99.056038 -3.8590074 2
-0.55982494 99.440971 -3.8669794 1.75
-0.70448315 99.866394 -3.8695331 0.75
-0.51998848 100.10731 -3.8787103 2.125
-0.63174921 100.52373 -3.8907311 2.4000001
-0.60254723 101.0423 -3.9100392 2.1428571
-0.50338632 101.38157 -3.9164205 2.6666667
-0.53411299 101.82095 -3.9312358 2.7692308
-0.50595415 102.2225 -3.945142 3
-0.5747087 102.58675 -3.9657938 2
-0.6627335 102.91685 -3.8132334 4.7142859
-0.52472657 104.59019 -3.986985 6
-0.5737325 109.77879 -3.7937481 3.9958334
-0.5000391 110.00372 -3.6128421 7
-0.49184978 110.55447 -3.8955295 5
-0.61417538 117.83944 -3.8683529 5.6666665
-0.56914634 118.23766 -3.8077812 5.5294118
-0.57778734 118.61592 -3.8190486 5.7096772
-0.56101847 118.87486 -3.7321105 5.5999999
-0.58823973 90.779488 -3.2142894 4
-0.64853114 91.069756 -3.2165611 5.5
-0.56102461 91.586487 -3.233918 6
-0.53466296 91.839539 -3.2270539 3
-0.62147927 92.199326 -3.2631464 3.8461537
-0.57703662 92.62487 -3.3110168 3.7
-0.58122599 92.970146 -3.374233 2.9333334
-0.6402849 93.392616 -3.3997967 3.5625
-0.61614805 93.78907 -3.455199 2.75
-0.64829403 94.233582 -3.5304592 2.3043478
-0.52854049 94.552361 -3.5099978 3.3571429
-0.55711842 102.69464 -3.3819034 5
-0.6122337 103.02603 -3.3607683 2.6363637
-0.5827297 103.26112 -3.2984097 4
-0.55374479 103.81478 -3.3407435 4
-0.56067324 104.17234 -3.3151152 2.4000001
-0.62634909 104.48901 -3.3628876 1.8157895
-0.63557804 105.0629 -3.3518007 2.1176472
-0.63181442 105.27019 -3.2687273 3.6666667
-0.59420204 109.79675 -3.3763213 4.9586835
-0.58343279 110.18415 -3.3661907 6
-0.51168406 117.32578 -3.3407552 6
-0.56931782 118.24572 -3.3282549 5.2692308
-0.58789724 118.61602 -3.3940661 5.7843137
-0.5407083 118.89814 -3.3890634 5.9444447
-0.64798999 90.266212 -3.1330965 4.375
-0.5379082 90.535309 -3.1233828 5.4444447
-0.51402241 91.195396 -3.1911972 4
-0.73169601 91.577477 -2.938168 4.75
-0.6050387 91.690758 -3.0335574 5.2857141
-0.77972347 92.393097 -2.9013147 6
-0.52959907 92.713448 -2.9174826 6
-0.58862382 93.865646 -3.0784259 5.1428571
-0.47294468 94.142807 -3.1289659 5
-0.74524611 102.83739 -3.093966 6
-0.54100442 105.12173 -3.0372932 7
-0.68190527 105.27192 -2.97193 4.5952377
-0.59311283 109.8159 -2.9840424 5.9545455
-0.47872135 110.26423 -3.1681013 5
-0.59295028 118.2474 -2.8979599 6.3571429
-0.58310384 118.58275 -2.8942704 6.6666665
-0.52192128 118.87889 -2.9424801 6.8461537
-0.50855011 91.558327 -2.5219779 5.6666665
-0.66504812 105.26108 -2.5819368 6
-0.58680815 109.82849 -2.5672271 7
-0.47974154 110.11727 -2.6429389 7
-0.56315672 117.2763 -2.6510036 7.5465002
-0.56481248 118.23804 -2.7621808 6
-0.58386683 118.6048 -2.7058561 6.9684825
-0.53868204 118.92397 -2.727113 6.8571429
-0.72449809 91.415916 -2.3875995 6
-0.50318462 105.05863 -2.3138263 7
-0.68976212 105.26611 -2.3447952 7.1388888
-0.59145331 109.86412 -2.161876 8.0366879
-0.41879231 110.13813 -2.022507 8
-0.56887168 113.6897 -2.316458 8.1279993
-0.79738283 117.73438 -2.2889223 8.1444998
-0.57285047 118.27925 -2.2413089 7.5897932
-0.57638389 118.60813 -2.1936431 7.789619
-0.54064941 118.9125 -2.1582589 7.8807273
-0.56692851 109.83845 -1.8564914 8.6351891
-0.51096165 110.06472 -1.934624 8.0697508
-0.57978892 117.80252 -1.8379618 8.3895378
-0.60312641 118.27766 -1.7693638 8
-0.6011728 118.6361 -1.7076085 8.3058262
-0.53675318 118.90163 -1.6867142 8.3125248
-0.45316857 90.788445 -1.2252537 8.0120001
-0.50834984 90.984894 -1.2276043 8.1639996
-0.59758288 109.86455 -1.4251403 9.3514557
-0.47671261 110.062 -1.3022759 9.0833578
-0.66510355 117.86921 -1.2705642 9.1067505
-0.58415169 118.3215 -1.473676 8.7348738
-0.59383786 118.59863 -1.4744216 8.8860292
-0.56624836 118.92302 -1.4668092 8.9127254
-0.67008382 91.040939 -0.9104082 9.1254997
-0.61250061 91.307243 -0.91209006 9.7539997
-0.66932648 91.805252 -0.85419935 9.5602503
-0.74060756 92.768837 -1.0198419 9.1040001
-0.49977607 93.023209 -0.87971336 9.3529997
-0.59144825 93.525055 -0.88409978 10.320125
-0.58038425 93.690552 -1.0091923 10.175889
-0.58664769 109.8589 -1.0030262 10.327843
-0.62887436 117.81725 -1.1556482 9.6890001
-0.58324558 118.31828 -0.98818743 9.4513254
-0.58066905 118.60533 -0.9538098 9.7984629
-0.56844413 118.91695 -0.94497198 9.8345308
-0.66039425 91.105209 -0.67238832 10.0598
-0.5866071 91.380852 -0.60844672 9.754631
-0.69756138 91.724594 -0.60162562 10.386723
-0.63194501 92.659828 -0.59953821 11.105269
-0.55989707 93.032433 -0.59733492 10.698915
-0.58475202 93.396957 -0.62658679 11.186039
-0.61936241 93.682365 -0.57235861 9.5593338
-0.5917784 109.85444 -0.57211977 11.344582
-0.71416456 117.47624 -0.41284305 11.1445
-0.66446108 117.80944 -0.53237313 11
-0.59328246 118.31166 -0.55281305 10.232807
-0.57503015 118.61401 -0.56844598 10.067954
-0.56575042 118.96279 -0.52116776 10.228694
-0.58637428 90.088226 -0.13810048 10.729
-0.61334521 90.505478 -0.11148268 12.059
-0.68948591 91.061783 -0.20341852 10.071944
-0.54009342 91.425262 -0.16576582 11.119132
-0.61322951 91.813438 -0.17628825 9.5670004
-0.61704403 92.301849 -0.1263902 11.988084
-0.57433176 92.616737 -0.078101866 12.134428
-0.61147863 92.992912 -0.21804497 11.996436
-0.61633033 93.28698 -0.2580128 12.411142
-0.5785591 109.87738 -0.23053573 12.44351
-0.47669169 110.02116 -0.22869124 10.0775
-0.57989329 114.8744 -0.27140215 12.1295
-0.55751801 116.95517 -0.39787662 11.1465
-0.58728349 118.33539 -0.26343 10.717357
-0.57698452 118.5727 -0.29004586 10.925762
-0.57099438 118.89993 -0.31087229 10.846791
-0.52691889 90.203873 0.31616229 10.0405
-0.57392842 90.464447 0.25156075 9.5939999
-0.54628736 91.044914 0.10041576 12.5615
-0.5194543 91.263206 0.075543106 12.092625
-0.66747928 91.801849 0.062806353 10.091166
-0.58901429 92.235199 0.16162094 12.595209
-0.59298992 92.528511 0.20496221 12.200212
-0.65460873 93.065193 0.14351784 9.8822498
-0.54212654 93.466866 0.14387271 11.696813
-0.42611504 93.701111 0.15826017 12.721667
-0.61363649 109.87797 0.18399997 13.009605
-0.59096527 110.06081 0.2248728 11.0645
-0.61023939 118.3098 0.10058546 11.628312
-0.58658397 118.59987 0.13898072 11.763631
-0.59064537 118.9318 0.15105633 11.927846
-0.56676817 90.991631 0.73628628 14.334358
-0.63088405 91.29705 0.59156471 13.80725
-0.47614765 91.836449 0.65857971 12.279699
-0.67430979 92.241524 0.48856494 9.6916666
-0.56717658 92.503754 0.5360902 10.02725
-0.43477187 92.949081 0.65965444 12.0917
-0.57964689 93.495682 0.57189429 11.17625
-0.50046229 93.738495 0.62520313 12.207398
-0.69206482 107.08495 0.67590266 7
-0.5956955 109.85107 0.61309606 13.08572
-0.47268337 110.03805 0.52800262 11.0775
-0.6446805 118.31277 0.56583178 13
-0.6632849 118.65582 0.54448766 13
-0.74377906 118.98021 0.75621295 11.61125
-0.62895602 90.173706 1.0715531 12.966001
-0.61006731 90.737007 0.87168092 14.258351
-0.56385374 91.049316 0.94247645 12.58975
-0.54738331 91.421181 0.92477226 14.090333
-0.57385182 91.86837 1.0161999 12.730334
-0.63083202 92.232742 0.98991555 12.597312
-0.54275352 92.522758 0.96654779 13.381464
-0.69528192 93.064697 1.072704 12.770916
-0.57144207 93.348389 1.0377945 12.822868
-0.55948091 93.68174 0.97914368 12.331
-0.42432809 109.19606 1.0494624 10
-0.68773741 109.45118 1.0776426 11.956751
-0.59113425 109.81211 0.9502669 12.711233
-0.71253294 110.01588 0.87277943 12.0645
-0.73689944 118.95615 0.88550305 13.128
-0.76979488 119.42435 0.86167693 13.12875
-0.68656623 119.87135 0.88729852 13.12875
-0.69248331 90.073219 1.351001 13.061501
-0.64215535 91.106461 1.4618567 12.0692
-0.62020159 91.364662 1.4599603 12.28905
-0.52024448 91.602135 1.2054012 15.073
-0.63612062 92.269089 1.3814195 10.8643
-0.68614137 92.607574 1.3648661 13.2776
-0.61979944 92.960289 1.4066592 12.734082
-0.5909878 93.34478 1.4920385 12.902209
-0.57527661 93.625137 1.2928412 12.0535
-0.56904203 109.45771 1.3983027 13.783291
-0.59749192 109.77176 1.3824716 12.654125
-0.67798781 90.144066 1.6751657 13.007667
-0.5012086 91.005371 1.6969293 11.367332
-0.77406651 92.280609 1.6485027 12.074
-0.70224881 92.518776 1.6942273 9.3908339
-0.7422803 93.390579 1.8335249 12.5415
-0.61869007 109.44494 1.7891864 14.133133
-0.70638525 109.70105 1.8494841 14.445333
-0.673226 109.4495 2.1735842 13.179832
-0.67924392 109.66331 2.0031924 14.0585
-0.53756928 91.958847 2.6083622 9.0509996
-0.66607678 109.44583 2.5987628 14.350612
-0.63522685 109.69441 2.5817182 14.56425
-0.65285158 109.43381 2.9720769 13.417333
-0.47200984 109.62115 2.9261591 11.1235
-0.69834918 109.4628 3.5449362 13.834
-0.58427149 115.66118 3.5877142 13.0855
-0.56034434 109.40134 3.807637 13.377125
-0.66556293 109.62053 3.7773609 12
-0.67259133 115.70278 3.6825647 13.084
-0.56654298 109.41335 4.1321568 13.3875
-0.5192948 109.68378 4.3946142 12.1235
-0.46940437 90.059967 4.4197545 11.06475
-0.59888899 109.48296 4.6066194 14.446667
-0.50974035 109.24995 5.0353351 13
-0.61205018 109.64664 5.1599016 13
-0.58733106 109.64499 5.2367144 13
-0.71142036 109.52356 5.9518042 15.1695
-0.75780755 109.50336 6.283742 14.584249
-0.64335179 109.3259 6.4234538 14
-0.79573339 109.74581 6.6421156 14
-0.69452262 109.46172 6.9682541 15.161751
-0.65388966 109.3898 7.8109612 15
-0.73765945 109.1165 8.3080044 12.062
-0.46513164 109.79369 8.8822803 15.1235
-0.55751306 109.16786 11.958714 14.059
-0.49452779 109.71262 11.877565 15.111
-0.52100646 109.88385 12.735029 13.164
-0.68149126 109.73145 12.951884 14.1595
-0.23723841 109.73102 -4.5008626 3.3333333
-0.1636591 118.90443 -4.481451 5
-0.14921954 98.185867 -4.1141715 6
-0.12189375 102.17481 -4.0135727 5
-0.12638694 102.57636 -4.0276151 5
-0.27925575 109.5522 -4.1562161 6
-0.18618613 109.77385 -4.157588 3.2631578
-0.32965308 117.55185 -4.0934944 6
-0.09160801 118.56219 -4.102994 6
-0.23788795 118.92406 -4.291079 4.7142859
-0.37091702 93.687912 -3.6067348 6
-0.27271184 94.077995 -3.8070276 5.8000002
-0.30058768 94.702545 -3.6346273 4.75
-0.19724843 94.946419 -3.6956899 4.5
-0.17641434 95.321503 -3.7642534 3.1818182
-0.25825417 95.870247 -3.7856896 3.5
-0.21368198 96.205681 -3.8068707 3.4545455
-0.21529584 96.528366 -3.8347955 3.7272727
-0.38414192 96.990677 -3.813096 4
-0.11279768 97.452003 -3.8612792 1.8
-0.30477226 97.797157 -3.8605175 1.8
-0.26556438 98.144798 -3.839772 1
-0.22020617 98.523521 -3.8664749 1
-0.16577731 98.995369 -3.8654571 2
-0.12755036 99.451027 -3.877054 1.4
-0.19732879 99.772697 -3.8712702 3
-0.16783239 100.1756 -3.8795774 1.6666666
-0.17666842 100.64894 -3.9108448 2.25
-0.1170217 100.93577 -3.9030623 1
-0.25548062 101.34915 -3.9195044 1.75
-0.3196741 101.78262 -3.9370351 1
-0.33395445 102.22264 -3.9483757 2
-0.29693189 102.62436 -3.9457762 2.3636363
-0.21058615 102.91633 -3.8008924 4.4285712
-0.28970906 103.22515 -3.6284738 5
-0.19877014 109.78694 -3.8246191 3.9537039
-0.1462658 112.79721 -3.9541848 5
-0.14753008 113.07968 -3.9127307 5
-0.11284745 113.36978 -3.9018576 5
-0.11661249 113.83607 -3.8633316 5
-0.12280249 114.5978 -3.8706186 5
-0.12743835 114.95311 -3.9215438 5
-0.21970595 115.29999 -3.786972 5
-0.37639013 118.23288 -3.9062588 7
-0.20338449 118.58417 -3.9835937 6
-0.14662744 118.92545 -3.7788496 6.1666665
-0.16624554 91.067993 -3.2203043 4.4000001
-0.33972564 91.461182 -3.2139125 5.3333335
-0.13305379 91.884827 -3.2114813 3.5714285
-0.18656263 92.185585 -3.2576103 4.0714288
-0.22803524 92.539413 -3.3025088 4
-0.20359264 92.898163 -3.3537517 3.3529413
-0.1699986 93.412148 -3.3938859 3.6190476
-0.23507987 93.79348 -3.4321856 2.4210527
-0.22647928 94.159988 -3.5085046 2.7
-0.20551637 94.508858 -3.5453618 2.5
-0.071452253 94.871422 -3.5961623 5
-0.34966171 102.70393 -3.4806232 5
-0.20739898 102.99918 -3.3588312 3.8461537
-0.23569007 103.34002 -3.3169672 3.7777777
-0.17260763 103.79852 -3.32567 2.8888888
-0.33162966 104.11747 -3.3272367 2.5
-0.25146425 104.52467 -3.3721478 2.4230769
-0.18901101 105.05904 -3.3660388 2.4210527
-0.15072842 105.3142 -3.3067296 3.5
-0.18873113 109.8131 -3.3614032 5.162879
-0.2147505 110.31665 -3.3722887 6
-0.18720041 110.43553 -3.2710271 6
-0.041563656 114.99783 -3.3842449 5
-0.21621373 115.45756 -3.3156803 5.8000002
-0.16788715 115.6248 -3.2927821 5.5
-0.22764625 116.71958 -3.3681796 6
-0.30970821 117.05981 -3.2536123 6
-0.32557827 117.34779 -3.3637998 6
-0.25759038 117.92911 -3.4431319 6
-0.30996296 118.79768 -3.2915595 5
-0.16802575 118.96484 -3.4516799 5.9354839
-0.17825414 90.265472 -3.1481545 4.6666665
-0.13303421 90.617844 -3.1731164 5.1428571
-0.2431879 90.867523 -3.1795726 6
-0.059155978 91.578423 -2.9206946 5.1428571
-0.05700507 91.622971 -2.9677863 4.478261
-0.22831003 93.043068 -2.9369915 6
-0.17375681 94.274147 -3.119483 5.2222223
-0.27767372 94.633179 -3.1691267 5
-0.093108602 105.2606 -2.9333401 5.5
-0.19592908 109.59556 -2.8611946 7
-0.19622232 109.82626 -2.9763422 6
-0.27183115 110.18212 -2.9624639 6.3333335
-0.14037192 110.47696 -3.0300319 6
-0.17134629 115.3845 -3.0317514 6
-0.046794228 115.71884 -2.9222026 6
-0.25895584 117.87505 -2.8490336 6.6666665
-0.28057015 118.19286 -2.8491006 7
-0.18094121 118.93819 -2.8812091 6.5769229
-0.040235657 91.532417 -2.593112 5.7716055
-0.10379837 91.633476 -2.5852084 6
-0.12250311 105.31268 -2.6440592 5.75
-0.18309642 109.84915 -2.5775228 6.980392
-0.22043642 110.21964 -2.688751 6.8947368
-0.1898499 110.44296 -2.6837935 7
-0.19757842 115.3632 -2.7710812 6
-0.2465387 116.91048 -2.6658912 7
-0.25083536 117.39182 -2.6574297 7
-0.27038541 117.93278 -2.7079883 7
-0.31442395 118.09098 -2.7234366 6.8333335
-0.13575995 118.99789 -2.6896391 7.135375
-0.069044501 91.557312 -2.1446333 6.7600002
-0.0057937619 91.616577 -2.2770638 7
-0.27915558 105.29507 -2.2841895 7.7400002
-0.22058202 109.86852 -2.1360152 7.877152
-0.20675363 110.2209 -2.0813739 7.7903209
-0.18708229 110.49223 -2.0561953 7.6999998
-0.16147014 116.79395 -2.2876413 8.1440001
-0.3418057 117.18171 -2.2573268 8.1064997
-0.28238744 117.58279 -2.2679574 8.1044998
-0.24675247 117.85007 -2.1321075 7.7424068
-0.25826156 118.01951 -2.0792315 8
-0.21159075 118.66869 -2.2584362 8.1001434
-0.19333847 118.95602 -2.177875 7.7847795
-0.014644185 91.496376 -1.8395395 7
-0.0093937963 91.647652 -1.8440456 7.2857141
-0.2121668 109.85097 -1.8485935 8.4617195
-0.17830078 110.19452 -1.9704815 8.0635004
-0.15343687 110.49891 -1.9803526 8
-0.25135806 116.97495 -1.883359 8.0415831
-0.31893998 117.33207 -1.906388 8.0562
-0.14914793 117.86459 -1.7827836 8.6587505
-0.10894191 118.05962 -1.9107034 8.0955
-0.24094747 118.89706 -1.6780281 8.133625
-0.16934571 90.739166 -1.3061169 8.7039995
-0.21247575 90.877678 -1.3360423 8.9240618
-0.021659313 91.496353 -1.4674592 8
-0.22836246 109.87231 -1.4187255 9.4243498
-0.21089448 110.24567 -1.4305842 8.6854753
-0.16483103 110.50598 -1.3438969 8.8461542
-0.25600845 117.9135 -1.3995346 8.892683
-0.28858134 118.05059 -1.3822279 8.9158335
-0.27907214 118.65235 -1.4588962 9.1055002
-0.21383986 118.98637 -1.4552882 8.7772198
-0.10337836 90.759666 -1.0176758 9.2345991
-0.13901326 90.957298 -0.98064977 9.6444998
-0.21369879 91.311249 -0.91451025 9.3876677
-0.21160845 92.604759 -1.022526 9.1485004
-0.3347275 93.066681 -0.80752724 9.1075001
-0.26182908 93.385315 -0.90312797 9.7599173
-0.16540635 93.744286 -0.95232356 10.08925
-0.18821174 109.87971 -0.98470712 10.198771
-0.24080928 110.23852 -0.92777801 9.0110331
-0.15713508 110.54095 -1.0001805 9
-0.21444272 117.89878 -1.0600703 9.048399
-0.055606406 118.02713 -1.1876768 9.0674992
-0.21063718 118.97601 -0.968916 9.630414
-0.36192667 90.16172 -0.41435859 10.141
-0.22529943 90.620682 -0.73376971 8.0264997
-0.14153886 90.869576 -0.72526002 8.5457497
-0.30930039 91.360214 -0.58575803 10.4932
-0.37859195 91.612297 -0.59911132 11.0685
-0.13795353 92.058792 -0.65774125 10.022
-0.20589036 92.6007 -0.56930071 10.648893
-0.20518479 92.978622 -0.61595529 11.208642
-0.28868443 93.352859 -0.62748384 10.6711
-0.11083081 93.967819 -0.42981794 13.063
-0.11516318 94.140625 -0.42830545 12.661809
-0.19174975 109.86194 -0.58607841 11.178853
-0.29665425 117.69043 -0.4158285 11.14375
-0.23935132 119.01884 -0.67452598 9.8496027
-0.22608867 90.218399 -0.069837138 11.600999
-0.28530821 91.467163 -0.20816287 10.455701
-0.06787046 91.944901 -0.24514607 11.59325
-0.21595371 92.111877 -0.14367658 12.176937
-0.22714698 92.594521 -0.18974862 11.388132
-0.2922771 92.986313 -0.2290729 11.6519
-0.10847999 93.909088 -0.19568244 13.513364
-0.15670271 94.085915 -0.25962523 11.74392
-0.18080725 109.88991 -0.23932017 11.786702
-0.31237042 114.93462 -0.26115325 12.129
-0.26048404 118.99665 -0.26871642 10.883287
-0.1575658 90.267441 0.15416043 11.344
-0.11500206 90.571312 0.2039984 11.641228
-0.2323619 91.000374 0.10962031 11.782214
-0.16198841 91.414703 0.12490115 11.079708
-0.14058365 91.801582 0.21191958 12.5955
-0.24480376 92.217659 0.19062646 11.39922
-0.19827183 92.569862 0.13336991 12.856445
-0.18531382 92.846237 0.028590683 11.1195
-0.15947808 93.381317 0.31619966 12.551032
-0.1374843 93.727242 0.14177802 13.218713
-0.062418334 94.121727 0.1001687 10.058
-0.1776233 109.89571 0.1939591 12.834394
-0.27212721 110.00032 0.20725168 11.051
-0.20715903 118.93526 0.057659999 11.346667
-0.14063241 90.279076 0.57346636 10.10725
-0.20311309 90.513641 0.61665428 10.58675
-0.11990325 90.990891 0.65144318 12.46175
-0.18672529 91.319458 0.62923789 12.470501
-0.19398907 91.820633 0.58728826 12.369455
-0.2068312 92.151466 0.72531009 15.06225
-0.29637036 92.606415 0.70142484 11.096125
-0.096234202 93.067528 0.58973747 13.455
-0.22898282 93.456451 0.57850569 12.288475
-0.19410028 93.764709 0.59574884 12.668343
-0.10420696 94.00148 0.64606917 13.093
-0.16617654 109.85237 0.58790612 12.941334
-0.28016126 110.08162 0.5268532 11.074
-0.17817402 118.03522 0.66836166 13.0415
-0.27544442 119.24619 0.676489 12.1135
-0.22232239 119.69064 0.76482433 12.1115
-0.29647946 90.029884 1.0677525 13.04175
-0.17480938 90.592941 0.88592011 12.8647
-0.24443659 91.079506 0.95817453 12.5815
-0.1610581 91.375938 1.051031 12.061285
-0.20720468 91.872627 0.97386646 10.686333
-0.2044013 92.201668 1.1409605 10.381917
-0.2618902 92.624718 0.9510327 12.329374
-0.31368202 93.065681 0.97444278 13.259084
-0.20935257 93.382996 1.0002093 12.313563
-0.24413301 93.783836 0.93377316 11.485428
-0.21764347 109.50457 1.0971249 13.692725
-0.20143293 109.84795 0.92881602 13.019368
-0.24378574 110.02831 0.83878827 12.05625
-0.315896 119.09667 0.95201421 12.451167
-0.32880586 119.27405 0.85284239 12.789001
-0.12067283 90.184319 1.3816557 11.92225
-0.3501645 90.786438 1.3375579 11.440501
-0.18563019 90.987404 1.3545495 13.3825
-0.29565856 91.361671 1.2987343 12.869699
-0.26628527 91.761772 1.3687873 11.089
-0.015591852 92.219826 1.3673732 11.0105
-0.22502056 92.593987 1.3686597 10.082
-0.27657133 93.05233 1.3117399 11.926071
-0.34933734 93.317543 1.3344616 11.034167
-0.23138362 109.48 1.3735934 13.379417
-0.19807874 109.7105 1.4231468 13.024364
-0.38187924 110.0384 1.2541308 12.074
-0.30541378 90.058441 1.7152302 11.789251
-0.3101877 91.02507 1.7768852 12.035
-0.23972322 91.42984 1.6633345 10.713834
-0.2780709 91.764969 1.8307081 12
-0.24796003 92.229919 1.8999778 11.0275
-0.21160045 92.599007 1.6780913 8.0687504
-0.073789313 92.90741 1.6499131 8.0650005
-0.21228956 109.43523 1.7587937 13.604367
-0.33007461 90.103264 2.3237593 14.11925
-0.14477935 109.46874 2.1684978 13.689778
-0.20360216 109.65682 2.0834544 14.055333
-0.22614346 110.26518 2.3872435 14.165
-0.33147737 91.905655 2.5424933 9.0690002
-0.10093182 92.076797 2.6029332 9.0583
-0.32506254 109.48745 2.4954741 14.499833
-0.14713058 109.68781 2.5523713 13.792875
-0.18886989 109.49597 2.9927793 14.056458
-0.24502209 115.78845 3.143029 12.0805
-0.21819609 109.47678 3.5421138 12
-0.13744842 109.47973 3.8542418 14.251438
-0.17958935 109.69776 3.670995 9.0819998
-0.27781183 109.4903 4.0288811 12.5555
-0.23041214 109.43044 4.9560161 14.084
-0.012320329 109.52426 6.3024015 14.1295
-0.034044318 109.22963 6.9511104 11.082
-0.0016133239 109.95378 7.4027834 14
-0.030308349 109.59554 7.7323666 15.1295
-0.078884602 109.67272 7.7293758 15
-0.017845998 109.7683 8.1147528 15.14
-0.19119161 109.33762 9.2267714 12.0625
-0.16920367 109.19444 12.070579 14.059
-0.24851845 109.92599 12.484645 13.1635
