# .PCD v0.7 - Point Cloud Data file format
VERSION 0.7
FIELDS x y z intensity
SIZE 4 4 4 4
TYPE F F F F
COUNT 1 1 1 1
WIDTH 53
HEIGHT 1
VIEWPOINT 0 0 0 1 0 0 0
POINTS 53
DATA ascii
-58.591595 -174.49846 26.640182 12.125
-57.774101 -174.6028 27.002213 12.121
-56.643917 -174.85973 27.066729 12.1215
-55.423981 -175.12589 27.120083 12.122
-53.610012 -175.4913 27.032736 12.1225
-52.94487 -175.59407 26.880352 12.1225
-52.281002 -175.80032 26.477901 12.137
-51.795177 -175.90494 26.959715 12.123
-49.70311 -176.3011 26.641043 12.124
-48.677696 -173.72391 29.690838 13.124
-48.003319 -176.61554 27.425304 12.141
-46.093277 -177.04013 26.373236 12.1255
-46.272087 -176.95535 27.399475 12.1415
-46.196613 -174.52991 27.730188 12.144
-45.811565 -177.00488 27.66799 12.143
-44.505482 -174.81833 27.701342 12.1445
-44.101212 -177.36819 27.657061 12.1435
-43.233356 -175.05325 27.894201 12.1465
-41.104198 -177.97322 27.352491 12.143
-41.14756 -175.52254 27.687582 12.1455
-40.511856 -175.58101 28.168211 12.1025
-40.329582 -179.11436 20.410505 11.0945
-40.332119 -175.64891 27.912628 12.1025
-38.2696 -178.59956 26.630659 12.1425
-37.696381 -178.65434 27.347746 12.144
-37.742359 -176.21605 27.688383 12.1465
-37.599113 -176.05627 28.633453 12.156
-36.85281 -152.7625 20.630507 11.1535
-36.601524 -176.6433 27.157393 12.1455
-36.449001 -176.43993 27.911055 12.1485
-36.05299 -176.58257 27.701023 12.147
-35.617363 -159.10152 20.806061 11.1465
-35.706711 -179.19936 25.307848 11.1505
-35.837265 -176.40733 28.655886 12.1565
-34.898315 -177.01271 27.173307 12.146
-34.728622 -176.79872 27.929127 12.149
-34.254028 -179.34193 25.499004 11.157
-34.278114 -179.58925 26.220779 11.1725
-34.359554 -176.97459 27.724009 12.1475
-34.300385 -176.71849 28.942465 12.1615
-33.798843 -179.54515 25.442699 11.155251
-33.85117 -176.989 25.4272 11.168
-32.876797 -177.48277 25.309925 11.162
-33.016857 -177.13434 27.947088 12.1495
-32.531975 -177.29376 25.462164 11.17
-32.634972 -177.29233 27.733957 12.148
-32.396461 -178.32063 21.989487 10.173
-32.365215 -177.41023 25.073685 11.1575
-32.009205 -177.41859 25.466276 11.1685
-31.854664 -177.4445 25.39982 11.1645
-31.592316 -178.48384 22.127264 10.1745
-31.282248 -177.51753 27.979963 12.15
-30.459261 -178.69753 22.007086 10.1735
