# .PCD v0.7 - Point Cloud Data file format
VERSION 0.7
FIELDS x y z intensity
SIZE 4 4 4 4
TYPE F F F F
COUNT 1 1 1 1
WIDTH 85
HEIGHT 1
VIEWPOINT 0 0 0 1 0 0 0
POINTS 85
DATA ascii
-59.286041 -134.60158 15.877333 10.15
-57.9305 -135.5072 10.730608 10.0935
-57.829922 -136.75568 16.047012 10.146
-57.710415 -144.47246 18.643621 11.1155
-56.836845 -133.38414 11.040295 10.1085
-56.43351 -136.10698 8.3892784 9.0974998
-55.901485 -134.89519 10.861999 10.0885
-54.1558 -134.14017 11.204714 10.089
-53.800278 -133.97903 11.05625 10.089
-53.256706 -148.24539 9.649869 9.1025
-53.27129 -134.7491 11.02991 10.089
-53.583492 -133.90277 11.096313 10.11
-53.185265 -133.44043 10.467598 10.0955
-52.315105 -135.14532 10.895123 10.09
-51.688141 -136.9888 8.6192675 9.1029997
-51.63905 -133.24696 8.9323502 9.0900002
-51.84333 -135.07509 10.976979 10.0895
-51.860027 -143.13698 18.005682 11.118
-51.41843 -133.00537 8.7891893 9.1110001
-51.435188 -135.43983 11.054175 10.0895
-51.209927 -135.01181 11.185986 10.09
-50.924438 -133.03418 10.424456 10.0965
-51.107693 -135.67809 10.966001 10.0905
-50.154343 -133.4384 8.9483366 9.0904999
-50.364811 -144.15625 9.280839 9.1035004
-50.337757 -133.31691 11.015955 10.1115
-49.976097 -133.31448 8.7631817 9.1195002
-49.773224 -133.80353 10.526529 10.097
-49.566223 -133.35855 10.423255 10.1005
-48.083199 -147.89844 9.6434994 9.0909996
-47.769123 -133.63045 15.904269 11.118
-47.537621 -148.09998 9.6543837 9.1044998
-47.154011 -135.84258 8.3963594 9.1014996
-46.87455 -148.08701 9.6698036 9.0917501
-46.486958 -136.2489 16.01408 11.1205
-45.780197 -133.05023 15.464993 11.12
-45.277882 -142.84164 9.1858749 9.1055002
-44.934101 -133.25456 15.609951 11.119
-42.997242 -136.98433 8.686347 9.0930004
-43.028976 -136.63608 8.7945356 9.0930004
-42.95726 -134.41928 15.468225 11.1215
-42.645267 -135.31392 13.431352 10.124
-42.656906 -134.15598 15.680142 11.1195
-41.688469 -134.67393 15.356913 11.123
-41.328793 -135.93282 8.6155863 9.0944996
-41.412121 -135.1041 15.213891 10.16
-41.567543 -134.39085 15.630201 11.12
-40.634117 -123.18328 8.7257061 9.151
-40.59959 -131.97945 12.643508 9.1625004
-40.146561 -135.23741 8.8331652 9.132
-40.398472 -133.61226 8.8993597 9.1160002
-40.115833 -133.57707 8.8450155 9.1239996
-39.683987 -143.46349 9.2555809 9.0959997
-39.088928 -124.36134 7.7984099 9.1339998
-38.903248 -133.94083 8.8934498 9.1245003
-37.69207 -135.00719 16.376163 11.144
-37.000271 -133.47884 8.920785 9.1175003
-36.390911 -142.80092 9.15341 9.1020002
-35.040707 -124.34151 7.9368243 9.1394997
-34.552708 -133.83484 12.862764 9.1735001
-34.424103 -134.83022 15.268323 11.122
-34.59116 -134.69804 15.359003 11.1205
-34.02866 -124.0153 6.0606427 9.0959997
-34.378448 -134.67836 15.022704 10.1655
-34.223015 -135.00829 15.344295 11.1225
-33.625832 -134.32234 15.728839 11.1445
-33.390152 -133.45653 12.790063 9.1739998
-33.587532 -134.79771 15.016246 10.1695
-32.869598 -134.52159 15.170961 11.123
-33.09729 -134.32332 14.911858 10.168
-33.138046 -134.3782 16.72019 11.1565
-32.41571 -135.98203 14.839578 10.157
-32.625893 -134.27113 15.680717 11.145
-32.133514 -136.03819 14.247931 9.1794996
-32.186161 -137.03487 15.028798 10.1595
-32.253933 -135.04553 15.150246 11.123
-31.998158 -135.02948 15.195273 11.1235
-31.784929 -137.27235 15.334108 11.1255
-30.992298 -135.07777 13.993872 9
-30.908108 -135.36586 15.178693 11.1245
-30.907667 -135.07228 15.130822 11.124
-31.098915 -134.5611 14.923153 10.167
-31.058899 -133.49495 15.085334 10.175
-30.483448 -134.11452 14.744858 10.165
-30.132578 -136.08275 17.495169 11.171
