# .PCD v0.7 - Point Cloud Data file format
VERSION 0.7
FIELDS x y z intensity
SIZE 4 4 4 4
TYPE F F F F
COUNT 1 1 1 1
WIDTH 1258
HEIGHT 1
VIEWPOINT 0 0 0 1 0 0 0
POINTS 1258
DATA ascii
-115.09027 31.476149 1.1539959 8.1604996
-115.00191 33.843636 1.1775643 8.1490002
-115.09538 34.155724 1.0784729 8.1485004
-115.00289 34.594723 0.9354623 7.7651668
-115.06622 35.576805 1.1767578 8.1494989
-115.12593 35.956478 1.0259632 8.1590004
-115.18911 40.633003 1.0555024 8.1485004
-115.01493 51.897972 1.0140657 11.052834
-114.96507 52.334217 1.0703213 11.06
-115.13358 55.008457 0.89295477 12.0529
-115.07619 55.557594 1.100003 12.502555
-115.00268 55.676067 1.0864635 12.761571
-115.12072 56.344746 0.87905949 11.395917
-114.94654 56.64716 0.87457103 12.032875
-115.07027 56.856571 0.91490549 11.052999
-115.05267 33.248833 1.3677702 8.1499996
-115.1748 33.784157 1.3112224 8.1494999
-115.15961 34.335167 1.4971358 8.1514997
-115.0544 34.708981 1.51888 7
-114.99373 34.951538 1.5797806 8.1269999
-115.06187 52.489891 1.4182687 12.054916
-114.97524 55.466053 1.3831069 11.709137
-114.90557 55.651684 1.3125957 11.7435
-114.86219 56.199139 1.2567858 12
-114.9789 34.571354 1.7316784 7
-114.83259 38.562454 1.717275 8.1339998
-115.06734 52.29295 1.6967617 10.090333
-114.96307 52.47163 1.6486204 10.091
-115.17745 30.032373 5.2577448 10.0985
-115.02548 31.559601 5.4049134 9.1199999
-115.04036 30.474028 6.914928 10.151
-115.07858 32.952721 6.848392 11.148251
-114.66537 57.503777 -3.0780897 6
-114.60584 57.834278 -3.0362821 6
-114.6199 58.303112 -3.0413527 6
-114.46516 58.912174 -2.9541671 6
-114.65556 51.272648 -2.4611602 6
-114.46722 57.16547 -2.4176791 5
-114.63278 57.442345 -2.4253707 5
-114.50784 58.240627 -2.5484107 5
-114.65529 58.884083 -2.4869514 4.3333335
-114.55968 59.364025 -2.6497798 5
-114.61417 59.886387 -2.5988758 4.5999999
-114.42865 41.881615 -2.0232172 6
-114.51826 42.443577 -2.1008914 6
-114.71013 48.620697 -2.2124333 6
-114.64265 49.713573 -2.3628075 6
-114.53226 52.600014 -2.0278633 6
-114.60483 53.390614 -2.089422 5.1428571
-114.53827 53.850815 -2.1194561 5
-114.56166 54.093063 -2.0990198 4.5
-114.52928 54.566437 -2.1115294 4.5714288
-114.68601 54.964081 -2.1178625 4.8000002
-114.5657 55.391964 -2.1332014 4.5555553
-114.59273 55.792332 -2.1437237 3.6666667
-114.59578 56.140984 -2.1721561 4.25
-114.54253 56.654236 -2.1681268 4
-114.6227 57.03112 -2.2240374 2.5999999
-114.5565 57.38377 -2.2323928 3.1111112
-114.56018 57.842552 -2.2651684 3
-114.5946 58.200497 -2.2793627 2.5
-114.66784 58.584679 -2.3245404 2.6666667
-114.55598 58.934151 -2.3394189 2.3636363
-114.77282 59.564758 -2.3886437 3
-114.46001 39.083282 -1.748193 6
-114.6431 39.458336 -1.9955542 6
-114.70366 41.158562 -1.6905404 6
-114.53794 41.22007 -1.7306721 6
-114.57692 41.876038 -1.62875 6
-114.58098 42.574409 -1.6520131 6.3333335
-114.44788 42.815495 -1.602415 7
-114.55304 43.21183 -1.7253761 7
-114.6025 44.54319 -1.9183593 6
-114.57703 45.11253 -1.6662756 6
-114.70197 46.444042 -1.6904588 6
-114.6316 47.917423 -1.741815 6
-114.66663 49.412422 -1.7886416 6
-114.60686 49.834789 -1.8132075 5
-114.56007 50.060158 -1.8142867 5
-114.63743 50.660187 -1.8219029 5
-114.64708 50.940575 -1.8487365 5
-114.44244 51.263378 -1.8595978 5
-114.6384 51.821415 -1.8461635 5
-114.63797 52.351765 -1.9495931 5.6666665
-114.60448 52.646572 -1.9054688 5
-114.49489 53.081245 -1.9222428 5.25
-114.67845 53.330509 -1.9522417 5.6666665
-114.6187 53.684071 -1.9873316 4.1666665
-114.41612 30.664711 -1.265921 7
-114.54239 35.895252 -1.2244511 7
-114.69064 37.688087 -1.5339543 6
-114.67458 38.695919 -1.596554 7
-114.56928 38.888828 -1.5766991 6
-114.62708 39.426643 -1.5646746 6
-114.70029 40.639839 -1.5393913 6.25
-114.52955 40.904808 -1.5852387 6
-114.41553 41.565968 -1.562421 6
-114.52991 42.52282 -1.5851133 6
-114.41756 54.768383 -0.45119515 8.0365
-114.71159 55.079132 -0.44344863 8.029501
-114.48103 56.370319 -0.47446883 8.0148325
-114.55608 56.585949 -0.46518862 8.0138178
-114.56837 56.987579 -0.44626388 8.0095997
-114.41438 52.406784 -0.11197886 9.1025
-114.72256 55.07 -0.18708996 9.0532503
-114.60811 55.50959 -0.12418427 8.7002811
-114.64758 55.675251 -0.19165108 9.0621672
-114.62457 56.3577 -0.21549869 8.9465132
-114.62854 56.58321 -0.1658265 9.2454767
-114.49399 56.92804 -0.076915622 9.5893002
-114.74286 39.332367 0.20716558 8.0445004
-114.56904 39.825329 0.1809548 8.0439997
-114.53579 50.965332 0.11932673 9.052
-114.78486 51.549267 0.13144857 9.0559998
-114.71405 52.581154 0.13134137 9.0345001
-114.41129 55.054062 0.05249422 8.1070004
-114.4211 55.423561 0.30968264 10.067
-114.43806 55.952068 0.37759075 11.0425
-114.66345 56.216969 0.22174895 9.7471352
-114.57614 56.589756 0.19193292 9.7430935
-114.59999 56.888561 0.069738097 9.6320009
-114.54047 40.764938 0.75546074 8.1470003
-114.42408 41.255058 0.65364796 8.1464996
-114.60249 56.273563 0.55723476 11.25115
-114.60949 56.556522 0.59189546 11.292679
-114.70531 56.900124 0.59852028 10.351834
-114.72179 40.883049 0.84850538 8.1475
-114.77451 51.906765 0.97868735 11.052
-114.71287 54.840515 1.0660574 12.0595
-114.77528 55.424503 1.1424581 13.048333
-114.62199 55.802742 1.0720612 12.502444
-114.53502 56.198681 1.0387818 11.622069
-114.66858 52.184902 1.4732718 12.055642
-114.69024 55.424587 1.3097512 11.903291
-114.48286 55.759956 1.3721986 12.537221
-114.66142 56.2197 1.2667942 13.058611
-114.45168 55.787067 1.6242007 9.1075001
-114.17455 56.497566 -2.9695771 6
-114.1967 59.954659 -2.8309438 5
-114.03924 50.966515 -2.4356306 6
-114.14536 54.051815 -2.530066 6
-114.1821 56.928619 -2.4052305 5.5
-114.07535 57.894524 -2.5223525 5
-114.10861 58.25407 -2.6246803 5
-114.22469 58.595303 -2.4543433 4.3333335
-114.07681 58.97868 -2.4485166 5
-114.14761 59.547424 -2.493947 4.1999998
-114.2271 59.777885 -2.5843303 3.8333333
-114.3083 39.665813 -2.0764463 6
-114.37272 41.345734 -2.0611796 6
-114.08645 42.086239 -2.094048 6
-114.10094 47.665924 -2.1099668 6
-114.25432 48.175419 -2.1133988 6
-114.13716 48.52504 -2.2369528 6
-114.25924 49.388798 -2.2590487 6
-114.0517 52.678082 -2.0607777 6
-114.36057 53.086418 -2.1140985 5.3333335
-114.23842 53.323925 -2.0913186 5.3333335
-114.20007 53.841572 -2.0064359 4.3333335
-114.14133 54.134888 -2.1337357 4.8000002
-114.27632 54.681255 -2.0506704 4.4000001
-114.13582 55.060955 -2.0576737 4.4000001
-114.15305 55.406395 -2.1615093 5.1999998
-114.15239 55.782917 -2.1357732 3.909091
-114.21855 56.204185 -2.188803 3.7777777
-114.16116 56.537323 -2.2691979 4.4000001
-114.18587 57.024033 -2.204592 3.3
-114.22289 57.361427 -2.2126911 4.125
-114.16965 57.825401 -2.275394 2.75
-114.21484 58.210903 -2.2794652 2.2727273
-114.18697 58.535362 -2.2965131 2.909091
-114.1881 58.908543 -2.3404725 0.40000001
-114.19435 59.320183 -2.3926623 3.5
-114.04509 39.075485 -1.6006328 6
-114.1132 39.353172 -1.6218163 6
-114.08344 41.125454 -1.7136128 6
-114.15395 41.74942 -1.6347117 6
-114.22295 42.628899 -1.7209963 6
-114.17204 42.861469 -1.6399601 6
-114.03782 43.287815 -1.6273143 7
-114.27096 43.697052 -1.752721 7
-114.39932 44.021774 -1.9207702 6
-114.31046 45.359993 -1.7077314 6.3333335
-114.18719 45.896477 -1.7136132 6.3333335
-114.36749 46.586304 -1.7149107 6
-114.0377 47.062431 -1.7343999 6
-114.11889 48.393127 -1.7791377 6
-114.05043 48.845852 -1.8724133 6
-114.20026 49.88187 -1.820348 5
-114.11401 50.119358 -1.829228 5.3333335
-114.21906 50.522327 -1.8379898 5
-114.20838 51.094448 -1.8536046 5
-114.39869 51.338139 -1.8860993 6
-114.05724 51.61097 -1.8826984 5
-114.1702 52.199848 -1.8720304 5
-114.17042 52.542603 -1.8870618 6
-114.12347 52.870502 -1.9524844 5
-114.08813 53.402313 -1.9709402 5
-114.30552 53.691639 -1.9773324 4.75
-114.12158 31.236656 -1.250649 7
-114.15954 38.696297 -1.3844906 6.5
-114.29264 38.998657 -1.5062077 6.3333335
-114.10784 40.784267 -1.5931286 6
-114.15646 41.076984 -1.4970162 6.5
-114.05833 41.803909 -1.5794026 6
-114.2843 50.009842 -1.505666 7
-114.39286 31.126003 -1.1150424 7
-114.17989 31.450291 -0.90081316 7
-114.27324 34.478302 -1.1216271 7
-114.09201 38.603531 -1.0956641 7
-114.09601 31.4114 -0.64650053 7
-114.10989 38.465378 -0.68073946 7
-114.39008 54.77594 -0.44180265 8.0334997
-114.17355 55.058067 -0.66973621 7.5349998
-114.09298 55.435398 -0.59998196 7.8778958
-114.21667 55.958954 -0.65083522 7.7992506
-114.14684 56.108082 -0.57620001 8.0473843
-114.32411 56.504326 -0.48312709 8.0163336
-114.29983 56.94466 -0.4914903 8.0115004
-114.31349 38.289864 -0.065969676 8.0610008
-114.07904 51.591721 -0.14580917 9.1025
-114.26161 54.701408 -0.13102186 9.0615005
-114.02032 54.919411 -0.076719128 8.1064997
-114.19504 55.809044 -0.20872393 8.8892498
-114.14656 56.214432 -0.20296504 9.0893993
-114.23757 56.648502 -0.13243 9.402132
-114.21608 56.88171 -0.16014764 9.2308435
-114.15249 39.785503 0.1849622 8.0370007
-114.16327 40.056087 0.19890769 8.0192499
-114.08252 51.386852 0.38710195 8.1025
-114.06404 51.781113 0.14485879 8.1049995
-114.3429 52.384415 0.03651439 9.0815001
-114.22455 52.523342 0.053521447 8.9148655
-114.21574 55.773151 0.37773633 11.0505
-114.12666 56.24297 0.19507062 9.8088751
-114.23982 56.62088 0.22361252 10.089851
-114.15397 56.890083 0.17087066 10.044683
-114.05616 36.298637 0.61058354 8.0159998
-114.15067 52.19125 0.55770302 10.0595
-114.28837 55.022026 0.49632546 11.0465
-114.04613 55.814541 0.69076353 12.04925
-114.16956 56.289349 0.59073412 11.26085
-114.24405 56.620819 0.6000827 11.410282
-114.10359 56.914188 0.70947182 11.206375
-114.26228 55.807732 1.0161744 11.5315
-114.30351 56.100666 1.0655388 12.625355
-114.19771 56.678448 0.95302826 12.189641
-114.15846 56.881027 0.93294585 11.667608
-114.37526 39.092621 1.5691799 8.1400003
-114.14809 39.696938 1.2354679 8.1499996
-114.30998 55.119732 1.527535 11.744334
-114.26257 55.86433 1.3735554 13.66972
-114.28306 56.074173 1.3106879 12.004647
-113.9679 38.847969 -3.1876912 7
-113.75233 56.288696 -2.8667662 7
-113.87317 59.660007 -2.8063433 5
-113.61364 53.68306 -2.5041728 6
-113.8772 57.468163 -2.4409409 6
-113.64574 57.835526 -2.5330539 5.5
-113.77924 58.187611 -2.4540145 4
-113.82508 59.101933 -2.554538 5
-113.79781 59.373016 -2.5236948 4.5
-113.86847 59.788418 -2.4343007 3.5
-113.79304 45.046127 -2.2706494 6
-113.62393 46.625687 -2.263082 6
-113.92654 47.135296 -2.1617322 6
-113.69086 48.334099 -2.3251054 6
-113.76379 48.47477 -2.1553099 6
-113.83138 52.962971 -2.0692902 5.3333335
-113.63026 53.445286 -2.0773234 5
-113.7722 53.774769 -2.0895228 4.6363635
-113.77695 54.217957 -2.1278248 4.8000002
-113.71474 54.533226 -2.0969322 4.375
-113.71217 54.858963 -2.0379727 5
-113.78931 55.450256 -2.0885196 4.5454545
-113.78889 55.830109 -2.1559572 3.875
-113.71966 56.145626 -2.2425909 4.5
-113.77911 56.602077 -2.2131288 3.7272727
-113.75905 57.023914 -2.2167525 3.6666667
-113.74909 57.274151 -2.2398081 2.9000001
-113.79935 57.783722 -2.2794039 3.7
-113.77402 58.191135 -2.2890236 1.6363636
-113.84202 58.627544 -2.3185694 2.5555556
-113.72916 58.941174 -2.33429 2.625
-113.81078 39.081364 -1.7070681 6
-113.86372 39.373035 -1.6211089 6
-113.73242 39.617195 -1.7578822 6
-113.61897 41.065807 -1.6917884 6
-113.78223 41.492203 -1.6432762 6
-113.63239 41.798622 -1.6058097 6
-113.79 42.354507 -1.8382897 6
-113.87336 43.14777 -1.6387625 6
-113.80371 43.568665 -1.6601367 6
-113.90311 44.36895 -1.6714096 6
-113.86271 46.125221 -1.7391253 6.3333335
-113.72737 47.542557 -1.7529041 6
-113.75835 49.844353 -1.8251846 5
-113.78461 50.235783 -1.8207024 5
-113.77599 50.578671 -1.8456825 5.3333335
-113.88598 50.893879 -1.8340775 5
-113.76376 51.391872 -1.8819082 5
-113.94728 51.816689 -1.9259708 6
-113.69243 52.177593 -1.9220724 5.3333335
-113.61487 52.722195 -1.9741284 5
-113.85668 53.030937 -1.9603475 5
-113.93446 53.206459 -1.8429868 6
-113.9446 53.799583 -1.984467 5.5
-113.66697 54.302452 -1.9999011 7
-113.99308 54.991684 -1.9782434 7
-113.71092 55.391773 -1.8097805 4.9298248
-113.92736 31.244284 -1.2640425 7
-113.66698 33.094872 -1.3076358 7
-113.89062 34.034893 -1.378893 7
-113.68365 38.593323 -1.5470968 6
-113.84927 39.042255 -1.5841655 6
-113.63858 40.771919 -1.5998782 6
-113.88731 41.647461 -1.4568825 7
-113.80872 50.538475 -1.5194298 7
-113.66854 55.119484 -1.2367122 7
-113.72882 55.416599 -1.3512701 6.1333332
-113.79803 31.382168 -1.0618668 7
-113.72125 31.763897 -0.83763605 7
-113.62902 33.116283 -1.1100293 7
-113.65791 34.478725 -0.90486658 7
-113.83504 34.831852 -1.1160144 7
-113.99429 38.668053 -1.0178405 7
-113.71283 40.322975 -1.0913767 7
-113.71304 40.521996 -0.81143272 7
-113.95426 55.005665 -0.8372215 7
-113.75862 55.415024 -1.0060983 6.9035335
-113.64497 31.581181 -0.78198737 7
-113.77039 31.721327 -0.70057088 7
-113.64333 34.451775 -0.75817984 7
-113.84966 38.598713 -0.44121993 7
-113.61031 51.360546 -0.65900838 8.0810003
-113.67968 54.63229 -0.45340106 8.0289993
-113.85483 55.10696 -0.61591172 7.9349999
-113.84846 55.394215 -0.56995255 8.0503368
-113.81644 55.786537 -0.57430214 8.0502224
-113.85902 56.263977 -0.54187518 8.0845995
-113.98127 56.960373 -0.49500644 8.0109997
-113.99103 33.386772 -0.1289704 7
-113.96124 51.535431 -0.082620792 9.1020002
-113.95232 52.7216 -0.02866926 9.0495005
-113.64665 54.923485 -0.13720655 9.0384998
-113.87345 55.564972 -0.23276608 9.0445004
-113.70164 55.732513 -0.20432949 9.1743126
-113.90443 56.135349 -0.21668412 9.1416006
-113.7185 56.705109 -0.11224012 9.5050631
-113.85716 56.864937 -0.10106501 9.4126539
-113.67112 38.970463 0.26783803 8.0360003
-113.79472 39.882301 0.13146777 8.048583
-113.89208 51.495842 0.22338128 8.4233332
-113.79522 52.542027 0.014391996 9.0611677
-113.93391 54.814247 0.1666587 10.0475
-113.70444 55.594501 0.39478981 11.0485
-113.85047 56.20396 0.32219338 10.132601
-113.78065 56.660381 0.2490252 10.372143
-113.81479 56.929535 0.28901637 10.087277
-113.7505 57.217613 0.35216069 10.0845
-113.60899 37.987797 0.54960501 8.0485001
-113.75757 52.65958 0.57369536 10.064
-113.83173 52.848541 0.52135873 10.0625
-113.84451 55.977718 0.65802485 12.05
-113.76684 56.157722 0.4705793 10.037001
-113.74952 56.614746 0.58292764 11.123047
-113.79241 56.970993 0.567155 11.368607
-113.71085 57.235741 0.41961661 11.535749
-113.76183 39.628479 0.90112257 7
-113.68299 40.155361 1.0683011 8.1485004
-113.83417 55.026634 1.1930819 13.051
-113.80263 55.883652 1.0786941 11.6669
-113.82767 56.151054 0.99147999 12.066167
-113.74969 56.530792 0.88559967 12.336768
-113.7418 56.875431 0.85507482 12.211149
-113.68446 39.934143 1.20297 8.1485004
-113.7496 55.119453 1.2230572 13.05
-113.6495 55.507717 1.2754743 13.0605
-113.71548 55.903553 1.3416775 12.242749
-113.67802 56.111176 1.3298939 13.314375
-113.65229 56.536926 1.2947333 11.850349
-113.75503 31.162773 3.2893794 9.0985003
-113.78446 31.243511 3.3271449 9.0994997
-113.88708 31.633858 3.236156 9.1005001
-113.52271 58.504406 -2.9012299 6
-113.35487 53.198971 -2.488776 6
-113.45674 55.473152 -2.5185087 6
-113.45467 55.919407 -2.4155779 6
-113.34352 56.280609 -2.4303575 6
-113.34756 57.446537 -2.479924 5
-113.36497 57.908867 -2.4321673 4
-113.36615 58.059456 -2.5065894 6
-113.44968 59.023174 -2.4902377 4.3333335
-113.44768 59.425617 -2.5681834 4.3333335
-113.40988 59.832764 -2.5887356 4.5
-113.39621 41.190147 -2.0870101 6
-113.53331 44.50774 -2.2644286 6
-113.38345 44.859787 -2.1018646 6
-113.51788 45.599838 -2.2213221 6
-113.43802 45.726738 -2.3149266 6
-113.3437 46.443161 -2.2140887 6
-113.43864 47.048943 -2.2158289 6
-113.31349 47.236851 -2.3108659 6
-113.44512 47.824467 -2.3158796 6
-113.35678 52.707111 -2.0931954 5
-113.44479 53.083607 -2.1234145 6
-113.23021 53.451439 -2.0137646 4.6666665
-113.37928 53.699722 -2.065289 4.5
-113.34833 54.20747 -2.0531251 4
-113.30303 54.6632 -2.0823896 4
-113.2937 54.901558 -2.0590961 4
-113.31929 55.445732 -2.1440842 4.9166665
-113.4259 55.777073 -2.1395292 4
-113.47812 56.255344 -2.2377617 4.1999998
-113.31614 56.532764 -2.1984303 4.1428571
-113.44139 56.959717 -2.2081056 2.75
-113.37197 57.44648 -2.2575808 3.090909
-113.35863 57.75703 -2.29036 4.125
-113.41802 58.258724 -2.2844822 2.5454545
-113.36142 58.572529 -2.3147173 2.8571429
-113.39724 58.958118 -2.3527277 1.1666666
-113.5007 59.3092 -2.3455765 5.5
-113.25002 59.678337 -2.3323181 7
-113.57994 31.591387 -1.8285167 7
-113.26989 34.190468 -1.6439744 8.0769997
-113.35693 39.098911 -1.7074404 6
-113.37728 39.497162 -1.6685178 6
-113.20686 39.753334 -1.6583571 6
-113.34961 40.609688 -1.7126875 6
-113.37323 41.34021 -1.6504338 6
-113.23949 41.905563 -1.6283301 6
-113.5902 43.523022 -1.6644824 6
-113.32452 43.757233 -1.6682643 6
-113.41221 44.579979 -1.690648 6.3333335
-113.45448 47.764397 -1.7724738 6
-113.36874 49.109699 -1.8358358 6
-113.37194 49.928173 -1.8359014 5
-113.46191 50.183823 -1.8279247 5
-113.36402 50.596554 -1.8559787 5.25
-113.44454 51.036858 -1.8702886 5
-113.39355 51.426678 -1.904231 5
-113.36176 51.961479 -1.9196481 5
-113.41945 52.32505 -1.9559189 5.6666665
-113.26945 52.562164 -1.95456 5
-113.49858 53.143585 -1.9911979 5
-113.44395 53.565304 -1.8644309 6
-113.38268 55.431446 -1.7782477 5.7272725
-113.2816 31.456905 -1.3811209 7
-113.47984 34.748322 -1.4257309 7
-113.4099 38.306667 -1.5589526 6
-113.48055 39.014301 -1.5862253 6
-113.54697 41.137562 -1.398327 7
-113.30891 41.930351 -1.497539 7
-113.54209 42.601921 -1.2591382 7
-113.40474 55.044739 -1.442363 7
-113.39114 55.44516 -1.3837179 6.5
-113.40824 31.387112 -0.98554254 7
-113.59438 34.55941 -0.87846017 7
-113.58398 34.83707 -0.93845141 7
-113.32203 38.892078 -1.1389016 7
-113.23383 55.077835 -0.99199307 7
-113.43643 55.431465 -0.95317769 7
-113.33524 31.432592 -0.70298815 7
-113.51656 31.643461 -0.61389673 7
-113.49623 33.027718 -0.5793134 7
-113.43835 34.670158 -0.78679788 7
-113.34079 42.395557 -0.54522961 8.052
-113.36972 51.550285 -0.62539685 8.0839167
-113.23953 51.628166 -0.44925627 8.0560837
-113.34637 53.296013 -0.41106573 8.0299997
-113.44814 55.11282 -0.54291403 8.0454636
-113.36012 55.432877 -0.57652354 8.0428896
-113.47111 55.835377 -0.62663907 7.7909374
-113.41386 56.620461 -0.42530048 8.0019999
-113.39013 57.249687 -0.45015049 8.0089998
-113.52316 40.437775 -0.14662494 7
-113.24303 54.672249 -0.20125194 9.0524998
-113.47454 54.991882 -0.20648031 9.0472498
-113.35354 55.902405 -0.23529468 8.8858185
-113.39772 56.045006 -0.17993489 9.1257505
-113.33354 56.660976 -0.17499053 9.1505833
-113.28899 56.895462 -0.24039842 9.0593061
-113.25397 31.206205 0.18423685 8.0579996
-113.368 38.209461 0.32067004 8.0233335
-113.26655 38.454674 0.30207235 8.0225
-113.32922 39.168518 0.15681158 8.0459995
-113.26284 39.384575 0.13373922 8.0502501
-113.22802 39.811516 0.19718182 8.026
-113.31155 40.123566 0.22226159 8.0221252
-113.34129 51.356209 0.070601441 9.0524998
-113.5458 51.668941 0.056647673 9.0474997
-113.24112 52.028259 0.075428352 9.0640001
-113.45831 52.687672 0.03307528 9.0644999
-113.46505 56.268433 0.11288017 10.258668
-113.37561 56.586842 0.23086342 9.7176704
-113.43946 57.011093 0.214698 9.7831535
-113.40182 57.235359 0.24079478 9.9303322
-113.30839 31.419399 0.59435517 8.03125
-113.22005 33.13702 0.56226754 7
-113.26167 40.513206 0.71040267 8.1464996
-113.23531 45.379173 0.49046144 9.0629997
-113.38615 55.885452 0.57588059 9.9068336
-113.35564 56.18734 0.50215536 10.2214
-113.37714 56.647572 0.59005499 11.271416
-113.46803 56.972893 0.58435881 11.621529
-113.4026 57.337826 0.56958336 10.813063
-113.38921 41.059132 0.93830991 8.1475
-113.26468 55.421524 0.96666473 10.878143
-113.47912 55.869869 0.98946321 11.027709
-113.46673 56.145687 1.0385237 11.778727
-113.37032 56.59763 1.0423934 11.853694
-113.46246 56.904083 0.8679077 11.705821
-113.28458 33.228516 1.2014008 8.1400003
-113.30443 55.391842 1.305239 12.024501
-113.52644 55.941662 1.3216474 11.420166
-113.48486 56.660198 1.3035547 12.986483
-113.39802 39.553902 1.6116145 8.1335001
-113.48326 33.643024 2.7836165 9.1014996
-113.30168 31.72999 3.0009506 9.1020002
-112.85661 54.731785 -2.9540234 6
-113.01534 55.446308 -2.8894336 6
-113.01976 52.758251 -2.4711847 6
-113.00297 55.346245 -2.6681607 6
-113.14929 56.599762 -2.4549839 6
-112.87555 56.947941 -2.4705 5.5
-112.96466 57.37558 -2.5058005 5
-112.98139 57.705086 -2.4583139 4.3333335
-113.01569 58.324131 -2.5510468 6
-113.04865 58.469421 -2.6556942 5
-113.0051 58.972538 -2.5968671 4.25
-112.92969 59.47488 -2.5858612 4.75
-112.99139 59.7854 -2.5038407 3.5
-112.95721 33.077461 -2.0998766 7
-113.06959 39.378067 -2.0576878 6
-112.85497 40.412907 -2.0122879 6
-112.93945 40.868137 -2.0808754 6
-112.87298 43.552597 -2.2491088 6
-113.0178 44.334057 -2.096061 6
-112.94706 44.631874 -2.2085369 6
-112.95652 45.084892 -2.1414921 6
-112.98685 45.329185 -2.2383471 6
-112.99954 45.756172 -2.1397078 6
-113.00833 52.577774 -2.0570979 5.4285712
-112.84236 52.954987 -2.1381161 5.3333335
-112.94981 53.476963 -2.0410392 4
-112.95767 53.741196 -2.0761194 5
-112.96117 54.168034 -2.0686059 4.7142859
-112.96854 54.575588 -2.0707896 4
-112.8811 55.014153 -2.0779014 4
-112.98329 55.412846 -2.1211264 4.5
-113.04749 55.816341 -2.1797841 3.6363637
-113.02019 56.13863 -2.2014651 4.3333335
-112.95573 56.53001 -2.1757569 3.8333333
-112.9975 57.048214 -2.2214341 3.7692308
-113.00043 57.375397 -2.260808 3.5999999
-112.9593 57.902184 -2.2660072 3.2
-112.96407 58.18856 -2.3240659 2.9166667
-113.06162 58.608559 -2.3264112 2.1111112
-112.98248 58.917694 -2.3625531 1.7142857
-113.08483 59.395939 -2.386553 3
-112.83904 33.714634 -1.8717214 8.0679998
-113.11728 34.110611 -1.7176664 8.066
-112.98956 34.808285 -1.8894473 7
-113.03045 38.709686 -1.6512802 6.5
-112.98954 38.946846 -1.7203946 6
-112.97359 39.512451 -1.6704997 6
-112.88377 40.357109 -1.6608056 6
-113.01506 40.675945 -1.6644118 6
-113.01987 40.997543 -1.6614 6
-113.10291 41.629143 -1.8411103 6
-112.87526 43.714272 -1.6573138 6
-113.10607 44.094017 -1.6991228 6
-112.90354 48.124744 -1.7886798 7
-113.06153 48.562847 -1.829282 6.3333335
-113.19295 48.806606 -1.9177419 6
-113.06262 49.29089 -1.8609443 6
-112.88777 49.835178 -1.865294 5.6666665
-112.97142 50.206112 -1.8433752 5
-112.9431 50.600826 -1.8557941 5
-113.09602 51.011284 -1.8829343 5.1666665
-113.07597 51.578899 -1.931345 5
-112.92485 51.816109 -1.9309093 5
-112.93705 52.556442 -1.9533008 5
-113.18126 53.107872 -1.864617 6
-113.02697 30.66651 -1.3288912 7
-112.8119 35.017002 -1.4859635 7
-112.83584 36.514393 -1.3318172 7
-112.83842 37.105831 -1.5725192 8.0760002
-112.97791 37.887413 -1.5824296 6
-113.13145 43.650375 -1.5243533 7
-113.01188 45.329201 -1.5476506 7
-113.12663 31.405603 -0.91524947 7
-112.92018 51.494236 -0.83989573 7
-113.04773 51.730705 -0.80250555 8.1000004
-112.87453 52.28228 -0.9161942 7.7346668
-113.0858 55.379406 -1.0367695 7
-113.1862 31.397741 -0.7233547 7
-113.17045 34.77356 -0.78482103 7
-112.82905 40.668102 -0.57492465 8.0524998
-113.03165 51.511868 -0.71110493 8.0856876
-112.96788 51.689545 -0.555812 8.0683918
-112.91928 52.256123 -0.66576231 8.0780001
-112.82479 52.60313 -0.7430312 8.0830002
-112.86536 54.568363 -0.50346184 8.0365
-112.94147 55.03931 -0.51954466 8.0347004
-113.10001 55.409214 -0.50253987 8.0229578
-113.08775 55.804192 -0.52367121 8.0254173
-112.92868 56.336742 -0.61546755 7.678
-112.92014 56.629539 -0.52367389 8.095808
-112.90643 56.924 -0.50822139 8.0118666
-113.0831 31.289131 -0.31069893 8.0552502
-112.88853 48.514442 -0.38491994 7
-112.95167 51.574554 -0.035901524 8.1044998
-113.03741 51.781853 -0.10256717 8.1044998
-112.85136 52.101704 -0.38367674 8.0389996
-112.8652 53.62664 -0.037060156 9.0354996
-112.96033 54.663261 -0.17643236 9.0530005
-113.15282 54.856953 -0.22411081 8.1059999
-112.90413 55.458115 -0.25363427 9.0592508
-113.14188 55.84309 -0.16015536 9.307375
-113.03442 56.186863 -0.23850009 9.0542135
-113.02293 56.559769 -0.26392502 9.0329905
-113.03326 56.966759 -0.14531197 9.3015575
-113.08772 57.264122 -0.038786869 8.7006674
-113.08907 33.111862 0.25537771 7
-112.84435 33.221874 0.26587486 7
-113.03263 39.123756 0.21270621 8.0326662
-113.03347 39.436523 0.19300599 8.0272503
-112.90717 39.757755 0.22624521 8.0244999
-113.138 40.091343 0.16112117 8.0293341
-112.89911 52.661285 0.036568165 9.0372505
-112.85135 53.642223 0.37703264 10.0355
-112.96436 55.421017 0.074637629 10.05225
-112.99471 55.881603 0.047838002 10.053124
-112.98969 56.102364 0.19169071 9.8368492
-113.06453 56.55468 0.16242743 9.7826004
-113.04427 57.074234 0.15850683 10.315723
-113.14727 31.537111 0.69522238 8.0504999
-113.15297 31.833845 0.58824003 8.0279999
-113.03493 32.870312 0.52539623 8.0284996
-112.97822 33.373135 0.67805219 7
-112.81406 42.032528 0.70892352 8.1464996
-112.89432 55.192001 0.60253185 10.02
-112.83557 55.450218 0.45022574 11.0405
-113.03585 55.863285 0.62077522 10.52389
-112.949 56.225342 0.52855092 11.263694
-113.0563 56.590565 0.58008313 10.734943
-113.10032 56.863201 0.60287368 11.10055
-113.0316 55.095188 1.0509003 12.031166
-113.02175 55.397209 0.9275533 11.527812
-113.05972 55.952763 0.95420033 11.272332
-113.01844 56.090622 1.05823 11.736982
-113.04622 56.533005 0.9097774 11.88581
-112.92625 32.78643 1.2623317 8.1444998
-113.07436 33.154686 1.4479126 8.151
-112.94513 33.552254 1.2001679 8.1500006
-112.8315 51.535149 1.2406744 9.1044998
-112.88525 51.971195 1.3084226 9.1055002
-113.06417 55.291161 1.298561 12.249278
-113.05208 55.968094 1.2198012 12.0235
-113.10588 56.140362 1.2463253 13.7065
-112.89413 31.682505 3.0708625 10.0915
-113.01723 34.876678 2.8281374 9.5959997
-112.90038 31.721064 3.2418196 9.1009998
-112.65692 58.119385 -2.8529265 6
-112.57434 59.752377 -2.822587 5
-112.44002 54.957836 -2.6379738 6
-112.6296 55.438812 -2.5733325 6
-112.48505 55.655003 -2.4654174 6
-112.43346 57.023876 -2.4764206 5
-112.71037 57.228249 -2.5111313 6
-112.67229 58.184296 -2.6312253 5
-112.54138 58.602947 -2.5070913 4.75
-112.53854 59.389431 -2.5212994 3.5999999
-112.64792 59.863838 -2.5148814 4.4000001
-112.59309 40.400967 -2.0787749 6
-112.75064 44.035206 -2.2967017 6
-112.76034 44.523647 -2.139184 6
-112.51922 48.507942 -2.3696299 6
-112.72854 49.035076 -2.378422 6
-112.70034 52.499733 -2.0358019 5
-112.47662 52.814293 -2.1476202 5
-112.60666 53.834587 -2.122839 4.6666665
-112.57108 54.227459 -2.1034501 4.5999999
-112.57679 54.616146 -2.0975146 4.8000002
-112.54535 55.066994 -2.1480429 4.4000001
-112.65814 55.473469 -2.1421537 4.4000001
-112.51875 55.804523 -2.1569626 3.8571429
-112.62355 56.205963 -2.1503069 5
-112.60126 56.608845 -2.18663 4.3333335
-112.59515 56.985638 -2.2296033 4
-112.60043 57.437004 -2.2588534 3.2352941
-112.57723 57.887875 -2.2728136 2.8571429
-112.58139 58.237434 -2.3121564 2.9000001
-112.64038 58.497173 -2.3405776 1.25
-112.57811 58.928833 -2.3719068 2.25
-112.41759 59.362823 -2.3660922 5
-112.51239 38.601856 -1.7679007 6
-112.5723 39.050632 -1.6597244 6
-112.77493 39.969654 -1.6243169 6
-112.63734 40.203789 -1.6699164 6
-112.61377 40.611912 -1.7463466 6
-112.5549 40.837738 -1.7286121 6
-112.44492 43.243679 -1.6541827 6
-112.54975 43.864712 -1.7085687 6
-112.58661 47.427509 -1.7870373 6
-112.54434 48.656174 -1.8808507 7
-112.78413 49.512051 -1.7716241 7
-112.62308 50.133114 -1.8236263 6
-112.5845 50.664154 -1.8652956 5
-112.49927 51.018257 -1.8999161 5
-112.59124 51.340889 -1.8917829 5.8333335
-112.40612 51.698162 -1.9139221 5
-112.54547 52.261379 -1.8244042 5.2222223
-112.66766 52.629871 -1.9537529 5
-112.47875 53.012821 -1.990258 5
-112.67798 36.224636 -1.3756151 7
-112.58286 40.155445 -1.5766053 6
-112.67723 45.825062 -1.5748249 7
-112.54438 47.35223 -1.598631 7
-112.47407 52.229641 -1.4711683 6.4104004
-112.52415 52.420166 -1.3259219 6
-112.59537 51.583263 -0.91078722 7
-112.61404 51.733799 -1.0090382 7.1002727
-112.54761 52.347458 -0.88105428 7.1216669
-112.62474 52.417744 -0.98106897 7
-112.56293 51.530029 -0.66347307 8.0808334
-112.64809 51.684277 -0.51801294 8.0637302
-112.63842 52.250996 -0.52170783 8.0612507
-112.52385 52.607609 -0.51331371 8.0394554
-112.47234 52.875668 -0.52439976 8.0582008
-112.74235 54.608982 -0.50318599 8.0365
-112.76864 55.185829 -0.49425972 8.0214996
-112.46121 55.321095 -0.52068716 8.0248337
-112.5625 56.211372 -0.53719604 8.0073242
-112.63834 56.54417 -0.52909184 8.0203991
-112.70255 56.966705 -0.5458011 8.0074291
-112.42956 36.137722 -0.091161191 8.0635004
-112.43332 36.517788 -0.12499318 8.0710001
-112.52057 46.096321 -0.13099693 8.0335007
-112.65478 51.832752 -0.3539508 8.5715008
-112.5147 52.729492 -0.26963338 8.3639994
-112.60516 52.958302 -0.0071626147 9.0389996
-112.7123 54.55851 -0.11229044 9.0325003
-112.7844 54.984035 -0.23629108 9.0539999
-112.60609 55.229534 -0.23824464 8.1064997
-112.49249 55.829136 -0.18097919 9.0244226
-112.55428 56.277805 -0.15323527 9.1516876
-112.54962 56.592136 -0.16639937 9.2145309
-112.69931 56.992363 -0.087035768 9.6105127
-112.59021 58.410278 -0.14140823 7
-112.73581 39.855663 0.22202304 8.0214996
-112.76443 53.341908 0.19964476 9.3623343
-112.49661 55.766998 0.24231948 10.01495
-112.57362 56.154652 0.26889163 10.153625
-112.54433 56.638191 0.23387302 10.453167
-112.64062 56.945961 0.11369502 10.333786
-112.74487 44.043514 0.57108104 9.0625
-112.60751 45.72403 0.46580043 9.0530005
-112.57835 46.3577 0.58302242 9.0374994
-112.72146 46.420124 0.58249968 9.033
-112.57318 53.093159 0.40176797 10.039
-112.56036 53.474113 0.59709662 10.535
-112.49694 55.385544 0.69443208 11.028584
-112.59872 55.770283 0.62107414 11.117001
-112.73594 56.177113 0.49546632 10.465527
-112.71011 56.469627 0.53213537 11.223083
-112.67086 54.991043 0.95816761 12.036667
-112.62154 55.46661 1.0459187 12.29725
-112.56236 55.671089 0.89900863 11.684541
-112.78201 44.977451 1.2611548 10.0505
-112.62142 33.912464 1.9124621 7
-112.7928 31.066294 2.479912 8.132
-112.75375 32.095562 2.7021077 10.0555
-112.70197 30.570776 4.0929933 11.0915
-112.37287 59.431095 -2.80671 5
-112.03681 52.634026 -2.4307532 6
-112.21864 52.87175 -2.7193027 7
-112.12964 55.594177 -2.4267893 6
-112.05164 56.729412 -2.4094725 5
-112.36455 57.502048 -2.5543385 6
-112.16431 58.262249 -2.5326993 4.4285712
-112.20295 59.037712 -2.5394418 4.4444447
-112.23155 59.407516 -2.4643514 3.3333333
-112.198 59.699276 -2.4343245 3.5
-112.29888 39.483036 -2.0436676 6
-112.31304 40.242748 -2.0060232 6
-112.29707 43.299519 -2.2344019 6
-112.01081 44.62809 -2.3531408 6
-112.32331 45.858295 -2.3614039 6
-112.12848 46.728756 -2.3543675 6
-112.29967 47.982975 -2.36099 6
-112.3154 52.348148 -2.1361527 6
-112.23247 52.48526 -2.0485263 5
-112.30573 53.147564 -2.0821724 6
-112.15397 53.450176 -2.0967331 6
-112.13596 53.794777 -2.0819445 4.8000002
-112.24353 54.244839 -2.1522293 4.5
-112.18468 54.573303 -2.1199625 5
-112.21693 54.974335 -2.1068966 4.5
-112.12897 55.394512 -2.1276412 4
-112.21879 55.921284 -2.1675136 3.5
-112.15372 56.229935 -2.1701193 3.8888888
-112.14439 56.525707 -2.1723695 3.5
-112.22474 56.950558 -2.23298 4.1428571
-112.15639 57.398323 -2.2504644 3.6666667
-112.21851 57.829571 -2.2541721 3.2
-112.2273 58.318806 -2.3265369 2.4000001
-112.18808 58.584961 -2.3486695 2.7777777
-112.15181 58.911842 -2.3855593 1.6666666
-112.34341 37.74683 -1.6126219 6
-112.13708 38.727535 -1.6462423 6
-112.19815 38.812321 -1.7384228 7
-112.16109 39.446064 -1.6691569 6
-112.17313 40.30756 -1.7475667 6
-112.22393 40.960838 -1.7079207 6
-112.03315 41.590714 -1.7307093 6
-112.01896 43.245823 -1.6822851 6
-112.12791 43.865475 -1.7011731 6
-112.16772 44.060333 -1.7560585 6
-112.28347 47.771015 -1.747357 6.3333335
-112.10775 49.917439 -1.8633597 6
-112.18467 50.158195 -1.8936962 5.5
-112.12918 50.58065 -1.8785822 5.8000002
-112.08572 51.721706 -1.7633827 6
-112.20847 52.229881 -1.8128719 5.75
-112.25524 52.483418 -1.9539374 5
-112.34029 52.800388 -1.9013536 6
-112.30874 53.252628 -1.9910141 5
-112.13377 36.725132 -1.2120402 7
-112.28024 37.955788 -1.5848246 7
-112.16589 40.009743 -1.5927266 6
-112.00562 50.583889 -1.5815216 7
-112.37144 51.958389 -1.2992076 8.1025
-112.30851 52.145527 -1.3327799 6.25
-112.17562 52.637196 -1.5940681 7
-112.34488 36.205082 -0.94535643 7
-112.18181 36.577435 -1.000984 7
-112.20121 38.285206 -0.96435702 7
-112.14082 51.847748 -0.91654599 7
-112.1972 52.188263 -0.98134875 7
-112.29503 52.598137 -0.99801415 7
-112.2243 36.551895 -0.59376758 7
-112.14345 44.53635 -0.52854162 8.0885
-112.25038 52.309998 -0.45669183 8.0277996
-112.23882 52.560417 -0.47748029 8.0318575
-112.28841 52.937386 -0.4582381 8.0401678
-112.26986 53.439491 -0.4982678 8.0427217
-112.29955 53.618458 -0.41363728 8.0190001
-112.3866 56.529408 -0.52764797 8.0124998
-112.01743 36.661064 -0.019900694 8.0550003
-112.01464 44.82653 -0.31477374 8.0625
-112.206 46.172989 -0.11608997 8.0379448
-112.24412 46.593643 -0.072459005 8.019166
-112.08098 50.503323 -0.32598373 8.0257492
-112.00311 51.565224 -0.3841846 8.0305004
-112.29192 52.05946 -0.31608915 8.0122499
-112.31742 52.621368 -0.0035634409 9.0424995
-112.02743 53.054691 -0.075687975 9.0459995
-112.28838 53.330643 -0.060428899 9.0398331
-112.17293 55.866535 -0.10664601 9.4091997
-112.26614 56.161953 -0.081086271 9.0125999
-112.3175 56.57732 -0.097456492 9.272521
-112.3319 56.912056 -0.10486757 9.0187492
-112.10624 46.405766 0.39895314 9.0550003
-112.35013 48.26701 0.3242797 8.1450005
-112.07181 51.328007 0.13327238 8.5512505
-112.20341 55.837044 0.23957025 10.599928
-112.21423 56.251793 0.28248259 9.8776245
-112.21152 56.568703 0.21806502 10.370777
-112.3596 57.009838 0.10595126 9.0675001
-112.07526 45.805408 0.64271718 8.1459999
-112.36572 46.146297 0.63963985 9.0282497
-112.25254 46.439121 0.60042995 9.0314999
-112.30185 52.682011 0.41884789 10.0425
-112.25615 53.545273 0.71580058 11.0425
-112.15864 55.43335 0.63819969 11.484139
-112.2125 55.822456 0.61372817 11.359693
-112.06434 46.390003 1.0851791 10.055
-112.27377 54.901184 0.9445529 12.036
-112.34454 55.430294 1.1183432 12.8418
-112.34441 55.876026 0.82829589 12.0615
-112.20829 45.422382 1.5166336 10.03
-112.34796 55.420826 1.2148941 12.362167
-112.33304 45.009525 1.9547726 11.0525
-112.2393 44.592758 2.2541778 9.1040001
-112.09763 44.87096 2.1505845 9.1044998
-112.21279 31.930395 2.7876773 9.1005001
-112.01929 32.269772 2.6766727 9.0974998
-112.36747 31.893641 3.0016963 9.1025
-112.23628 32.114956 3.1853888 10.0905
-112.18684 30.53747 3.3545232 10.09
-112.15984 31.967703 3.2466624 10.0905
-112.15163 30.192244 3.8140388 9.099
-112.09381 30.668476 3.8825355 10.0955
-111.64503 56.253273 -2.9127879 6
-111.6498 57.169312 -2.8765748 6
-111.75739 52.18153 -2.4162738 6
-111.87215 55.122246 -2.6419289 6
-111.66615 55.310551 -2.6768494 6
-111.89269 56.105732 -2.457536 6
-111.78233 56.971291 -2.5245183 5.5
-111.89107 57.768303 -2.5971725 5.5
-111.76619 58.079563 -2.5387897 4.5
-111.72382 58.782291 -2.4254484 5
-111.8079 59.064106 -2.4472272 2.5833333
-111.78274 59.449398 -2.6069024 4.8000002
-111.88746 59.79015 -2.5318053 4.1999998
-111.65122 40.52755 -2.0601544 6
-111.91596 42.853905 -2.2265074 6
-111.91214 43.200157 -2.2749174 6
-111.85009 48.156528 -2.0149562 6
-111.84938 49.086662 -2.004818 7
-111.72906 50.222927 -2.0256262 7
-111.60351 52.227364 -2.0261152 5
-111.88583 52.471855 -2.0669432 5.3333335
-111.88429 52.901215 -2.0988913 5.3333335
-111.79671 53.826729 -2.1271002 4.6666665
-111.73899 54.198814 -2.0633507 5
-111.85088 54.644131 -2.1161385 4.4000001
-111.82782 55.015125 -2.2126896 5.1999998
-111.82056 55.317303 -2.2031662 4.8000002
-111.77591 55.830433 -2.1563532 3.8
-111.70177 56.158634 -2.1760609 3.5
-111.72758 56.652611 -2.197372 3.6666667
-111.8134 56.958515 -2.2509167 4
-111.75033 57.447983 -2.2398083 3.5
-111.79453 57.748199 -2.2767305 3.5
-111.80775 58.216667 -2.3180673 2.4545455
-111.80663 58.662609 -2.3568478 1.25
-111.70354 58.899895 -2.3767123 2.6666667
-111.87207 37.54351 -1.6344491 6
-111.96928 38.682491 -1.6246213 7
-111.70744 39.332928 -1.7647402 7
-111.85303 39.799503 -1.6628635 6.5
-111.76281 40.686745 -1.7458253 6.4000001
-111.66511 40.923176 -1.6798319 6
-111.6089 42.121227 -1.9071642 6
-111.92186 42.520779 -1.9048402 6
-111.8599 43.850471 -1.7288487 6.6666665
-111.69751 44.14809 -1.7801944 6.3333335
-111.89044 46.820606 -1.7868804 6
-111.96403 47.79451 -1.8336273 6
-111.62404 48.039112 -1.6681668 7
-111.87182 48.592598 -1.9301336 6.3333335
-111.9324 49.228493 -1.8852479 6
-111.73348 49.644279 -1.6776298 7
-111.80335 50.144657 -1.8840427 5.4000001
-111.77924 50.645863 -1.9339999 5.4000001
-111.78716 51.091213 -1.9581791 5
-111.74285 52.113708 -1.849658 5.6666665
-111.83266 52.567577 -1.9856633 5
-111.70334 52.946262 -1.9050622 5
-111.90925 53.631733 -1.9997411 5
-111.79258 54.498951 -1.9423007 6
-111.86013 32.673725 -1.4438566 7
-111.73871 36.528011 -1.278091 7
-111.95703 39.873821 -1.575725 6
-111.68867 40.550671 -1.5956306 6
-111.89558 41.495319 -1.4519758 7
-111.88239 51.855427 -1.5491984 7
-111.87814 52.136871 -1.5117633 6.5
-111.79056 36.428238 -1.1608704 7
-111.89902 38.194149 -1.0374308 7
-111.85376 51.794544 -0.95376986 7.1830001
-111.8323 52.114979 -0.95139998 7
-111.93023 36.603664 -0.79649091 7
-111.86662 44.755287 -0.48800784 8.0756674
-111.81503 44.93354 -0.61358303 7.6508002
-111.63189 45.25639 -0.50954521 8.0732498
-111.8278 51.429012 -0.40638256 8.1079998
-111.91309 51.949429 -0.78699958 8.0909996
-111.74183 52.230358 -0.5451448 7.9474497
-111.7086 52.507336 -0.45064908 8.0357504
-111.86099 53.076603 -0.4401249 8.0296669
-111.98676 38.112751 -0.025184011 7
-111.75758 44.682449 -0.18866585 8.0535622
-111.74803 44.870167 -0.25321177 8.0581245
-111.62804 45.251144 -0.11631274 8.0349998
-111.9373 46.15369 -0.13648018 8.03125
-111.90299 46.494286 -0.1211078 8.026
-111.89286 50.676144 -0.2816073 8.0179996
-111.64751 51.019413 -0.29191437 8.0874996
-111.69596 51.395786 -0.34548351 8.0429993
-111.66451 51.758083 -0.32967058 8.0155001
-111.69109 52.098354 -0.19292916 8.0289993
-111.83781 52.722775 -0.065484636 9.0477505
-111.60703 54.885983 -0.23332682 9.0594997
-111.80177 55.466846 -0.2142735 8.5820007
-111.8636 55.855526 -0.21202157 9.2991581
-111.7868 56.084782 -0.24387144 9.2545462
-111.62933 56.630611 -0.22284377 9.25
-111.84634 36.547184 0.26033983 8.0417223
-111.90551 38.170158 0.21716382 7
-111.97952 43.184551 0.061176214 8.0225
-111.75591 46.444202 0.38731959 9.0555
-111.86483 53.607922 0.26802349 10.0465
-111.80737 55.923374 0.25377306 10.589114
-111.80334 56.154678 0.16998023 10.253054
-111.81669 56.494419 0.23558432 10.197845
-111.9034 38.031712 0.75139993 7
-111.91174 46.02652 0.60136122 8.7351656
-111.72764 46.496094 0.43730927 9.0383329
-111.64967 55.137737 0.77600235 12.0475
-111.73205 55.49966 0.67623198 11.438951
-111.7865 55.769455 0.69368035 11.866055
-111.72398 56.167847 0.54427034 11.038445
-111.61391 56.476311 0.52522314 10.09425
-111.69991 38.356613 0.96661991 8.1472502
-111.8871 54.766376 0.96980196 12.0585
-111.68839 55.444099 1.058516 12.675812
-111.71989 55.756611 1.0158559 12.30965
-111.7847 56.062344 0.86169416 12.031301
-111.94292 52.52092 1.2717798 12.046
-111.67093 55.558342 1.5827357 9.1075001
-111.66091 55.831776 1.289323 13.036611
-111.67475 56.004108 1.3378347 14
-111.96416 37.097916 1.8996582 8.1285
-111.93285 45.23032 1.9403646 11.0545
-111.61121 46.271633 1.7937373 11.0555
-111.75799 46.691345 1.8345339 11
-111.76356 36.780682 2.6482992 9.1025
-111.81507 44.291637 2.4113991 9.1014996
-111.97884 31.714298 3.0647531 10.092
-111.96381 30.199955 3.6201334 9.0994997
-111.87293 30.81937 3.7272093 9.099
-111.31386 55.214619 -2.8217735 6
-111.43487 55.746387 -2.8650117 6
-111.43243 51.761074 -2.4007044 6
-111.24665 52.560551 -2.5793436 7
-111.42461 55.532642 -2.5984621 6
-111.52106 56.357937 -2.5022714 6
-111.35084 57.39267 -2.5758398 5.3333335
-111.43022 57.920975 -2.6382141 5
-111.33788 58.220936 -2.5597289 4.6666665
-111.40437 58.582203 -2.6253793 4.5
-111.45634 59.034729 -2.5106418 2.3
-111.36194 59.371399 -2.4605668 4.25
-111.40534 59.780998 -2.5751779 4.2857141
-111.20055 41.420017 -2.2643535 6
-111.33228 42.133968 -2.2637475 6
-111.46996 42.932133 -2.1252129 6
-111.48007 51.865696 -2.099282 5
-111.41919 52.018925 -2.0328693 5
-111.42081 52.747425 -2.1156487 5
-111.47205 52.976692 -2.1024542 5.3333335
-111.54767 53.505646 -2.19889 5
-111.47417 53.65118 -2.2486799 5
-111.47178 54.102142 -2.0423629 4.1999998
-111.36913 54.475063 -2.0927665 4.8571429
-111.4437 54.923969 -2.1493814 4.5999999
-111.45686 55.355934 -2.2027848 4.75
-111.34196 55.933788 -2.1842484 3.8
-111.34137 56.176933 -2.1949892 3.8888888
-111.37122 56.619709 -2.233882 3.4444444
-111.46735 56.999756 -2.261544 3.8
-111.3373 57.478146 -2.2685328 3
-111.34747 57.786148 -2.3103323 3.5
-111.44666 58.233406 -2.329268 2.7272727
-111.42025 58.517597 -2.3421874 2.4000001
-111.26541 58.95171 -2.3959551 1
-111.47559 38.5658 -1.776813 6
-111.24899 38.923622 -1.6787018 6
-111.46552 39.755775 -1.7061449 6
-111.42188 40.257996 -1.7676151 6
-111.35448 40.579311 -1.677968 6
-111.20515 41.008739 -1.7371956 6
-111.36081 42.181652 -1.7574053 6
-111.59705 43.251465 -1.7104108 6
-111.51573 44.356602 -1.7304627 6
-111.40172 44.60833 -1.7624923 6.125
-111.29305 44.843365 -1.8073016 6
-111.48184 45.552807 -1.8364624 6
-111.20834 45.63092 -1.8039265 7
-111.4422 48.644817 -1.6869149 7
-111.37431 49.379837 -1.8661122 6
-111.43235 50.175701 -1.863466 5.8000002
-111.43265 50.651123 -1.9332907 5.3333335
-111.3587 50.905094 -1.9514472 5
-111.55474 51.571583 -1.9479601 5
-111.40822 51.861816 -1.9707943 5
-111.44693 52.459179 -1.9522275 7
-111.4511 52.989937 -1.9620705 5.6666665
-111.44466 39.036446 -1.5788354 7
-111.3247 44.736675 -1.5369707 6
-111.21587 45.101471 -1.2944469 7
-111.57453 51.802727 -1.4659156 7
-111.313 52.077293 -1.3119136 7
-111.5749 38.476231 -0.8415907 7
-111.32869 44.64497 -1.0050799 8.0982494
-111.25278 45.365681 -1.1603122 7
-111.47233 52.132965 -0.97080177 7
-111.35671 56.213512 -0.82410073 7
-111.41727 56.51141 -0.96457416 7.7758751
-111.58826 44.620235 -0.72457367 7
-111.51478 45.096191 -0.48312339 8.0766668
-111.24152 45.297363 -0.69062817 7
-111.42346 52.263329 -0.53875136 8.0559464
-111.38149 52.501591 -0.45687625 8.0500002
-111.40247 52.897427 -0.77870232 7
-111.31007 56.641285 -0.60638171 8.5314999
-111.4572 57.01598 -0.40855479 9.1090002
-111.43504 43.894459 -0.014694045 8.0215006
-111.22013 44.303833 -0.39946666 8.0965004
-111.39797 44.791386 -0.10338789 8.0354996
-111.45477 45.076675 -0.25038657 8.0558996
-111.33665 45.371784 -0.21088274 8.0524282
-111.3577 45.747269 -0.14704046 8.0345001
-111.51275 46.698574 -0.15568301 8.0275002
-111.33089 47.11343 -0.14056681 8.0165005
-111.46938 51.398453 -0.29299936 8.0157213
-111.39524 51.738979 -0.32550973 8.0182495
-111.39694 52.179325 -0.2882562 8.0471659
-111.30122 52.676052 -0.19721375 8.6393995
-111.41363 52.87381 -0.098811865 9.057333
-111.35931 53.209133 -0.23501845 8.0450001
-111.3839 54.598927 -0.15857001 9.0662498
-111.37536 54.90453 -0.23619767 9.0553331
-111.38998 55.484497 -0.20192711 8.736167
-111.55627 55.712936 -0.28873852 9.0445004
-111.35652 56.271645 -0.19653144 9.2907858
-111.41277 56.58688 -0.22295654 9.157793
-111.32959 56.927567 -0.26088446 9.0782995
-111.54606 36.571613 0.28648317 8.0354996
-111.45972 46.669807 0.34195 8.7536669
-111.39062 46.89925 0.36958253 9
-111.39398 52.213528 0.2247175 8.0434999
-111.34837 52.685154 0.35981697 10.0475
-111.534 53.053661 0.35545981 10.0415
-111.42786 53.851768 0.22650065 8.1405001
-111.38549 55.554085 0.10767024 8.7513332
-111.28937 55.753689 0.040364366 9.7767859
-111.43515 56.231178 0.26122972 9.9151869
-111.39453 56.565971 0.22205669 10.323885
-111.25819 56.974884 0.11790169 9.4844494
-111.28107 46.089924 0.58895427 9.0319996
-111.3412 46.735432 0.51087391 8.8272495
-111.24649 47.003651 0.44342244 9.0375004
-111.53355 55.477806 0.59462953 11.195357
-111.40292 55.755173 0.70020974 11.548687
-111.39074 56.196049 0.5690254 11.101127
-111.34747 56.559105 0.57828736 11.421943
-111.50478 38.936264 0.96925718 8.1479998
-111.43031 44.767292 0.91196764 8.1479998
-111.35631 45.610676 1.0180061 8.1485004
-111.47468 46.542412 1.1697057 10.0115
-111.37823 46.84145 1.0871601 10
-111.26645 47.210705 1.0957023 10.0605
-111.51266 54.976517 0.90975291 12.057834
-111.40798 55.529991 1.1589302 13.058
-111.38731 55.852386 1.0277579 11.521324
-111.32613 56.189545 0.97808439 11.764236
-111.38579 56.526039 0.89839083 12.058187
-111.48666 54.925381 1.4940054 9.1070004
-111.38455 55.577972 1.3080878 13.256399
-111.37309 55.883781 1.3597715 11.949442
-111.34095 56.225071 1.2444334 12.672626
-111.24686 41.606876 1.8719698 10.033
-111.58758 45.33791 1.9253656 11.055
-111.53607 46.376194 1.9256902 11.0595
-111.56971 46.732365 1.8229091 11.02925
-111.41891 46.853779 1.8154299 11
-111.28831 55.86562 1.6720059 11.937215
-111.47681 40.888691 2.3355587 9.1035004
-111.39785 44.544956 2.3305554 9.1032495
-111.20318 45.20359 2.2470424 9.1044998
-111.41467 36.990242 2.542366 9.1029997
-111.32599 39.322136 2.4767563 9.1035004
-111.42376 30.969921 3.2837896 9.0500002
-111.41417 30.726347 4.5037508 10.145
-111.06349 53.75676 -2.5638514 6
-111.00159 55.963135 -2.4377344 6
-111.07079 56.199638 -2.4289629 5.5
-111.14164 56.620632 -2.5483379 6
-110.89198 56.935627 -2.5803003 6
-111.13538 57.681099 -2.6199396 5
-110.97659 58.296051 -2.6220329 4.8000002
-110.93377 58.691711 -2.4413104 3
-110.99451 58.993801 -2.4432993 2.4000001
-110.99825 59.364639 -2.5153713 2
-111.0093 59.815819 -2.5852168 4.3333335
-110.9172 39.542622 -2.0215337 6
-111.1929 43.056705 -2.1103818 6
-110.90549 44.301228 -2.1015308 6
-111.1134 44.759403 -2.1643789 6
-110.86624 44.845692 -2.2320821 6
-111.01955 50.608665 -2.0926504 7
-111.02432 51.444221 -2.0779254 5.3333335
-110.91454 51.841595 -2.0339446 5
-111.09023 52.062153 -2.0256729 5
-111.0732 52.652645 -2.1088498 5
-111.0184 53.047543 -2.0884559 5.1428571
-111.04313 53.333843 -2.0997193 6
-110.85653 53.994476 -2.0744073 4
-111.05727 54.082561 -2.0481558 5.1999998
-111.03631 54.63868 -2.1052411 4.7777777
-110.88966 55.013607 -2.1640627 4.875
-111.10004 55.42104 -2.2103682 4.8571429
-111.00207 55.759796 -2.2480791 4.5
-110.88191 56.119751 -2.2294643 3.8333333
-110.97053 56.488091 -2.1973319 3.6666667
-111.05081 57.032749 -2.2309401 3.5
-110.99665 57.423489 -2.3071895 3.4000001
-111.00336 57.841137 -2.295115 2.8
-110.99256 58.204445 -2.3304229 3.2222223
-111.03658 58.587395 -2.3713195 2.5555556
-110.99181 58.898067 -2.3870986 2.75
-110.9156 38.208969 -1.8106037 6
-111.04259 38.992405 -1.9563768 6
-111.17447 39.869141 -1.7340419 6
-111.0088 40.161938 -1.6585948 6
-111.01093 40.632729 -1.692124 6.6666665
-110.91987 40.95256 -1.7116055 6.5
-111.10319 42.668587 -1.7620952 6
-111.19216 43.326969 -1.7365156 6
-111.01423 44.743568 -1.7140043 6
-110.86739 44.885204 -1.8174977 6
-111.02082 45.925377 -1.7883972 6
-110.91106 46.72094 -1.8665352 6
-110.88943 47.423286 -1.8598461 6
-110.98583 49.725254 -1.8965682 6
-111.02551 50.279682 -1.8899621 5.8000002
-111.06818 50.595867 -1.9019023 5
-111.05091 50.980801 -1.9462701 5
-110.83146 51.268261 -1.9674162 5
-110.87115 51.808189 -1.9862527 5
-111.14513 52.378017 -1.9800001 5
-110.98953 52.584488 -1.9830892 5
-110.8154 32.320335 -1.5216203 7
-110.81348 39.586517 -1.3531824 7
-110.87106 40.685032 -1.5429773 7
-111.06097 44.751015 -1.4279664 6.5
-111.03253 44.892826 -1.3657085 6.75
-110.85161 30.008949 -0.84906381 7
-110.92733 41.282513 -0.8937611 8.0974998
-110.84232 41.74192 -0.84652632 8.0970001
-111.06105 44.737961 -1.1235596 7.5497499
-110.85287 45.082989 -0.88599813 7
-111.15445 45.335117 -0.88359451 7
-111.06824 56.590733 -0.85532308 7
-110.84048 30.018761 -0.75224924 7
-110.98928 31.577692 -0.51615465 7
-110.83965 41.08672 -0.77569836 7
-111.18362 44.544605 -0.79866832 7
-111.14729 44.916924 -0.62243199 8.0930004
-110.94701 51.77483 -0.49635321 8.1638756
-111.13696 52.311848 -0.50482458 8.0504999
-110.89713 52.533047 -0.48991212 8.0151997
-110.9128 52.824619 -0.42740169 8.0184994
-111.10298 54.693756 -0.44169527 8.0135002
-110.90387 55.160038 -0.65661854 8.0567503
-110.91022 55.28582 -0.63118666 8.0476675
-111.05931 56.65377 -0.64695454 8.1876984
-110.99331 56.991104 -0.55060983 8.011591
-111.15003 57.221489 -0.50247067 8.0094995
-110.85549 44.072666 -0.082420319 8.0275002
-111.00037 44.506687 -0.18274482 8.0504999
-111.02578 44.97226 -0.11527678 8.0335617
