# .PCD v0.7 - Point Cloud Data file format
VERSION 0.7
FIELDS x y z intensity
SIZE 4 4 4 4
TYPE F F F F
COUNT 1 1 1 1
WIDTH 1216
HEIGHT 1
VIEWPOINT 0 0 0 1 0 0 0
POINTS 1216
DATA ascii
-164.23827 -14.542953 7.2070327 9.1750002
-164.2265 -29.942638 7.7816777 10.13
-164.30843 -3.1169753 8.2488194 10.1635
-164.05406 -11.193371 8.5495234 11.1205
-164.01883 -20.381598 8.878274 11.1245
-164.1105 -3.7044179 8.922307 11.1555
-164.25507 -20.800474 9.3426771 10
-164.28424 -20.789545 9.2122641 11.1715
-164.14912 -6.9009762 9.3891182 11.105
-164.34375 -20.5217 10.067762 12.125
-163.65639 -12.594496 5.6398401 8.1730003
-163.89476 -12.311968 5.8815522 9.1485004
-163.92838 -11.476033 5.8863258 9.1435003
-163.70026 -14.876817 6.0811954 9.1595001
-163.87959 -15.123083 6.4722357 9.1669998
-163.66391 -12.81042 6.7285647 9.1680002
-163.68823 -14.229176 6.9868245 9.1737499
-163.65794 -8.2554722 7.0407195 10.141
-163.68402 -21.982189 7.2635994 9.0010004
-163.60907 -8.4317169 7.2240348 10.1545
-163.77219 -3.709532 7.2391124 9.0935001
-163.86078 -6.0183392 7.6506777 10.1045
-163.85693 -14.919692 8.3196526 11.142
-163.95566 -4.0926399 8.1484623 10.163
-163.90973 -20.530909 8.6799793 10.17875
-163.75121 -16.033346 8.4756145 11.156
-163.64485 -10.882019 9.0776939 11.117
-163.71992 -10.761377 9.0412121 11.1175
-163.66249 -10.223448 9.142952 11.117
-163.60536 -4.5985322 9.1269598 11.114
-163.75577 -20.568916 9.4813976 11.174
-163.93356 -19.410563 9.583025 12.150249
-163.70872 -18.548071 9.4569206 12.1335
-163.64124 -14.815808 9.5244331 12.125
-163.60516 -10.290786 9.5377235 11.1695
-163.68977 -20.43004 10.01506 12.1245
-163.69406 -8.1528339 10.115553 12.1585
-163.7592 -21.646055 10.83955 13.1265
-163.78203 -8.8366899 11.152575 13.155
-163.6674 -8.4243984 11.194971 12.1695
-163.37238 -12.48636 5.5965433 8.1735001
-163.51128 -11.814915 5.8389611 9.1479998
-163.41057 -24.333916 6.0775967 8.0032501
-163.33832 -15.55491 6.0675945 9.1599998
-163.51938 -14.905098 6.2615447 9.1634998
-163.35483 -15.95781 6.441987 9.1674995
-163.21387 -15.282111 6.7531919 9.1730003
-163.34283 -14.587708 6.7563062 9.1724997
-163.45912 -14.378184 6.7646832 9.1709995
-163.29489 -11.631375 7.0207691 10.1435
-163.35065 -11.515715 7.0444536 10.139
-163.50655 -7.8538785 7.0074229 10.145
-163.47173 -25.467012 7.3155599 10.1225
-163.4277 -22.141424 7.5839396 9.0004997
-163.56067 -22.148695 7.6880822 10.1695
-163.32823 -15.396453 7.670023 10.12
-163.38489 -16.057875 8.6909504 10.67025
-163.38347 -14.916124 8.4054995 11.155
-163.55804 -25.873739 9.0782557 11.1725
-163.46761 -19.686655 8.8307581 11.1675
-163.23294 -9.9472799 9.0967846 11.116
-163.2691 -19.894266 9.2011604 10.1795
-163.24902 -19.572376 9.2181768 10.179
-163.22678 -18.989063 9.4180002 12.1455
-163.55716 -14.981896 9.4171991 12.1305
-163.40889 -14.689828 9.4383888 12.1505
-163.30658 -13.712456 9.4837103 12.124
-163.24664 -13.273722 9.3750248 12.129
-163.53505 -19.757399 9.7337942 11.1775
-163.48492 -19.539762 9.6949282 12.159
-163.48972 -22.065187 10.681844 11.001
-162.90053 -16.560673 5.824913 8.1765003
-162.90459 -24.681084 6.0198393 9.1199999
-163.08794 -24.195408 6.0527854 8.0022497
-163.01266 -23.750631 6.1560955 9.1455002
-162.98723 -16.802422 6.0706363 9.1610003
-162.93918 -16.659248 6.6583161 9.0959997
-162.81255 -4.8087468 6.645103 9.1654997
-163.01106 -24.431137 7.0047088 9.0985003
-163.04407 -24.06678 7.4253983 10.1235
-162.81091 -22.128849 7.4068179 9.0879993
-162.88045 -21.923918 7.6514916 9.0004997
-162.85834 -24.590874 8.5281925 9.0039997
-163.11176 -14.870341 8.4394121 11.1595
-163.03967 -11.817668 8.7970438 11.118
-162.93742 -26.405046 8.8664942 10.003
-162.9157 -20.505152 8.8062258 10
-163.09048 -15.379056 8.868865 11.1195
-163.08154 -10.720201 8.9928417 11.116
-163.10237 -26.144638 9.3393536 10.003
-162.87659 -18.735163 9.3092117 12.1305
-163.14697 -14.734937 9.2612371 12.1375
-162.864 -23.934959 9.7343273 11.0005
-162.87186 -18.891172 9.9613991 12.1205
-162.94992 -17.761927 9.6015711 11.176
-162.924 -22.659988 10.097956 9.0050001
-162.65987 -24.855001 6.2851329 9.1462498
-162.43205 -24.145191 6.2947326 8.0039997
-162.54277 -24.164629 7.130434 10.1125
-162.4657 -22.258879 6.8944297 8.0050001
-162.72968 -21.919424 7.23035 9
-162.62552 -22.638512 7.7705097 10.173
-162.61855 -22.038868 7.7502995 10.1725
-162.59282 -14.268425 7.9161592 10.169
-162.55948 -2.7312946 8.2597561 11.1325
-162.77222 -14.930259 8.6340828 11.1635
-162.75784 -13.631069 8.7767696 11.119
-162.78062 -25.209972 9.1405802 9.0045004
-162.46689 -16.828281 8.8864212 10.177
-162.7253 -15.944604 8.8635063 11.1675
-162.53154 -14.741261 8.8212738 11.1665
-162.54433 -23.934046 9.5136871 9.0035
-162.51503 -18.755421 9.2792015 12.128
-162.4612 -17.981182 9.5718336 12.162
-162.73062 -16.840717 9.2398996 11.171
-162.71516 -24.540577 9.8423347 10.1755
-162.64682 -18.014568 9.9152184 12.122
-162.74533 -24.131794 10.174272 11.0015
-162.47229 -25.902735 12.228584 12.003
-162.00909 -19.375051 5.4656286 8.1730003
-162.01985 -19.061512 5.4497681 8.1745005
-162.26967 -23.721317 5.9116397 8.1794996
-162.33931 -28.945284 6.5895748 8.0059996
-162.15511 -24.259258 6.5317388 8.0039997
-162.26192 -22.158222 7.1220326 9.0010004
-162.07428 -19.355572 7.0610299 9.17875
-162.00122 -17.886953 7.5636992 10.169
-162.1705 -14.544741 7.9260335 10.171
-162.3933 -4.7302055 8.3927126 11.1515
-162.28159 -16.555836 8.612462 10.1765
-162.29938 -15.71641 8.5856495 10.67
-162.28653 -15.089207 8.5891876 10.1755
-162.27539 -16.09075 8.8485241 10.1765
-162.07756 -14.777448 9.1668015 12.1415
-162.00201 -25.769667 9.4785423 11.001
-162.17094 -24.033813 9.4150238 10.177
-162.39461 -15.81789 9.2260962 12.1425
-162.15829 -15.321758 9.3493719 12.123
-162.2536 -13.801753 9.2242651 12.1495
-162.19052 -11.748905 9.4492435 11.1715
-162.2775 -7.8058577 9.329772 11.16675
-162.24892 -24.074841 9.6188612 12.163
-162.22786 -11.454795 9.7729034 11.17225
-162.09694 -21.602053 10.37604 11.0005
-162.1792 -9.7600365 10.532148 12.1665
-162.2189 -22.739536 11.54142 14.149
-162.24019 -21.50466 11.423846 14.1305
-162.28169 -15.15493 11.496825 14.142
-162.15315 -23.07316 12.109571 11.1765
-162.05452 -29.170486 13.484126 14.001
-161.96808 -19.348871 5.4048805 8.1772499
-161.98044 -18.988745 5.4066577 8.1789999
-161.75482 -19.312872 5.8001094 9.1112499
-161.62198 -3.7524693 6.1363277 9.158
-161.99286 -22.746265 7.1341157 9.0015001
-161.88519 -19.419003 7.1258974 9.17875
-161.83849 -19.176472 7.1767998 10.163
-161.88858 -18.096947 7.4179969 9.6720009
-161.81898 -20.031178 7.984828 10.1765
-161.82022 -16.382124 7.8389678 10.1705
-161.83397 -21.738169 8.3759298 10.1795
-161.83688 -15.7125 8.2535343 11.16
-161.92949 -3.6996334 8.1179743 11.1415
-161.72559 -15.200168 9.1478634 11.1715
-161.62097 -15.198867 9.0915823 12.127
-161.72339 -14.491801 9.0808716 12.1295
-161.60439 -13.95961 9.0826511 12.145
-161.82391 -22.007034 9.558712 12.1255
-161.72531 -15.346897 9.3973465 12.1205
-161.85925 -11.424891 9.2433367 11.17
-161.86546 -25.845421 9.8115416 11.58575
-161.73245 -16.360577 9.6470556 11.1755
-161.9243 -27.959951 10.259427 12.176001
-161.63213 -25.806232 10.020037 9.0059996
-161.73935 -17.232044 10.736537 11.178
-161.6852 -21.099659 11.357121 14.128
-161.85637 -17.75433 11.206865 13.169
-161.73083 -16.045485 11.362445 14.147
-161.63313 -27.48995 12.772595 15.1535
-161.36308 -3.2787223 5.5542784 9.1365004
-161.21413 -3.0888059 5.5557828 9.132
-161.32056 -4.53548 5.9219069 9.1549997
-161.46458 -4.2927566 6.3263421 9.0915003
-161.57263 -4.4433565 6.5245018 9.1634998
-161.30602 -3.9726844 6.7953181 10.137
-161.28151 -1.6917568 6.4337778 9.1595001
-161.27722 -5.3823638 6.9649997 10.1515
-161.46214 -3.9781604 6.9502039 10.146
-161.46729 -2.5067191 6.9652247 10.145
-161.54185 -29.656538 7.5038843 9.0054998
-161.27208 -5.294292 7.4057412 10.159
-161.3436 -3.824863 7.4290128 10.158
-161.37669 -23.367311 8.1689711 11.158
-161.37245 -15.889271 8.292717 10.1755
-161.53777 -15.55237 8.3806238 10.1755
-161.25352 -19.821266 8.7770424 10.179
-161.56636 -23.711973 9.1440039 12.13375
-161.51402 -11.010785 8.8944654 11.1115
-161.44728 -14.135467 9.2483969 12.154
-161.35164 -27.797613 9.7200632 10.177
-161.52139 -9.1190348 9.9486847 12.162
-161.49741 -28.14806 10.681352 13.1625
-161.59793 -27.857027 10.660557 12
-161.26315 -18.266245 11.242419 12.1775
-161.32353 -7.9355569 11.238928 13.161
-161.46022 -28.924509 12.093913 14.1675
-161.33078 -8.5341568 13.045226 15.1195
-160.87469 -4.072504 5.5408726 9.1324997
-161.1779 -2.8691785 5.5094204 9.1405001
-161.11066 -2.7052286 5.5295029 9.1359997
-161.15373 -11.267317 5.8920875 9.0970001
-161.10939 -2.8171899 5.6540823 9.1450005
-160.9679 -4.0873532 6.4360757 9.1391668
-160.95808 -1.2309618 6.7333269 10.123
-161.19888 -17.78124 6.9988089 9.1780005
-160.93521 -11.181873 7.1476717 10.16
-161.09636 -5.2713137 7.1724148 10.1555
-160.97827 -4.1480999 6.940361 10.1505
-160.98637 -2.6867485 6.9548683 10.1495
-160.97003 -1.178112 6.9711504 10.1485
-161.04492 -4.7166824 7.7343602 10.1615
-160.86389 -25.010368 8.2258291 9.0035
-161.00372 -20.840643 8.1570749 11.16
-160.84505 -20.480782 8.0038033 10.178
-160.96249 -3.5197201 8.076025 11.14325
-160.97505 -24.565001 8.6807384 10.0025
-160.98236 -14.298836 8.5373507 11.1185
-161.15141 -24.177044 9.0765924 10.393666
-160.95647 -19.618166 8.8947258 12.1415
-160.95117 -11.416086 8.9312077 11.1665
-161.17851 -23.841082 9.2153683 11.1785
-160.99225 -16.484949 9.2708931 12.1605
-161.18005 -11.09282 9.3199625 12.156
-160.95157 -7.9514771 10.278308 13.1355
-160.82614 -10.31113 10.412494 12.169
-160.8925 -17.065767 10.861424 12.176
-161.19092 -7.904377 11.439657 14.1315
-161.01865 -26.604555 11.792439 14.1655
-161.16931 -29.494129 13.266371 15.168
-160.99455 -24.211088 14.211927 11.502
-160.74179 -10.851622 4.1985812 8.0930004
-160.40604 -22.617994 4.4891949 8.0965004
-160.55644 -10.815489 4.7614369 8.1595001
-160.48088 -10.648047 4.4039292 8.0924997
-160.67052 -3.9268746 5.482955 9.1409998
-160.42743 -22.306528 5.7361031 8.1754999
-160.48059 -21.827333 5.7504978 8.0013752
-160.65991 -16.638113 5.8550005 9.1582499
-160.73412 -10.824723 5.7499957 9.1555004
-160.56213 -10.696693 5.9058313 9.1171675
-160.44209 -28.110378 6.3677287 9.1300001
-160.50771 -10.398894 6.3974376 9.1654997
-160.51241 -28.091959 6.5983033 9.099
-160.75417 -10.854742 6.5642395 9.1704998
-160.70137 -3.6385617 6.7343345 10.1365
-160.67931 -0.832663 6.7394128 10.139
-160.67494 -27.63969 6.9220905 10.114
-160.60997 -17.196386 6.9253855 10.1565
-160.51709 -15.444816 6.9331818 10.1595
-160.45247 -5.1222444 6.8756166 10.151
-160.75471 -4.0466523 7.1438937 10.1545
-160.52673 -0.84518301 6.887403 10.1435
-160.4257 -16.726542 7.2947321 9.177
-160.49477 -2.0545986 7.3548751 10.1565
-160.42259 -16.715084 7.8810143 10.175
-160.70351 -4.2737641 7.9515061 11.137
-160.65012 -25.653406 8.1366625 11.1215
-160.5014 -16.595484 8.1514387 10.17575
-160.45877 -15.320414 8.1620235 10.175
-160.59549 -15.088157 8.1817284 10.17475
-160.61078 -4.9599061 8.1349726 11.151
-160.68152 -4.3582158 8.0993996 11.146
-160.47342 -16.031668 8.8981867 12.151
-160.60681 -15.890374 8.893795 12.1465
-160.79312 -21.031937 9.4426489 12.124
-160.62383 -13.396937 9.2327366 11.0965
-160.74963 -2.4363368 9.7917948 12.1535
-160.63396 -24.558388 10.025425 13.1465
-160.56497 -23.047731 10.08905 13.1535
-160.74231 -22.537916 10.109468 13.153
-160.69896 -7.5373673 10.23753 12.1635
-160.56433 -14.261953 11.144443 14.1495
-160.64444 -9.9388466 11.654116 14.155
-160.50011 -25.336695 12.278414 15.1515
-160.4819 -11.500138 12.637004 14.1665
-160.17224 -22.621452 3.1028848 6
-160.13361 -22.271545 3.0540423 7
-160.34393 -16.486336 3.224668 7
-160.05272 -22.473976 3.7864912 7
-160.29585 -16.449011 3.8247962 7
-160.36388 -22.412577 4.402595 8.1029997
-160.02821 -9.1658735 4.6916742 8.158
-160.26717 -22.208395 4.9903412 8.1285
-160.35147 -16.315409 5.0354867 8.1674995
-160.2782 -22.116959 5.3975224 8.0593338
-160.18652 -16.565329 5.4137297 8.1754999
-160.31009 -16.285927 5.3026099 8.1741667
-160.20062 -15.995405 5.4722919 8.1750002
-160.31569 -22.367039 5.9060154 9.1199999
-160.35432 -21.858974 5.9206896 8.0004997
-160.30374 -17.293066 5.8275442 9.1564999
-160.36433 -16.370989 5.7080145 8.1765003
-160.20537 -15.759044 5.7526274 9.1378336
-160.20987 -28.000294 6.1606417 9.1344995
-160.36928 -22.216898 6.0160036 9.1269999
-160.31573 -11.700955 6.3924623 9.1665001
-160.36069 -2.9523246 6.3494196 9.1599998
-160.04047 -22.057974 6.5046391 8.0030003
-160.07358 -13.733877 6.43332 9.1700001
-160.30772 -10.560191 6.5821848 9.1700001
-160.20479 -9.8599176 6.7908487 10.15
-160.03854 -4.116466 6.7948833 10.1455
-160.00908 -2.2187769 6.6728172 10.13525
-160.1628 -1.7782871 6.6988993 10.135
-160.18956 -21.661089 6.9910893 9.0601664
-160.17325 -21.595955 7.0466995 9
-160.16702 -16.537453 7.0699453 9.6707497
-160.14325 -5.0723581 7.0650206 10.155
-160.38373 -25.910555 7.3092108 10.126
-160.31346 -22.824408 7.3184462 9.1750002
-160.1515 -2.8731987 7.3852434 10.1115
-160.03423 -14.871707 7.809854 10.1735
-160.20885 -2.9619055 7.6563144 10.16
-160.26804 -2.1775351 7.6769924 10.1595
-160.04341 -25.019764 8.5383406 10.0025
-160.036 -22.684914 8.8057051 12.1445
-160.32648 -15.4314 8.8410683 12.146
-160.09454 -13.768422 9.1380129 12.118999
-160.39572 -22.316738 9.3442745 12.125
-160.11397 -21.375076 9.2604189 9.0024996
-160.02103 -15.951657 9.3449154 12.164
-160.3772 -21.350893 10.236487 12.1765
-160.03824 -7.8542075 10.234401 12.1655
-160.0349 -6.5758624 10.158871 13.1385
-160.12946 -2.3036902 10.652553 13.13075
-160.3452 -2.4720886 10.804116 13.115
-160.10881 -25.615051 11.659449 14.169
-160.01537 -25.427536 11.675888 13.001
-160.04251 -25.132269 11.892818 15.1365
-160.3884 -26.864481 12.011631 12.004
-160.23268 -10.303062 12.376622 15.146
-160.37634 -19.529753 14.142556 11.002
-160.03128 -24.479887 14.553948 12.0025
-160.1395 -19.784004 14.429923 15.1775
-160.3287 -19.54281 14.420646 13.1775
-160.12189 -23.568901 14.933475 15.001
-160.03745 -24.478653 15.236757 13.1755
-160.18179 -23.850714 15.260245 15.0015
-159.84599 -25.632607 3.0965431 6
-159.657 -25.171505 2.8068292 8.0790005
-159.92332 -28.824423 4.2903719 7
-159.94743 -28.798326 4.3243384 7
-159.87239 -26.421545 4.1655679 7
-159.95181 -28.469721 4.4201531 7
-159.7877 -28.353844 4.6149044 8.1140003
-159.86626 -26.314541 4.644218 8.0984993
-159.79094 -28.978268 5.1216092 8.1634998
-159.94878 -28.319859 5.387228 8.1295004
-159.82053 -26.275017 5.2224097 8.1260004
-159.66304 -8.83356 5.5123034 9.1355
-159.82634 -26.452164 5.9268351 9.1230001
-159.67708 -25.930054 5.7761917 9.1149998
-159.97809 -15.213375 5.7472639 9.1545
-159.79456 -26.294643 6.286592 9.1274996
-159.68561 -3.9539802 6.3204732 9.1615
-159.63663 -14.815376 6.7237868 9.1745005
-159.6015 -14.663967 6.6294775 10.1495
-159.86467 -10.106302 6.6118855 10.1455
-159.93472 -2.7245345 6.7314768 10.139999
-159.76283 -22.41753 7.1332088 9.0010004
-159.76822 -22.286488 6.9375482 8.5019999
-159.64282 -1.2765462 6.8296351 10.148
-159.81049 -22.314091 7.2284746 9.1789999
-159.63464 -15.312274 7.2225218 10.1665
-159.70316 -11.694526 7.1998677 10.1635
-159.82062 -5.2889132 7.235065 10.1585
-159.76425 -4.6361632 7.5761709 10.161
-159.82234 -14.983624 7.9363523 11.159
-159.75859 -14.074727 7.8462863 11.1535
-159.81517 -13.96739 7.6990848 11.146749
-159.9003 -10.114676 7.6411672 11.1325
-159.95468 -2.5927463 7.9009309 11.1355
-159.92139 -24.841995 8.0551691 9.0024996
-159.79402 -4.3797221 8.1634369 11.114
-159.77635 -15.87591 8.6554718 11.890875
-159.8624 -14.252468 8.7505951 12.134501
-159.68648 -25.484974 9.2246189 10.1765
-159.90514 -23.562765 9.2746439 9.0035
-159.85997 -20.320877 9.3953705 12.1185
-159.67094 -9.3808994 9.9567108 13.145
-159.70021 -26.305191 10.264102 13.127
-159.74973 -7.9791846 10.268213 12.167
-159.62727 -26.131876 10.797544 14.1375
-159.71278 -9.0486126 10.548821 13.115
-159.77116 -2.0571611 10.484407 13.1195
-159.98318 -9.0587645 11.320506 13.1645
-159.86002 -8.0185537 11.438063 14.1485
-159.80278 -26.113832 11.613507 14.1695
-159.91734 -25.295765 11.698371 12.003
-159.96471 -24.988003 11.932615 15.14325
-159.9362 -26.933308 12.025 14.174
-159.72905 -27.724993 12.432164 15.1625
-159.65181 -26.575674 12.943676 14.002
-159.75346 -14.722425 12.957689 14.1735
-159.90572 -19.504868 13.202754 10.002
-159.82921 -19.760729 14.337227 11.002
-159.69388 -12.883266 14.337402 15.172
-159.86365 -24.12233 14.661623 12.503
-159.76237 -23.763294 14.666713 12.864833
-159.83162 -23.497089 14.444248 11.0035
-159.9847 -19.841806 14.614074 14.17925
-159.77792 -24.258734 14.964337 14.3355
-159.86281 -23.680048 14.954033 11.50375
-159.47145 -26.180628 2.310873 5
-159.27226 -24.442513 2.1431859 6
-159.21564 -23.723469 2.0924659 6
-159.26831 -12.153809 2.3847053 6
-159.32317 -25.441662 2.6639347 8.0815001
-159.35367 -25.314259 2.8805587 8.0799999
-159.32809 -20.669556 5.0431004 8.1225004
-159.45482 -28.285526 5.5857391 9.1110001
-159.22226 -20.998993 5.3416123 8.1739998
-159.2861 -20.648148 5.3884501 8.1737499
-159.23332 -20.019806 5.2686543 8.1765003
-159.51834 -28.498619 6.0837359 8.0037498
-159.52272 -10.608374 6.00947 9.1625004
-159.35109 -9.6178942 6.3388548 9.1680002
-159.36977 -9.5138922 6.2816586 9.1645002
-159.28909 -8.8991146 6.3260021 9.16675
-159.31445 -1.1205447 6.2279429 9.0900002
-159.55322 -15.617441 6.4073629 9.1715002
-159.52847 -15.502404 6.5982246 9.1742496
-159.3436 -3.4035895 6.593852 10.06575
-159.24162 -28.497314 6.9728732 9.0985003
-159.58775 -15.090253 6.8171024 10.159
-159.32143 -29.281837 7.3965778 9.0015001
-159.33209 -29.16144 7.4804697 9.0054998
-159.44995 -23.161467 7.21525 9.1794996
-159.2941 -28.647724 7.8764544 11.1215
-159.38635 -16.128414 7.6930857 11.1245
-159.33121 -4.4710407 7.7605076 11.1365
-159.47136 -4.2850819 7.7981491 11.132
-159.45689 -1.6378098 7.8476391 11.139
-159.4563 -29.550201 8.178441 11.16
-159.57877 -25.147064 8.1940222 11.1685
-159.44049 -24.771318 8.3737354 11.172
-159.59926 -14.658144 8.3830843 11.1165
-159.48167 -12.855997 8.4826546 11.1145
-159.43843 -11.950169 8.7793312 11.1685
-159.30318 -11.776426 8.9752312 11.171
-159.33382 -10.791779 8.8982601 12.1505
-159.25113 -3.7014239 8.9681797 12
-159.42213 -29.058424 9.3995857 12.105
-159.47244 -8.3437443 9.8590708 13.131
-159.50517 -7.2982512 9.6240053 12.16
-159.26295 -10.431433 10.282011 12.17
-159.26294 -9.8858738 10.192521 13.1175
-159.51344 -8.612504 10.246379 13.1535
-159.55069 -7.7509003 10.085647 12.1125
-159.22986 -3.1022017 10.219071 13.14
-159.28903 -21.54262 10.640683 14.13
-159.29224 -15.941818 10.676779 14.13
-159.42453 -10.294075 10.451441 13.159
-159.54068 -9.4449635 10.403227 13.116
-159.3187 -8.5147324 10.494944 13.1575
-159.28307 -6.6544175 10.574623 13.114
-159.59006 -4.694828 10.462463 13.1505
-159.33701 -9.2314711 11.36275 14.154
-159.31642 -28.231003 11.766252 12.005
-159.52544 -24.640057 11.742512 15.1375
-159.25636 -10.645557 12.041233 15.1415
-159.27557 -3.8456633 12.019715 14.154
-159.37184 -28.485664 12.579374 13.005
-159.34435 -13.648663 12.450319 14.17
-159.44426 -28.485556 12.866499 14.0025
-159.45508 -22.139679 13.573236 15.1755
-159.36739 -13.266335 13.433455 14.1735
-159.30812 -23.065039 13.909306 13.0015
-159.58669 -12.937867 13.825207 15.1695
-159.33868 -12.607998 13.951388 15.1705
-159.49852 -25.900688 14.170056 15.0015
-159.35982 -24.102785 14.136908 13.4017
-159.43417 -17.885191 14.182574 14.17625
-159.39397 -14.95775 14.516287 14.176
-159.44661 -24.328953 14.813173 13.176
-159.54274 -23.90667 14.804007 14.002
-159.07169 -20.869732 1.8751336 8.0705004
-159.08411 -0.80335671 2.1804883 8.0795002
-158.92116 -12.267861 2.5505421 7
-158.81824 -25.551521 4.1924758 8.0614996
-158.94379 -25.202009 5.1742463 8.1274996
-158.89381 -20.498203 4.810679 8.1639996
-159.11775 -20.50654 5.4234447 8.1783333
-159.09161 -20.213221 5.3137684 8.1765003
-159.07501 -19.917324 5.5417094 9.1055002
-158.84351 -8.3483276 5.7501183 9.1569996
-158.98109 -10.750638 6.3493257 9.1687498
-158.98317 -9.3822222 6.3863149 9.1689997
-159.16821 -13.795488 6.4441218 9.1724997
-158.99194 -10.072295 6.4478693 10.132
-158.95152 -9.8286304 6.5909572 10.14275
-159.16167 -28.685358 7.1851134 10.129
-159.14777 -14.505398 7.0301642 10.10425
-159.07668 -28.381481 7.4852424 9.0010004
-159.16212 -4.2406106 7.507412 10.1605
-159.13612 -29.023617 7.9475312 11.1405
-159.03745 -3.8391404 7.7410512 11.089168
-158.80383 -3.5625963 7.7067938 11
-159.01489 -27.890421 8.1635084 11.129
-159.13445 -22.148834 8.1795502 11.1235
-158.88565 -14.160951 8.0366869 10.093
-159.036 -9.3646536 8.065177 11.158
-159.02878 -3.7634053 8.1842537 11.112
-158.93738 -19.437374 8.7559633 12.124
-158.93289 -18.877434 8.6455879 12.1535
-159.00012 -13.586108 8.5562429 11.1075
-159.03726 -28.331795 8.9910259 12.1255
-159.03754 -15.585288 8.9275665 11.174
-159.08273 -12.293653 9.0475712 12.1585
-159.0804 -3.8533235 9.1011286 12.145
-158.83096 -22.571831 9.5261526 13.1335
-158.82532 -13.977216 9.5034418 12.117
-159.15685 -6.7988381 9.5773945 12.1595
-159.10477 -9.6470003 10.012886 13.1495
-159.14015 -7.123631 10.377579 13.1155
-158.86148 -8.2284307 10.452497 13.114
-159.11057 -14.829217 11.06648 14.12
-158.85207 -26.302082 11.919205 15.157
-159.04938 -24.38945 11.854487 15.155
-158.82564 -9.551445 11.995454 15.136
-159.08333 -13.949731 12.260036 15.158
-159.08221 -3.003262 12.051455 14.113
-159.08324 -2.7877488 12.363043 14.111
-158.97502 -26.447304 12.799372 12
-159.0303 -14.33355 12.765233 14.173
-158.92302 -14.592168 12.97632 14.171833
-158.92502 -14.872043 13.561941 15.171
-158.94485 -14.319768 13.512032 14.1745
-159.05122 -15.344129 13.692327 14.6735
-158.97934 -15.12798 13.766267 15.1725
-159.16812 -13.634985 13.6717 15.17
-158.84517 -21.618799 14.069503 15.179
-158.62425 -7.9583693 5.0231547 8.1665001
-158.71443 -20.531977 5.4951363 8.1765003
-158.78734 -20.263824 5.5352726 8.1789999
-158.60071 -9.2597666 5.551754 9.1534996
-158.50601 -8.9151049 5.4126391 9.1372499
-158.75548 -7.4787874 5.4195199 9.1339998
-158.60487 -26.328905 5.8284206 9.1005001
-158.7867 -20.568817 5.8572869 9.1195002
-158.69734 -20.395107 5.7760315 8.1794996
-158.41605 -3.2238212 6.2142653 9.0644999
-158.5519 -3.0869267 6.3314943 9.0625
-158.49977 -25.884283 6.6369662 9.0024996
-158.40497 -17.409681 6.72088 10.161
-158.4514 -9.4261913 6.5915465 10.149
-158.70628 -9.0361214 6.4144697 10.131
-158.752 -8.3764973 6.4192224 10.1305
-158.56036 -0.53054929 6.7284946 10.147
-158.49255 -17.355436 6.929235 10.165
-158.67245 -14.102252 7.1079826 10.116
-158.55202 -0.99902272 7.0475879 10.15325
-158.66878 -28.438326 7.8993168 11.143
-158.63979 -24.784351 7.8333497 10.0015
-158.68486 -3.4888868 7.8497238 11.1445
-158.71638 -26.067568 8.1083736 11.1695
-158.46931 -15.748922 8.174799 11.117833
-158.42361 -15.413371 8.1298952 11.118
-158.58458 -5.8172617 8.178607 11.15675
-158.44551 -7.2054915 8.5911837 11.1625
-158.54863 -8.1767683 8.8300781 12.148
-158.60609 -5.2001009 9.0322247 12
-158.76044 -14.758101 9.4494848 12.1175
-158.77864 -13.961782 9.4909153 12.1165
-158.58643 -3.3804848 9.514184 12.111
-158.71454 -14.0871 9.690567 13.1225
-158.56168 -8.2170134 10.344251 13.157
-158.66411 -7.4317989 10.023677 13.1475
-158.61656 -3.391679 10.089826 13.1355
-158.61479 -16.787329 10.517341 14.1275
-158.73016 -8.3330221 10.649794 13.1605
-158.68236 -3.1516848 10.882382 13.111
-158.414 -7.6243815 11.393816 14.1155
-158.45128 -4.5845351 11.461959 14.15
-158.44453 -28.883852 11.705255 12.0055
-158.48 -9.8503208 11.883474 15.1405
-158.51692 -2.6866314 11.974206 14.1125
-158.50249 -9.5112209 12.308117 15.154
-158.52582 -4.2978034 12.101947 14.1575
-158.67604 -24.25802 12.747267 10.0055
-158.44701 -21.746199 12.574185 13.1775
-158.45477 -13.817589 12.617431 14.1725
-158.63924 -13.406867 12.489149 15.1615
-158.73747 -26.173223 13.118337 15.1765
-158.56926 -25.837469 13.060777 13.0035
-158.63023 -24.119347 13.158205 12.1755
-158.45749 -23.856863 13.012774 10.0045
-158.69978 -21.916794 13.097651 13.001
-158.43752 -20.035763 13.138734 13
-158.5817 -15.360405 13.191599 14.175
-158.4789 -14.081372 13.17485 14.174
-158.7515 -13.465812 12.965087 14.669001
-158.49879 -23.729635 13.34799 14.0015
-158.51195 -23.367958 13.31042 11.004
-158.70491 -15.423539 13.266038 15.1695
-158.41919 -15.177032 13.360682 14.175
-158.58456 -14.305343 13.253522 15.1685
-158.67499 -13.707055 13.299209 15.168
-158.48296 -19.935556 13.644561 14.17775
-158.76364 -17.39666 13.973062 15.1755
-158.66165 -16.728924 13.813094 14.675751
-158.61613 -15.582108 13.93913 15.174
-158.57138 -14.001164 13.667645 15.1715
-158.70074 -17.609657 14.086059 14.1775
-158.72093 -16.915504 14.086566 14.177
-158.48177 -16.244526 14.016521 14.1765
-158.50354 -15.556092 14.0231 14.176
-158.58687 -22.282217 14.701169 11.0035
-158.54167 -20.407022 14.774164 11.003
-158.7191 -25.700655 15.469502 12.091249
-158.30623 -5.6716857 2.5203993 7
-158.00208 -19.499838 5.1662226 8.1794996
-158.34384 -8.597702 5.0348592 8.1654997
-158.1463 -20.058456 5.4366102 8.1785002
-158.22876 -8.4780884 5.3841672 9.1367493
-158.18553 -8.0017128 5.3460751 9.1429996
-158.05687 -7.4322648 5.3384304 9.1402493
-158.26237 -25.797615 5.833066 8.3637505
-158.11797 -20.480549 5.7671309 9.1639996
-158.31291 -14.203872 6.2841492 9.1324997
-158.0797 -19.54668 6.6804643 10.1585
-158.26425 -17.240881 6.7450137 9
-158.07672 -17.136566 6.6451893 9
-158.32535 -13.465782 6.4659534 10.148
-158.21382 -3.6680906 6.64642 10.149
-158.3922 -20.565353 7.0292263 10.1205
-158.17107 -17.20001 6.9343629 9.177
-158.19951 -13.578079 7.0782685 10.107
-158.0045 -2.8167381 6.8518162 10.1525
-158.15758 -0.50800687 7.0134139 10.15275
-158.31216 -2.5633674 7.4322405 10.159
-158.17177 -1.8173883 7.3221207 10.11
-158.073 -19.022528 7.9515562 11.121
-158.23575 -16.940271 7.8338132 10.58025
-158.01088 -3.0185223 7.7002783 10.093
-158.0305 -2.572628 7.6497564 11.1345
-158.2691 -0.024074206 7.6901021 11.1245
-158.03755 -17.792128 8.2371655 10
-158.07686 -17.578377 8.2176285 10
-158.26842 -17.122681 8.1611805 11.168
-158.29855 -18.466349 8.6805544 12.1575
-158.2251 -18.174101 8.6207867 11.337125
-158.15607 -17.820522 8.471837 11
-158.10374 -16.957623 8.4624729 12.1515
-158.18468 -15.751126 8.6003609 11.6645
-158.10104 -15.061602 8.450325 12.1255
-158.19725 -8.5149422 8.6151485 12.123
-158.17526 -5.8403473 8.4771395 11.112
-158.19821 -5.2914534 8.6602726 11.651
-158.31612 -5.0447097 8.7605791 12.134251
-158.03773 -4.5889816 8.7313986 12.136
-158.32994 -26.218102 9.0938969 10.177
-158.33115 -11.024667 8.9577236 12.116
-158.09837 -4.6436653 8.9877682 12.115
-158.08446 -27.073792 9.2803278 11.004
-158.16211 -17.721451 9.5908403 12
-158.24916 -3.2124364 9.3216047 12.153
-158.24075 -18.085661 9.6823282 13
-158.16978 -17.764967 9.6966152 12.385666
-158.11304 -17.40139 9.7363501 11.7024
-158.34778 -11.419235 9.8961592 13.1555
-158.02699 -25.573587 10.325947 13.173
-158.01924 -25.153767 10.375727 14.1395
-158.1012 -17.266092 10.057105 13.165
-158.27032 -5.3213248 10.156316 13
-158.15742 -5.0868034 10.147898 13
-158.01305 -25.179617 10.451048 12.0025
-158.20612 -7.764852 10.759005 14.13
-158.24419 -5.1841874 10.437864 13.1545
-158.21898 -3.9558046 10.484346 13.113
-158.23531 -26.065439 11.042069 12.5895
-158.13449 -7.6558161 10.87014 14.12825
-158.33537 -26.866976 11.511061 15.1415
-158.11987 -26.659304 11.574961 12.004
-158.0295 -25.192499 11.36649 12
-158.12151 -5.3297958 11.324786 14
-158.30524 -3.3168807 11.496042 13.63
-158.01027 -22.7034 11.808007 15.162
-158.24283 -10.545115 11.76635 15.141
-158.30696 -3.7245154 11.799704 14.1535
-158.28682 -20.806971 12.016631 15.1645
-158.16522 -19.377954 12.204429 13.115334
-158.27998 -14.076212 12.336663 14.66675
-158.25018 -12.855862 12.393658 15.161
-158.03442 -3.0117035 12.383456 15.1265
-158.25789 -28.800156 12.570025 14.003
-158.08751 -27.870054 12.40387 15.1715
-158.12645 -25.643116 12.484301 11
-158.30859 -21.705601 12.796763 12.174
-158.00691 -17.051188 12.631836 13.1775
-158.27019 -16.296993 12.690401 13.177
-158.07118 -14.253933 12.622673 15.1655
-158.21634 -13.036981 12.593344 14.170166
-158.3175 -8.7987261 12.637156 15.1575
-158.01617 -8.3207941 12.585967 15.157
-158.25108 -5.2330775 12.512511 15.118
-158.32829 -4.8972812 12.720317 15.1155
-158.17241 -4.6647692 12.488691 15.118999
-158.04875 -22.469004 13.199706 11.0035
-158.11436 -19.820263 12.968599 13.451333
-158.00523 -19.067253 12.829327 14.1775
-158.14297 -16.445915 12.864 13.1775
-158.11543 -16.098278 13.04779 14.174333
-158.29301 -14.758363 13.115599 14.1745
-158.22089 -12.833438 13.125022 14.173
-158.00127 -18.413549 13.239651 15.174
-158.16656 -16.472834 13.391235 14.674749
-158.09868 -16.164827 13.28015 15.172
-158.22813 -15.83919 13.519933 15.173
-158.28015 -14.403796 13.373258 15.1705
-158.26213 -23.944309 13.735115 12.1785
-158.39737 -16.220869 13.863275 15.1745
-158.26358 -12.24684 13.636524 15.17
-158.07355 -11.569304 14.299376 15.1715
-158.02782 -21.01573 14.759545 11.0035
-158.27943 -25.215767 14.879425 13.176
-158.09764 -24.909197 15.040227 13.176
-158.01727 -22.114214 14.851024 13.1745
-158.13966 -21.930611 15.072821 13.059833
-158.0784 -27.282887 15.770924 15.0045
-158.07538 -27.004093 15.802414 11.0065
-157.84143 -29.540512 2.5316885 6
-157.63428 -13.732706 2.569694 6
-157.60802 -26.899614 3.29917 6
-157.77182 -19.753214 5.1814427 8.1794996
-157.82484 -22.50053 5.5889282 8.0004997
-157.90976 -22.29047 5.3352742 8.0010004
-157.79123 -20.025185 5.3277879 8.1730003
-157.81044 -19.856768 5.3218017 8.1772137
-157.72807 -13.10846 5.5425878 9
-157.94733 -19.876137 5.6916089 8.4939995
-157.66797 -19.528341 5.6988196 9.1630001
-157.6067 -18.520956 5.829638 9.1660004
-157.65698 -18.323744 5.9018898 9.0844994
-157.6857 -16.989754 5.7978101 9.1645002
-157.89807 -19.02449 6.2930617 9.1739998
-157.7236 -18.524761 6.1860886 9.0898333
-157.61891 -18.201649 6.2782326 9
-157.64183 -17.200171 6.2079697 9
-157.60316 -17.042824 6.2012563 9
-157.64478 -14.910673 6.2220044 9.1719999
-157.80176 -22.112009 6.5505652 8.5015001
-157.77832 -19.300631 6.4872622 9.1772499
-157.72736 -19.114225 6.6559949 9.1785002
-157.8215 -18.619354 6.5074677 9.9077501
-157.68427 -18.145811 6.5797944 9.5
-157.61449 -17.779541 6.5481782 9.3839998
-157.76294 -17.329191 6.6003499 9.0443745
-157.69667 -2.9215016 6.4318967 10.1345
-157.65237 -22.267202 6.9053917 9.0010004
-157.81061 -17.220619 7.0234919 10.168
-157.76648 -2.9507601 7.0293193 10.156
-157.74236 -2.7667449 6.9602647 9.0909996
-157.76663 -27.999611 7.5556474 9.1774998
-157.67207 -18.505194 7.5080681 10.719167
-157.66866 -18.195894 7.4651232 10.54375
-157.608 -17.839222 7.3711677 10
-157.71872 -17.257288 7.3524499 10.087
-157.64728 -16.611109 7.4017367 11.151
-157.87624 -2.7569716 7.2189541 10.11
-157.6523 -28.501394 7.6773047 11.1225
-157.8705 -28.378885 7.8077583 11.125
-157.61 -24.56889 7.880487 10.002
-157.88623 -18.906214 7.9627318 11.1205
-157.60912 -18.095961 7.636517 11
-157.61671 -17.312386 7.9881387 10
-157.8606 -17.168171 7.905139 10
-157.88603 -16.194292 7.76161 10.175
-157.70322 -14.763779 7.9303145 11.1175
-157.80841 -14.214182 7.7028704 10.094
-157.73766 -7.4929671 7.9030604 11.156
-157.87651 -5.768311 7.840168 11.1315
-157.74937 -4.7750535 7.6824756 11.145
-157.81744 -2.4317801 7.6535077 11.1185
-157.95604 -2.3730412 7.6611662 11.13
-157.93355 -1.8345929 7.661222 11.134001
-157.68022 -19.906782 8.3870287 12.15
-157.80103 -17.714466 8.2259407 10.830125
-157.89828 -17.492041 8.2361364 11.1545
-157.73927 -17.172548 8.0020552 10
-157.96394 -14.863952 8.3115673 12.136
-157.99118 -14.501478 8.1719379 11.1155
-157.74629 -13.981791 8.3718452 11.102
-157.68834 -7.5323491 8.1163197 11.1595
-157.87981 -6.8262959 8.1612663 11.159
-157.62929 -5.6664281 8.1537123 11.158
-157.71355 -5.5036664 8.3014908 11.1115
-157.92186 -2.3258114 8.1690845 11.11
-157.81636 -18.533604 8.4764585 10.391
-157.83363 -18.181389 8.5553331 10.392667
-157.92769 -6.612421 8.6281099 12.133
-157.91042 -5.4152727 8.6537018 12.12425
-157.81976 -4.6421013 8.7422724 12.12
-157.80254 -29.936407 8.8803272 11.0025
-157.96919 -18.673193 8.892664 12.121
-157.62836 -16.100176 9.1227198 12.167
-157.61681 -15.83222 8.8804426 12.1635
-157.6765 -2.9373822 8.9375763 12.116
-157.96295 -2.4897823 8.9878712 12.1435
-157.877 -1.5068456 9.1592827 11.106
-157.64294 -17.450674 9.4824123 12
-157.66855 -16.795481 9.5734873 13.121
-157.68861 -16.222383 9.2488861 12.117
-157.80446 -15.504284 9.2397985 12.117
-157.79417 -10.488452 9.5850601 12.165
-157.98288 -2.9232407 9.3789072 12.111
-157.63458 -0.1330571 9.4202623 12.1105
-157.98097 -17.271736 9.6920109 11.1775
-157.64859 -16.834631 9.6268845 13.12
-157.78226 -10.470413 9.7006969 13.119
-157.66989 -10.357529 9.8441381 13.117
-157.9467 -3.1944561 9.8031292 12.1105
-157.82695 -1.3069975 9.6026773 12.155
-157.86774 -24.870199 10.27846 14.136
-157.64191 -22.340317 10.392353 14.1255
-157.64984 -20.93144 10.175013 14.1315
-157.7663 -18.180174 10.234978 11.5885
-157.77667 -16.946318 10.264729 13.14325
-157.7238 -16.619761 10.31004 14.1374
-157.97768 -29.69725 10.673634 12.006
-157.97392 -25.292622 10.758063 9.1750002
-157.75897 -24.529547 10.588336 14.1595
-157.82564 -17.48313 10.402592 14.152
-157.77814 -16.934217 10.428764 14.123751
-157.68665 -27.307331 11.023787 12.0045
-157.84023 -13.029727 11.13555 14.161
-157.77963 -27.592051 11.50722 14.175
-157.6946 -27.104235 11.404082 15.1495
-157.94814 -25.647705 11.47575 11.177
-157.91478 -25.37859 11.464854 12.392166
-157.86836 -25.138353 11.395655 11.002251
-157.9304 -24.765036 11.500397 15.15325
-157.8024 -3.8927157 11.466129 14.1145
-157.86255 -25.51969 11.660243 14.176
-157.73604 -24.95841 11.665357 13.1695
-157.76395 -22.315922 11.957829 13.0005
-157.63022 -17.81027 11.766438 13.585751
-157.77296 -15.479494 11.848311 15.119
-157.8481 -12.684719 11.94498 15.1565
-157.60765 -10.397183 11.61421 14.1145
-157.74704 -7.2665133 11.910242 15.138
-157.62766 -5.4604526 11.790511 14.158
-157.98793 -3.2191868 11.768358 14.153
-157.97787 -27.616646 12.24893 14.0005
-157.6122 -27.565771 12.051446 12.0035
-157.71068 -26.301411 12.15099 10.005
-157.94455 -20.941799 12.366408 12.1755
-157.96097 -17.289492 12.214143 15.165
-157.60736 -15.392808 12.102807 14.1725
-157.78081 -8.5883369 12.39958 14.167
-157.63261 -4.0415292 12.226474 15.14
-157.77907 -3.756676 12.311878 15.131
-157.91743 -25.715712 12.413647 10.0055
-157.93742 -20.671003 12.668568 13
-157.8087 -19.623283 12.618601 14.174749
-157.77763 -19.414944 12.632998 13.179166
-157.76492 -15.403511 12.503026 15.1665
-157.70422 -14.214305 12.771139 14.1735
-157.80585 -12.632969 12.53517 14.667749
-157.65602 -12.133135 12.575725 15.1635
-157.66068 -7.8774257 12.519413 15.1565
-157.77333 -5.550302 12.429942 15
-157.60291 -5.1577535 12.74294 15.1135
-157.82777 -4.5498676 12.424763 15.145
-157.80945 -21.940596 13.15601 12.175
-157.86057 -20.381674 12.860392 13
-157.81186 -19.934872 13.017961 14.1785
-157.85466 -19.084288 12.999319 12.588751
-157.93347 -13.302837 13.083115 15.1675
-157.75047 -12.787004 13.046478 15.167
-157.82887 -12.182461 13.096651 15.1665
-157.74838 -8.6076603 12.812165 15.1605
-157.70279 -8.0131817 12.843335 15.16
-157.64545 -5.0622945 13.09428 15.1115
-157.90311 -4.6979084 13.189889 15.1575
-157.94368 -2.8331432 13.078199 14.1105
-157.62215 -19.996454 13.443968 14.179
-157.68657 -19.046843 13.455351 13.17875
-157.88206 -18.736898 13.444155 14.67675
-157.77556 -18.177942 13.434219 13.92725
-157.87119 -16.070288 13.460343 14.176
-157.71152 -8.6560516 13.268991 15.1635
-157.77168 -25.24637 13.706931 14.003
-157.81354 -24.22925 13.662652 13.0015
-157.91374 -23.766714 13.61075 13.002
-157.73332 -20.380054 13.835751 13.178
-157.71278 -8.0651016 13.694668 15.113
-157.89682 -4.9705143 13.684625 15.1115
-157.79921 -20.190773 14.151365 13.452916
-157.97118 -21.717014 14.759516 11.0035
-157.71536 -20.570684 14.502037 12.0025
-157.84908 -20.328707 14.544322 14.5895
-157.76715 -23.021044 14.846191 13.175
-157.89215 -21.256359 14.973557 15
-157.66345 -27.513718 15.473103 13.178
-157.70038 -27.89863 15.739096 11.007
-157.62544 -27.043962 16.180233 14.0005
-157.69099 -26.775801 16.445992 14.1775
-157.52664 -26.447752 2.2983611 5
-157.46931 -29.470427 2.571274 5
-157.59515 -28.23366 2.4933712 5
-157.59456 -27.837641 2.4625278 5
-157.5043 -15.829935 2.6516702 6
-157.52637 -15.333255 2.6245933 6
-157.57869 -28.721338 3.1750102 6
-157.59021 -25.969641 3.1564631 6
-157.56015 -28.416115 3.3768044 6
-157.5273 -28.181431 3.3562162 6
-157.34601 -26.971048 3.2806814 7
-157.58316 -26.266735 3.5359044 7
-157.29991 -17.400862 3.420429 8.0424995
-157.51227 -18.526386 5.1717262 8.0573339
-157.33296 -18.187498 5.1370468 8.0349998
-157.43602 -17.972448 5.1779747 8
-157.40529 -12.88222 5.0320597 8
-157.57729 -5.4153962 4.9484205 9.0845003
-157.23457 -19.61124 5.2926445 8.1774998
-157.42247 -18.649818 5.3266182 8.0885
-157.30745 -18.188654 5.3762693 8.1894999
-157.31056 -17.785046 5.3420582 8
-157.34177 -14.190812 5.4030437 9.0720005
-157.38423 -13.053126 5.5131245 9
-157.31535 -12.288835 5.4082999 9.0567999
-157.2697 -27.362297 5.9322309 9.1124992
-157.23131 -25.381783 5.8563018 8.5617504
-157.32037 -25.033636 5.8499708 8.4004164
-157.35597 -24.622709 5.8106484 8.3754168
-157.41238 -24.114096 5.7287159 9.1545
-157.22678 -22.149725 5.6321363 8.1774998
-157.21817 -19.945465 5.9082737 9.1204996
-157.53555 -19.273176 5.6491551 9
-157.42154 -19.030647 5.6465096 9
-157.35837 -18.644249 5.6980491 9.078167
-157.32413 -18.307753 5.626687 9.0609999
-157.22458 -17.9412 5.6129045 9
-157.23306 -17.559422 5.7719221 9.165
-157.37027 -14.594099 5.8759193 9.1654997
-157.31157 -12.905438 5.6788273 9
-157.22044 -25.214939 6.0095654 9.1254997
-157.2224 -25.065666 6.0847225 8
-157.42102 -24.618111 6.1455698 8
-157.49585 -24.208958 6.0455852 8
-157.46407 -19.222406 6.2665114 9.1745005
-157.59084 -18.060472 6.2199187 9
-157.43692 -17.901369 6.2828074 9
-157.50961 -16.991659 6.2629871 9.0671253
-157.41624 -16.502247 6.2075644 9
-157.42787 -16.335096 6.1791563 9.1700001
-157.22733 -15.804468 6.3742332 10.15
-157.26242 -13.999053 6.0884552 9.092
-157.26381 -3.3213568 6.28929 9.0900002
-157.28447 -3.0357924 6.2132969 9.0904999
-157.46245 -27.621618 6.5933051 9.0039997
-157.49391 -27.232853 6.4717717 8.0054998
-157.20901 -25.481802 6.7785902 9
-157.2711 -24.392717 6.6936026 8
-157.55183 -22.453236 6.6869965 9.0004997
-157.38651 -22.276039 6.7236996 9.0007496
-157.20393 -19.262177 6.5669613 10
-157.57791 -18.120543 6.6359477 10
-157.46382 -17.678719 6.6035819 9.163928
-157.431 -17.513645 6.650116 9.0890007
-157.32773 -16.665644 6.5502849 10.15775
-157.36555 -15.873504 6.6406879 9.6692505
-157.25153 -15.303521 6.4921961 10.154
-157.44873 -14.875422 6.6306443 9.0935001
-157.31898 -13.208302 6.5248203 10
-157.27077 -12.971073 6.7156534 10
-157.39566 -5.4108334 6.5393963 10
-157.29941 -5.0492373 6.53265 10
-157.3804 -2.1124408 6.5800066 10.1475
-157.49463 -29.991549 7.1324034 10.1735
-157.26181 -24.873945 6.8332176 10.123
-157.25624 -20.739632 7.1716957 9
-157.20038 -20.296402 7.0308676 8.1735001
-157.4296 -18.994623 6.8354759 10.1665
-157.46819 -18.233965 6.8176236 10
-157.4142 -17.809732 6.916708 9.4526434
-157.32233 -15.194633 6.9323926 10.166
-157.32167 -14.69501 6.9624796 10.1165
-157.38536 -5.2023859 6.9520922 10.1575
-157.22142 -1.8095694 7.0862894 9.0909996
-157.21335 -25.142548 7.4895487 10
-157.43991 -20.990318 7.4180179 9.1754999
-157.31348 -20.575386 7.4910212 10.66825
-157.25159 -19.838736 7.5213242 10.65
-157.28581 -18.668613 7.5983467 11
-157.54758 -18.171009 7.4103732 10
-157.53473 -17.702772 7.5228229 10.57825
-157.54285 -17.454803 7.2881045 10.171
-157.45345 -17.102459 7.34693 10.760667
-157.29738 -16.584948 7.4789619 10.665001
-157.33223 -16.059187 7.3430557 10.173
-157.33485 -15.852726 7.3364654 10.171666
-157.20369 -15.311858 7.3142767 11.14725
-157.26526 -13.505493 7.5405064 11.157
-157.38509 -13.0136 7.4430056 10.5
-157.35606 -4.6563063 7.412694 11.127
-157.46854 -2.3150737 7.4615264 10.64625
-157.33672 -27.95994 7.6139822 10.0025
-157.40564 -27.408236 7.716188 11.115
-157.20596 -25.349672 7.9875941 9
-157.26692 -24.836494 7.9150181 9
-157.31068 -20.475544 7.7848668 10.37825
-157.38811 -19.824497 7.8951278 10.7437
-157.38705 -19.410345 7.9741325 10.6485
-157.38412 -18.456459 7.83391 11.166
-157.38881 -18.170555 7.7999477 10.235499
-157.44464 -17.841177 7.7827406 10.5
-157.43799 -17.42621 7.8255239 10.508866
-157.58266 -16.089493 7.8762221 11.1185
-157.44075 -5.720078 7.7866201 11.07725
-157.50792 -1.9399058 7.7981095 11.1475
-157.23273 -25.267218 8.1004133 9
-157.30179 -25.160618 8.2804995 10
-157.43857 -19.748623 8.091115 10.674999
-157.28828 -19.555635 8.3664904 11.173
-157.56259 -18.523451 8.2402763 10.178
-157.48039 -18.123638 8.1862936 10.749167
-157.43318 -17.866669 8.2211838 10.715833
-157.31293 -17.364027 8.0645638 11.458167
-157.26006 -17.045553 8.1732616 12.138
-157.31833 -14.972857 8.0519981 11.115
-157.2951 -12.286012 8.3133841 11
-157.52536 -5.5743241 8.1355858 11
-157.21602 -25.351414 8.5418606 11.1785
-157.59514 -19.685507 8.506402 11.175
-157.34853 -19.064276 8.4634886 12.123
-157.5403 -18.373571 8.5338907 12
-157.24673 -12.143241 8.4315958 11.559999
-157.51915 -6.4794221 8.4783468 12.1285
-157.399 -5.997715 8.7918291 12.1505
-157.56795 -5.5505605 8.4136934 11.1115
-157.4637 -5.1711354 8.5329809 12.1275
-157.26096 -17.235523 9.0499105 12
-157.30914 -17.0371 9.0120564 11.388167
-157.40872 -16.594707 9.1110477 11.820499
-157.3649 -15.726567 9.0210629 11.422874
-157.47607 -14.986177 9.1884928 13.136
-157.25269 -4.7963629 8.8205976 12
-157.4314 -17.721334 9.4683981 12.5
-157.40802 -17.342676 9.2711992 11
-157.44125 -16.64995 9.3143616 13.151
-157.46214 -16.222576 9.2635841 12.882
-157.35605 -15.278417 9.5562239 12.171
-157.37621 -8.163888 9.5407782 13.143
-157.32196 -29.297253 9.7007713 13.156
-157.51112 -25.366547 9.7702723 10
-157.39906 -25.180044 9.9132414 11
-157.27354 -21.39736 9.8837023 11.5855
-157.52921 -12.252433 9.694994 13.156
-157.23477 -10.32441 9.9726439 13.1145
-157.36736 -1.8046426 9.8293171 12.1095
-157.2263 -27.504364 10.275361 13.175
-157.34946 -25.162323 10.068553 10
-157.48544 -21.053379 10.16927 14.129
-157.20325 -18.464117 10.031669 11
-157.29605 -18.073147 10.237953 13.758667
-157.28267 -17.788496 10.205504 12.166667
-157.31708 -17.55711 10.391118 11.1735
-157.41635 -18.138708 10.576655 14
-157.38921 -17.824503 10.581784 13.4
-157.3033 -17.468891 10.532245 12.715749
-157.29005 -9.422183 10.686902 13.164
-157.30319 -1.6077622 10.495133 13.1515
-157.48651 -28.609163 11.059606 12.0055
-157.31918 -25.857475 11.04822 11.666667
-157.20222 -25.308472 11.132634 15.1475
-157.36884 -8.3217306 10.932693 14.1525
-157.59734 -5.4871221 11.127801 13.163
-157.25076 -5.0208368 10.914939 13.1605
-157.46339 -4.1476655 10.983021 14.1355
-157.42897 -27.109232 11.343945 12.0045
-157.24789 -26.477497 11.284668 12.004
-157.26215 -26.3272 11.576945 15.1615
-157.27956 -25.769539 11.3547 12.6372
-157.28925 -25.408575 11.439791 13.051999
-157.2142 -18.130772 11.462995 15
-157.2998 -16.993876 11.495712 15.156
-157.20747 -12.880656 11.271895 14.164
-157.25601 -12.550319 11.340401 15.138
-157.32178 -5.6144228 11.410721 14.1545
-157.45325 -2.102164 11.467352 14.1155
-157.31041 -25.944939 11.747052 13.1725
-157.25041 -25.302364 11.985738 11.003
-157.21338 -15.863767 11.999578 15.1635
-157.28638 -13.901659 11.733279 15.1575
-157.3018 -12.277488 11.872943 15.136499
-157.35037 -11.685387 11.937686 15.11725
-157.28978 -10.854888 11.731128 15.15
-157.55756 -7.3466988 11.906665 15.13225
-157.26552 -4.327424 11.682673 14.1115
-157.31638 -26.192436 12.024909 15.17
-157.30089 -25.94607 12.208977 13
-157.34142 -25.323692 12.339946 11
-157.2654 -19.917261 12.022172 14.672
-157.59442 -19.40012 12.045413 13.1785
-157.59393 -17.687267 12.084683 14.1745
-157.48737 -16.379526 12.318831 14.1745
-157.58293 -15.717696 12.339126 13.176
-157.33502 -12.558591 12.114347 14.66525
-157.31245 -12.134526 12.212772 14.643499
-157.47537 -11.981503 12.203201 15.16
-157.28368 -4.8941374 12.049025 15.136
-157.35507 -4.7739186 12.16944 14.789001
-157.38098 -4.1200476 12.153677 15.1355
-157.51787 -3.8355167 12.356408 15.1195
-157.53874 -2.2253041 12.000799 14.1105
-157.36777 -1.4681367 12.065475 14.11
-157.51953 -26.447052 12.449546 15.174
-157.33368 -25.765003 12.685355 13.336499
-157.5025 -25.344868 12.557586 11
-157.56224 -22.058977 12.767937 14
-157.57845 -19.128542 12.5118 10.0035
-157.45663 -18.753271 12.732867 13.179
-157.43625 -16.106731 12.583935 13.1765
-157.29272 -15.357984 12.581046 13.675501
-157.50066 -12.393731 12.764853 14.172
-157.46045 -11.067981 12.571233 15.1625
-157.36304 -9.3595591 12.647651 15.161
-157.56635 -7.6139359 12.712155 15.113
-157.42593 -5.4896297 12.553842 14.632999
-157.46275 -4.9054418 12.513232 15.115
-157.25945 -25.428499 13.077176 13.5015
-157.20454 -21.611528 13.123612 14
-157.45055 -19.738386 13.135607 14.1785
-157.30876 -19.475412 12.925689 15.174
-157.53114 -18.963984 13.014859 13.08725
-157.25438 -18.610136 12.946475 14.1775
-157.26393 -15.121173 12.821387 15.169
-157.39325 -11.750518 13.140608 15.1415
-157.40112 -11.114854 13.100264 15.139999
-157.23077 -9.441453 13.070415 15.164
-157.2908 -8.2164125 13.05767 15.113
-157.41997 -4.8890562 12.920994 15.112
-157.50142 -2.3175828 12.976798 14.61175
-157.27718 -24.991182 13.572021 13.002
-157.20187 -21.49638 13.542865 11.003
-157.2459 -19.755894 13.340277 13.1795
-157.41824 -19.319979 13.399704 14.843834
-157.43454 -19.159164 13.424579 11.002
-157.57669 -12.82644 13.2103 15.169
-157.39682 -12.214502 13.276638 14.67075
-157.40526 -11.874073 13.39127 15.1695
-157.34006 -11.286543 13.400741 15.169
-157.57295 -11.056947 13.294595 15.1675
-157.37733 -9.3660812 13.432748 15.16675
-157.30309 -9.1446466 13.511229 15.113
-157.56989 -8.6170797 13.449895 15.1655
-157.40376 -8.1509142 13.238748 15.138
-157.34845 -27.84514 13.761766 14.005
-157.20908 -25.037174 13.716517 15.002
-157.20323 -22.079273 13.915797 11.003
-157.5665 -20.118158 13.785288 12.0005
-157.24104 -12.083991 13.610757 15.171
-157.45203 -10.79014 13.736127 15.17
-157.5088 -21.75149 14.108564 13.176
-157.41928 -21.468925 14.106525 13.001332
-157.40021 -21.038692 14.207984 13.394166
-157.59065 -20.506981 14.215714 13.587
-157.4286 -20.008465 14.033285 13.175
-157.35258 -22.407145 14.509892 13.1745
-157.21141 -22.197544 14.502931 15.0005
-157.2164 -21.533714 14.490186 14.5005
-157.23592 -21.148609 14.619774 13.174
-157.34233 -20.725792 14.468187 13.587
-157.21536 -26.570875 14.969679 11.0055
-157.38455 -26.006384 15.083183 11.0055
-157.31958 -27.329304 15.512229 13.591249
-157.26443 -26.250051 15.492091 13.1785
-157.3508 -27.650892 15.869388 13.0005
-157.52795 -27.481771 15.741574 11.00675
-157.34407 -27.02145 15.84144 14.003751
-157.34575 -26.533195 15.806814 14.335999
-157.46129 -26.953657 16.114725 14.062167
-157.17177 -20.032841 2.0379615 8.0629997
-157.12979 -20.232937 3.1025155 8.0404997
-156.86101 -16.004004 3.0717516 8.0434999
-156.83072 -25.817829 4.991776 8.0965004
-156.99997 -19.412397 5.1872697 8.177
-157.05664 -12.616247 5.0067925 8.0560837
-157.03131 -2.5844529 5.190485 9.118
-156.9684 -26.014805 5.4392962 9.1079998
-157.10211 -22.270466 5.4911804 8.1767502
-156.84065 -21.203972 5.3520036 8
-156.90578 -21.027336 5.3479095 8
-157.11171 -19.662086 5.3877258 8.1759996
-157.04599 -19.35355 5.4393806 8.53125
-156.97777 -19.191525 5.4552708 8.7601662
-157.1279 -18.626513 5.5386066 8.1780005
-157.14413 -18.08819 5.3042712 8.1186676
-157.10779 -17.836885 5.4939165 8.366333
-156.98077 -15.199167 5.5255961 9.1584997
-157.19911 -14.6806 5.4596863 8.1750002
-156.8365 -14.292269 5.4923177 9
-156.867 -13.93077 5.4874597 9
-156.94827 -12.957405 5.4128547 9.07125
-157.08577 -12.616553 5.4817629 9.1560001
-157.00493 -11.658067 5.4573121 9
-157.18217 -2.9260626 5.2758961 9.1155005
-157.19101 -27.68261 5.9674559 8.0045004
-157.13783 -27.20212 5.8097768 9.1234999
-156.99016 -26.214731 5.8967099 8.4531994
-156.88428 -25.773348 5.8588996 8.1897497
-157.08456 -25.438015 5.8410039 8.0005999
-157.1537 -25.031775 5.7788053 8.4542999
