# .PCD v0.7 - Point Cloud Data file format
VERSION 0.7
FIELDS x y z intensity
SIZE 4 4 4 4
TYPE F F F F
COUNT 1 1 1 1
WIDTH 1219
HEIGHT 1
VIEWPOINT 0 0 0 1 0 0 0
POINTS 1219
DATA ascii
-106.89715 -92.450012 11.440156 13.599874
-106.80622 -92.226456 11.460436 12.0975
-106.88236 -91.759491 11.400555 13.324375
-107.15683 -91.556915 11.430575 12.097
-106.8101 -91.134644 11.26194 13
-107.11416 -90.645126 11.336326 13.5
-107.06457 -90.327362 11.356707 12.5
-107.15938 -109.71589 11.84511 13.1645
-106.89944 -109.27083 11.678751 12.1155
-106.85599 -92.819107 11.963682 14.1
-106.94003 -92.174995 11.74387 12.0975
-106.93211 -91.421555 11.801184 15.05075
-106.85876 -91.055916 11.976702 12.095
-107.1003 -90.513321 11.883632 14.333333
-107.09184 -90.288666 11.835386 14.5
-107.15517 -111.98164 12.395718 13.164
-106.97041 -109.18529 12.065729 13.059
-106.89448 -92.570435 12.228746 14.051001
-107.04469 -92.277199 12.156866 15.1015
-106.84763 -91.879166 12.056088 15
-106.84949 -90.982712 12.380335 9.1429996
-106.9593 -90.67308 12.220038 11.094334
-107.18092 -112.95222 12.994322 14.1325
-106.81183 -109.1871 13.159323 14.1185
-106.8959 -108.65849 13.020469 14
-106.94626 -107.50894 13.151624 14.117
-107.11638 -107.07332 13.059175 15.1615
-107.09156 -93.61235 13.056217 11.014
-106.98732 -93.388016 13.093451 12.097
-107.04118 -109.41022 13.405746 14.118
-106.99625 -108.04831 13.592186 15.165
-106.91181 -107.65402 13.398564 14.1165
-107.02898 -107.04143 13.452108 14.616751
-106.97093 -94.714325 13.410613 13.05675
-106.85548 -93.014069 13.578672 13
-106.84872 -92.307732 13.567371 12
-107.16048 -111.51704 13.665256 15.1325
-106.9838 -92.858978 13.66683 14.0005
-106.8294 -109.16514 14.35467 15.1185
-107.00955 -107.56232 14.371294 15.117
-107.00291 -94.41803 14.309933 12.0075
-106.80542 -93.99794 14.025025 11.01
-106.94494 -92.653114 14.340495 15.001
-107.12756 -107.97673 14.753705 15.1165
-107.01922 -95.360786 14.706144 12.50675
-106.86592 -94.051971 14.584586 13.59025
-106.87279 -93.974121 14.720424 15.0005
-106.8429 -92.464249 14.55559 15.001
-107.13136 -95.071419 15.032157 13.064834
-107.12773 -94.640335 15.124199 13.09675
-107.17372 -94.209839 14.9758 13.50725
-106.91167 -93.690239 14.90766 14.1795
-106.83741 -94.659264 15.323137 13.002
-107.02605 -93.988892 15.344025 15
-107.09801 -92.238152 17.837774 11.1415
-107.13271 -93.72036 18.010778 11.142
-107.05412 -92.504776 18.128298 11.145
-106.41774 -97.345245 3.0040069 3
-106.46606 -97.158989 3.0052998 3
-106.47657 -93.703117 2.9509513 2
-106.50043 -93.417618 3.0336242 2
-106.68552 -101.49183 3.2444084 4
-106.77457 -99.782906 3.3108585 4
-106.40549 -95.477356 3.7569818 5
-106.61409 -108.00182 4.4281392 6
-106.68836 -93.769768 4.4133029 6
-106.59467 -93.703094 4.837893 7
-106.41885 -93.447159 5.9211121 8
-106.4994 -93.433228 6.0756612 8.0012503
-106.47109 -93.621269 6.5157142 10.0795
-106.54874 -93.565819 6.7512565 11
-106.69948 -116.15962 7.0405903 8.1582508
-106.48801 -93.563171 7.0162225 11
-106.60648 -93.606407 7.3863568 12.1695
-106.55489 -93.532867 7.3901148 12.2322
-106.48254 -106.16193 7.9451332 8.0139999
-106.53993 -93.490402 7.8025537 12.361833
-106.60321 -91.731827 7.9792895 12.004
-106.60787 -116.2462 8.3413391 9.1722507
-106.50217 -113.31258 8.1395988 9.1754999
-106.70875 -110.41183 8.221818 8.0135002
-106.79173 -106.53716 8.2484236 10.169
-106.52169 -93.428879 8.2147703 13.056125
-106.46651 -92.099724 8.3169022 12.63225
-106.59592 -91.766548 8.2627077 11.30625
-106.65806 -91.336555 8.2854939 10.088625
-106.69637 -91.010864 8.2470312 10.64355
-106.65982 -90.663902 8.279377 10.057
-106.77625 -90.167595 8.3759279 11
-106.71682 -110.13828 8.6320257 10.165
-106.77843 -107.34117 8.7194338 11.133
-106.64532 -106.95692 8.6514854 11
-106.58133 -106.41389 8.6067524 10.5885
-106.60665 -106.26653 8.6528397 9.843667
-106.71378 -93.693932 8.6173964 12.036834
-106.53908 -93.482529 8.4243422 14.0565
-106.53889 -93.02211 8.6530294 10.418333
-106.57636 -92.73259 8.6862764 14.177
-106.65972 -92.137344 8.5663185 10.04875
-106.53286 -91.731903 8.5607843 11.560399
-106.59722 -91.296761 8.5928555 12.374
-106.62341 -91.027077 8.5895529 11.973835
-106.77859 -90.520874 8.6429615 11.0965
-106.71718 -90.146088 8.5526953 11.676389
-106.56367 -109.34877 9.111167 10.651501
-106.79177 -106.69946 9.0651426 8.0240002
-106.47987 -106.17119 8.9592972 10.1775
-106.56055 -93.774559 8.9466743 14.176
-106.7217 -93.360878 9.007864 12.830626
-106.52714 -92.948242 8.9252529 12.057889
-106.6384 -92.693726 8.9223404 12.086
-106.48209 -92.173225 8.8325157 13.1055
-106.55388 -91.840569 8.9347229 13.0705
-106.57809 -91.303688 8.9309149 12.100334
-106.62799 -90.962517 8.9546127 12.585251
-106.66626 -90.204239 8.9835539 11.883499
-106.735 -108.28496 9.2103462 11.1575
-106.52833 -106.92679 9.377533 11.1175
-106.58207 -106.63715 9.478838 11.5585
-106.68197 -106.15685 9.4039936 11.7239
-106.6009 -93.829056 9.5534716 13.774166
-106.69064 -93.464302 9.561162 13.605249
-106.44489 -92.874374 9.3073378 13.1045
-106.59371 -92.173775 9.4771347 12.773358
-106.69896 -91.825241 9.5641851 13
-106.72927 -91.535431 9.3309469 12.0995
-106.68901 -90.40416 9.5082541 12
-106.45728 -109.43533 9.9774857 12.1285
-106.6741 -108.41823 9.8434753 11.1175
-106.66872 -108.38949 9.9736528 11.117
-106.65542 -107.23706 9.7948236 11.116
-106.75583 -106.86391 9.6157627 11.175
-106.79624 -106.07173 9.6124249 12.146
-106.67915 -93.324554 9.8600807 13.077625
-106.73697 -93.02037 9.8926134 12.434834
-106.60911 -92.591331 9.8704138 14.10525
-106.53787 -92.163292 9.8209877 12.5004
-106.61337 -91.856537 9.8148098 12.525812
-106.70816 -90.15242 9.8390522 12.506001
-106.48917 -109.26815 10.130091 12.139
-106.76099 -106.80949 10.349575 13.133
-106.66565 -106.61028 10.309586 12.559375
-106.6519 -93.27916 10.151218 13.60425
-106.60114 -92.977089 10.200171 13.187714
-106.43441 -92.592514 10.049808 13.102
-106.55947 -92.23291 10.039766 13.603
-106.67765 -91.852257 10.056433 14.60475
-106.51994 -91.518677 10.325375 12.5485
-106.66239 -91.031921 10.310353 12.03275
-106.48141 -90.61293 10.075867 14.0045
-106.67036 -90.265251 10.252311 13.666667
-106.46156 -110.01138 10.627074 11.1145
-106.61897 -107.39704 10.456123 11.134666
-106.5407 -107.13931 10.501839 12.1175
-106.71425 -106.62398 10.433451 13.139
-106.43703 -92.845222 10.621062 11.058
-106.61172 -91.625023 10.651253 12.097
-106.61169 -91.377373 10.581667 14.351999
-106.73722 -90.941238 10.591499 12.028749
-106.67662 -90.638687 10.547106 13.375
-106.59151 -107.20786 10.816706 12.175
-106.60181 -92.898155 11.031162 13
-106.72985 -92.015854 11.131653 13.049
-106.69822 -91.814705 10.965407 13.5
-106.54379 -91.430016 10.898146 13.2995
-106.66154 -91.022652 10.962545 13.734166
-106.67448 -90.632294 11.025027 13.012688
-106.63124 -90.34623 10.986019 13.50075
-106.53658 -109.65213 11.590403 12.1165
-106.79227 -93.044037 11.378019 13
-106.62288 -92.762932 11.444788 13.734
-106.7045 -92.087936 11.559715 14.1
-106.79756 -91.71611 11.332012 13.0975
-106.63789 -90.639145 11.400616 13.122334
-106.6796 -90.349075 11.370542 15
-106.74492 -109.61041 11.954426 13.119
-106.73983 -92.901001 11.73263 14
-106.6776 -92.593704 11.802687 14.033417
-106.72424 -91.521698 11.709772 13.598
-106.66213 -90.454575 11.699074 15.1
-106.47058 -109.74666 12.158232 13.11875
-106.7168 -92.077232 12.064053 15
-106.6436 -91.763603 12.09509 14.366834
-106.56522 -91.455482 12.121655 13.699
-106.49729 -90.965454 12.110763 9.1409998
-106.6619 -109.18818 12.729538 15.1305
-106.70565 -108.77605 12.768316 15.133
-106.61893 -108.09955 12.654991 15.124
-106.60988 -91.886551 12.482653 9.1432495
-106.54319 -91.32885 12.68967 9.1459999
-106.75671 -107.47468 12.844664 14.1175
-106.7886 -94.01075 12.816687 14.0995
-106.55853 -92.686981 13.022968 12.00675
-106.66006 -94.362053 13.535707 11.011
-106.5322 -93.455482 13.273989 12.338666
-106.51857 -92.973076 13.410598 13.335
-106.63853 -111.46694 13.932497 14.119
-106.53835 -107.03177 13.750088 15.11775
-106.6201 -94.078011 13.955546 11.01
-106.67953 -93.956612 13.852509 15.001
-106.77399 -93.008286 13.743359 13.5525
-106.62074 -92.62262 13.864026 14.275374
-106.74917 -94.173767 14.276133 13
-106.44477 -93.980049 14.356861 15.001
-106.65492 -92.98912 14.136612 12.009001
-106.61295 -92.672531 14.15748 13.334332
-106.4362 -92.364502 14.314181 15.0015
-106.47845 -111.48688 14.66935 12.0985
-106.51433 -94.261398 14.508783 13.004833
-106.4019 -93.522644 14.579185 14
-106.45929 -92.042976 14.633613 13.066
-106.44331 -91.825768 14.562268 12.0155
-106.79401 -90.136681 14.796015 10.1395
-106.43948 -111.81033 14.812741 12.095
-106.71344 -94.074043 14.896087 13.0015
-106.73087 -93.844063 14.881252 14.59
-106.45036 -93.472519 14.932576 12.015
-106.67693 -94.761513 15.597919 14.1795
-106.73457 -94.130676 15.409413 12.5085
-106.45569 -94.148514 15.914986 15
-106.18055 -93.651489 2.9336088 2
-106.21062 -93.071976 2.9465613 2
-106.32748 -91.515511 2.8920484 1
-106.11131 -91.095078 2.9688067 2
-106.33221 -90.095482 2.870517 3
-106.07741 -95.486717 3.5676901 6
-106.02493 -93.67952 3.3156238 3
-106.159 -95.444687 3.8006661 4.6666665
-106.16328 -93.72892 3.7913878 4.3333335
-106.26781 -108.01717 4.1559815 6
-106.13497 -95.518501 4.1857967 5.5
-106.07283 -93.584702 4.1171241 5
-106.211 -93.69371 4.5990357 6.75
-106.23372 -93.660324 5.4166737 8.14715
-106.09881 -93.474678 5.9159231 10
-106.14841 -93.635345 6.1998873 9.0126104
-106.15264 -93.528069 6.2679887 9.8012495
-106.22216 -93.642509 6.5479832 9.8435993
-106.14154 -93.487869 6.633316 10.749295
-106.21345 -116.24113 7.1983256 8.1754999
-106.27288 -93.615356 7.1651912 11
-106.13541 -93.479057 7.015552 11.253695
-106.1238 -116.12234 7.2809896 8.1754999
-106.09327 -95.323288 7.4123273 10.756
-106.18736 -95.017601 7.3884096 11.8325
-106.09137 -94.762764 7.5046611 12.131167
-106.13337 -93.468224 7.4500494 11.963687
-106.24844 -95.288589 7.7242737 12.1685
-106.04311 -94.938423 7.6917353 11.63875
-106.00274 -94.624619 7.6480927 12.112
-106.13357 -93.420937 7.7814651 12.721049
-106.3646 -116.22044 8.1066446 9.1335001
-106.0696 -114.2613 8.2726297 9.1759996
-106.34833 -110.38824 8.3006735 9.1765003
-106.00799 -94.120613 8.2763262 13.111
-106.15143 -93.438271 8.1951256 12.485278
-106.25944 -92.052856 8.3300028 10.581249
-106.29312 -91.891899 8.3049812 11.087334
-106.25558 -116.26576 8.4635391 9.1472502
-106.12591 -106.28866 8.647336 10.1775
-106.02531 -95.753387 8.7244787 11.0015
-106.23643 -95.466057 8.753808 14.164
-106.06351 -94.944992 8.6738663 12.407249
-106.12757 -94.645386 8.651413 11.487599
-106.09863 -94.21212 8.5959539 12.4075
-106.1538 -93.348785 8.5268402 12.46045
-106.36137 -93.030968 8.4228783 10.058666
-106.28664 -92.109138 8.6353502 12.103
-106.3208 -91.881371 8.6006641 11.400666
-106.36974 -91.36203 8.6059999 11.0975
-106.02927 -114.18214 9.0768538 10.1455
-106.38101 -110.30142 8.9581823 10.1745
-106.30576 -109.32388 9.0560312 11.1335
-106.27579 -108.4361 9.1506205 11.15
-106.23763 -108.19318 9.195262 11.12
-106.03411 -97.264954 9.0813017 12.11
-106.06322 -97.040352 8.8776751 14.1545
-106.11784 -96.665512 9.0067768 12.36425
-106.10651 -96.1558 9.1899805 15.155
-106.13706 -95.722679 9.0007658 12.794334
-106.11588 -95.294357 9.0042324 13.527201
-106.16862 -95.040764 8.9060335 12.36175
-106.19234 -94.687325 8.9733629 13.932699
-106.09225 -94.235565 8.9928226 11.853125
-106.16366 -93.820633 9.1026297 13.1075
-106.19373 -93.32061 8.9792814 12.65185
-106.23474 -93.059151 9.0052824 12.368667
-106.32121 -92.182167 8.8908091 12.60375
-106.32142 -91.884903 8.9507809 12.435166
-106.36027 -91.414276 8.8818407 12.101
-106.19561 -114.3984 9.2119274 10.1645
-106.20058 -110.23305 9.2109518 10.1155
-106.20647 -109.23956 9.2815905 11.121
-106.31144 -108.19883 9.493721 11.1185
-106.31481 -106.18349 9.3797274 12.133166
-106.10036 -97.449104 9.3157167 12.113501
-106.15092 -97.029663 9.4333658 14.1405
-106.0667 -96.40461 9.423871 14.11325
-106.06847 -95.804466 9.3563404 13.778333
-106.09066 -95.334694 9.4043036 14.1115
-106.08112 -95.024544 9.2818432 12.439167
-106.14799 -94.324516 9.4036589 14.61075
-106.32841 -93.792679 9.5896358 12.1015
-106.1273 -93.315948 9.4636497 14.054875
-106.34997 -92.30986 9.2839346 14.003
-106.12782 -111.30339 9.9367304 11.12
-106.21806 -110.94147 9.9639177 11.1195
-106.3923 -110.33154 9.7818193 11.1195
-106.23679 -109.39799 9.6947889 11.119
-106.36179 -109.18277 9.758049 11.1185
-106.16286 -108.64146 9.9838142 11.1175
-106.05059 -97.096748 9.8285427 14.113
-106.0841 -95.54007 9.886405 14.1105
-106.10879 -94.453773 9.7302275 13.106
-106.20134 -93.33593 9.7106533 14.27725
-106.20863 -93.175003 9.8601484 14.0015
-106.23521 -92.143173 9.8785028 11.347625
-106.15683 -91.772102 9.8087988 13.370667
-106.01982 -110.43715 10.173825 12.129
-106.29132 -110.33881 10.159553 11.1185
-106.36101 -106.67153 10.244644 11.1775
-106.03893 -95.739471 10.170985 13.1065
-106.34476 -93.264297 10.374664 15
-106.23721 -93.108345 10.120355 14.60675
-106.07404 -92.001617 10.115591 13.101
-106.29095 -91.866432 10.191195 14.3295
-106.25819 -109.42424 10.400487 12.1205
-106.32908 -107.45537 10.500962 13.1335
-106.06654 -97.736267 10.441567 15.1145
-106.00586 -96.969269 10.607028 14.1105
-106.09056 -94.951057 10.514315 15.11
-106.14356 -94.08033 10.555936 15.1085
-106.13956 -93.207603 10.544037 15.107
-106.03461 -91.18026 10.552532 10.015
-106.01096 -113.13559 11.032111 12.1225
-106.09313 -96.077843 10.824589 15.111
-106.12328 -92.07074 11.076985 11
-106.22897 -91.138794 10.970975 13.0975
-106.30254 -92.874123 11.423818 13
-106.38439 -92.766243 11.5491 12.098
-106.38213 -90.841011 11.292676 14
-106.3445 -90.705597 11.371518 14.04925
-106.38212 -110.91046 11.972743 12.1165
-106.24108 -92.982834 11.709907 14.576376
-106.34481 -90.655128 11.722375 14.5
-106.24691 -109.73265 12.05618 14.1335
-106.01666 -108.70039 12.344727 13.175
-106.35839 -91.813904 12.375354 9.1479998
-106.13824 -90.543152 12.39113 9.1459999
-106.29195 -94.363235 12.716388 9.1475
-106.11573 -92.621094 12.61362 11.0155
-106.18393 -109.25394 13.02918 14.144
-106.03065 -108.52438 13.05525 14.1185
-106.37401 -93.375977 13.026871 12.002
-106.27503 -92.84877 12.943613 11.0145
-106.24352 -92.67926 13.039825 12.056499
-106.20526 -110.59796 13.347765 15.1335
-106.22502 -108.21764 13.349064 14.639999
-106.04782 -107.74014 13.537877 15.166
-106.20392 -92.943344 13.429286 12.00625
-106.21249 -107.49701 13.945728 15.118
-106.04527 -92.844498 13.612397 15.002
-106.08548 -92.547676 13.7363 12.0065
-106.20533 -91.732208 13.996825 13.0015
-106.22701 -92.926498 14.201718 12.012751
-106.03996 -92.33989 14.045846 14.001
-106.10548 -91.785995 14.190535 15.002
-106.02585 -91.477112 14.376382 15.002
-106.37225 -94.628197 14.439112 12.0115
-106.19817 -92.899368 14.542724 14.00025
-106.0386 -92.599411 14.679994 15.0015
-106.19826 -91.75605 14.536114 13.031833
-106.29541 -91.483955 14.734221 15.0015
-106.18812 -93.740982 15.173921 13.0305
-106.34792 -93.411774 14.818507 12.015
-106.39408 -93.083588 14.811548 14
-106.25412 -92.612465 15.085305 14.50075
-106.20174 -91.822006 14.854675 13.55025
-106.01409 -91.455986 14.875815 14.001
-106.21948 -90.55397 14.946017 10.1215
-106.20711 -90.205688 14.984888 10.1435
-106.27698 -94.542923 15.440734 12.0145
-106.04267 -93.525604 15.375741 13.0035
-106.37181 -95.053909 15.606553 12.0135
-106.23616 -94.016052 15.918888 13.006
-106.13965 -93.683075 15.762082 13.502501
-106.20917 -93.241356 15.6918 15.0005
-106.20452 -95.517593 16.000288 13.004
-106.23926 -93.722435 16.174076 14.004
-106.08058 -93.513824 16.536236 15
-105.73161 -95.35482 3.1348562 3
-105.72563 -101.41547 3.2097263 4
-105.92425 -95.43187 3.3575809 4
-105.88385 -95.42466 3.7699888 5
-105.70798 -95.426483 4.1098437 5.75
-105.99397 -93.640816 4.1040258 5
-105.8511 -107.93062 4.5089288 6
-105.96893 -93.645775 6.2484546 9
-105.97472 -93.53405 6.3525472 10
-105.94147 -93.692474 6.4205418 9
-105.97813 -93.441063 6.7024045 12
-105.63189 -95.012535 7.1053081 9.0015001
-105.97826 -93.612366 7.0477819 10
-105.96507 -93.489738 7.0098128 11.333333
-105.82532 -95.376389 7.3743534 10.410916
-105.72362 -95.002007 7.3794312 11.450568
-105.77981 -94.622627 7.4497914 10.344214
-105.90214 -93.61496 7.4347515 10
-105.94195 -93.448296 7.3935499 12
-105.8991 -95.252945 7.6695547 12.07375
-105.77905 -94.945671 7.7975125 12.701116
-105.7087 -94.680176 7.7159762 11.705851
-105.74763 -94.236885 7.9406371 13.166
-105.95797 -93.446274 7.8118134 12.428572
-105.72977 -114.52252 8.2675734 9.1759996
-105.94118 -114.27174 8.2458544 9.1759996
-105.60372 -108.40882 8.3898668 10.1665
-105.8063 -94.418427 8.1673231 15.125
-105.74038 -94.208397 8.1322336 13.278643
-105.90923 -93.414093 8.1738596 12.6
-105.88644 -110.30151 8.5770845 10.162
-105.97624 -96.140991 8.7522116 11.0015
-105.95245 -95.670143 8.7811642 15.147
-105.96464 -95.389587 8.6356688 11.0305
-105.8632 -95.045219 8.664978 13.176
-105.93665 -93.464149 8.5466747 11.285714
-105.9202 -97.754898 9.0889187 13.113833
-105.88786 -97.384911 9.0089674 11.099667
-105.9001 -96.920807 8.9509048 15.137
-105.92332 -96.489227 9.1133766 14.6305
-105.98543 -95.87645 9.0108356 15.151
-105.95039 -95.419785 9.0008516 11.101
-105.8205 -94.495758 8.9486876 14.1735
-105.96329 -93.389435 8.9916182 12
-105.93398 -97.429924 9.3294287 13.124001
-105.83092 -97.012955 9.2074242 8.0225
-105.92693 -96.60862 9.4286785 13.360125
-105.94734 -96.215889 9.3158741 11.1005
-105.91927 -95.613098 9.3654146 8.0229998
-105.96746 -95.467361 9.3159857 13.610001
-105.86951 -93.411942 9.3824291 12.345667
-105.75066 -114.1833 9.8601065 11.1255
-105.88476 -112.2499 9.7329988 11.1225
-105.93507 -108.20096 9.7499361 11.622499
-105.92857 -97.422211 9.8402424 14.11375
-105.9134 -96.756805 9.8685179 13.609751
-105.94412 -95.400185 9.6688385 11.768833
-105.9365 -94.946342 9.8615065 12.102
-105.87729 -93.365479 9.704936 12.0197
-105.90448 -92.050575 9.7190847 15.0025
-105.79385 -110.12717 10.163001 12.134
-105.82265 -108.50832 10.042462 12.122
-105.8309 -97.87986 10.23986 11
-105.85065 -97.397278 10.07471 12.1045
-105.82417 -96.437241 10.242207 12.1025
-105.94536 -95.817902 10.268584 12.1015
-105.95642 -95.344254 10.212377 12.101
-105.93959 -95.12558 10.056647 12.1015
-105.95026 -93.96376 10.359988 11
-105.88024 -93.253822 10.309275 13
-105.89507 -97.890152 10.715453 13.1075
-105.87591 -97.351036 10.594383 11.794666
-105.84586 -110.30014 11.035697 12.64975
-105.8448 -97.729584 10.848074 13.05375
-105.77618 -94.034492 10.961615 14.003
-105.88948 -92.771706 10.831935 11
-105.73736 -92.361618 11.068904 11
-105.87957 -92.611511 11.831116 14.10025
-105.8431 -92.335014 11.918268 14.0995
-105.69536 -113.60267 12.358635 13.1495
-105.80149 -92.956154 12.271791 14.60075
-105.83624 -92.496002 12.205382 11.0105
-105.8945 -92.238785 12.282578 13.55075
-105.7898 -91.910332 12.394153 9.1494999
-105.82352 -93.433678 12.418872 15.1025
-105.90816 -92.254913 12.546494 12.258875
-105.73051 -109.2939 13.132524 14.169
-105.79389 -109.05946 12.844799 15.134
-105.99677 -108.61073 12.919234 14.119
-105.60788 -92.414276 12.844261 13.098
-105.95596 -91.673782 12.970549 12
-105.93515 -112.55022 13.351697 13.1185
-105.67594 -110.98783 13.300114 14.1205
-105.981 -108.40635 13.321124 15.158
-105.87402 -107.24757 13.419728 13.1775
-105.83148 -93.012573 13.365521 13.002251
-105.80409 -92.634193 13.485545 12.004499
-105.87186 -92.171577 13.526192 14.502
-105.69672 -108.18405 13.754452 15.1195
-105.65686 -107.63785 13.833685 15.11875
-105.62827 -95.511482 13.703039 15.102
-105.87814 -95.058487 13.914397 15.101
-105.96366 -92.537247 14.006056 15.002
-105.93067 -91.690338 14.185308 14.001
-105.94487 -92.073936 14.556636 13.0025
-105.8157 -90.534149 14.735892 10.141
-105.89268 -90.251953 14.724215 10.138
-105.98491 -93.660126 14.872306 13.002
-105.85743 -92.880859 15.137454 12.537251
-105.89149 -92.087372 15.096589 13.004
-105.74741 -91.813454 15.005713 13.041667
-105.97295 -90.479538 15.006494 10.143
-105.84497 -113.22139 15.529732 15.1205
-105.96394 -94.46669 15.59049 14.50025
-105.86445 -93.664413 15.394729 12.01375
-105.89542 -93.384872 15.259595 12.0145
-105.69317 -92.933685 15.421858 13.061
-105.799 -92.560966 15.431536 13.005
-105.98785 -92.324333 15.466193 15.001
-105.66931 -94.214378 15.854068 12.012
-105.87492 -92.829941 15.707525 13.0065
-105.91091 -93.769363 16.217098 14.00125
-105.87009 -93.55674 16.346064 14.006001
-105.79958 -93.091431 16.028742 15.0005
-105.66519 -93.674683 16.617201 13.0145
-105.6032 -93.574814 16.481251 13.0135
-105.80397 -95.331169 16.82938 13.013
-105.28146 -93.710838 2.8977363 2
-105.2177 -91.232811 2.934603 1
-105.4246 -109.94623 3.5757458 5
-105.26875 -95.618996 3.4305496 4
-105.34135 -95.332108 3.5828276 4
-105.32881 -95.389137 3.8732562 5
-105.38337 -107.90295 4.4586473 6
-105.34772 -115.97884 5.5734282 7
-105.43172 -116.06956 6.6020117 8.1759996
-105.318 -116.14612 6.8889079 8.1648331
-105.20931 -95.212303 7.0574212 11.166
-105.42905 -95.066223 7.1379223 11.17
-105.21209 -116.1741 7.2968946 8.1754999
-105.58069 -97.169266 7.2872167 9.1040001
-105.41232 -95.408127 7.5239868 9.0004997
-105.42014 -94.947533 7.4112716 11.510175
-105.40031 -94.704681 7.428185 12.454111
-105.37971 -94.338364 7.5343857 11.058334
-105.33641 -94.931274 7.7686782 12.515249
-105.47749 -94.642296 7.7909684 13.1335
-105.43783 -94.135094 7.7937465 12.322821
-105.4366 -93.962387 7.9791007 15.13675
-105.39573 -116.15375 8.20123 9.1587505
-105.25438 -111.35649 8.140521 9.177
-105.4276 -94.972061 8.2017727 13.6285
-105.44051 -94.511169 8.127862 15.12925
-105.3838 -94.226936 8.1181145 14.281928
-105.39811 -93.967308 8.1474085 12.109
-105.20039 -116.29235 8.4609833 9.1754999
-105.3571 -110.51542 8.4914188 10.1505
-105.44871 -110.29997 8.5967283 10.149667
-105.32301 -92.921715 8.5363369 10
-105.40845 -92.516113 8.7198877 10
-105.29128 -110.87298 9.3086014 11.1345
-105.29404 -95.83654 9.3428993 15.161
-105.53452 -93.76622 9.3754129 14.108999
-105.35178 -93.518654 9.4092007 11.036334
-105.28699 -92.902336 9.5224438 15.1095
-105.57548 -92.754181 9.5460157 14.107
-105.23971 -95.659416 9.8736267 15.1135
-105.25952 -93.02697 9.8360033 15.109
-105.37345 -92.695175 9.6978645 13.354124
-105.55612 -108.82764 10.324554 12.1585
-105.3535 -108.29298 10.343632 12.163
-105.48689 -93.024048 10.252077 15.10775
-105.22457 -92.604706 10.062752 13.102
-105.21687 -108.84696 10.543882 12
-105.36052 -108.65986 10.565826 12.05975
-105.55156 -96.463943 10.778206 12.001
-105.28616 -93.024086 10.500367 12.0025
-105.44114 -92.757866 10.784857 11
-105.57607 -113.96479 10.898468 12.1295
-105.56818 -112.22593 10.820755 11.1175
-105.29264 -110.27114 11.182699 13.1345
-105.38162 -92.680679 11.06708 11
-105.20568 -108.10611 11.525944 13.05975
-105.21677 -93.678444 11.299638 12.58325
-105.21198 -111.78038 11.719479 13.14
-105.31377 -108.26632 11.766571 13.119
-105.40145 -92.576706 11.9273 13.599
-105.36216 -91.912956 11.910358 12.04875
-105.33814 -91.449417 11.783709 12.0955
-105.45376 -113.52193 12.258663 13.14275
-105.42555 -92.732048 12.183922 11
-105.39067 -92.215263 12.154458 11.790444
-105.4651 -91.689919 12.251264 12.690167
-105.36313 -108.88103 12.791201 14.12
-105.53518 -94.654655 12.683035 9.1482506
-105.38201 -91.827278 12.504412 13.0248
-105.23704 -109.20268 12.885988 15.1345
-105.51609 -108.868 12.945363 14.1195
-105.34416 -108.62219 12.878277 13.67325
-105.20087 -107.6805 13.002013 14.1185
-105.34473 -93.636261 13.119438 11.0135
-105.37405 -92.645309 13.004753 13.001
-105.4464 -91.746826 13.382826 15.003
-105.35685 -112.61114 13.839025 14.121
-105.29955 -111.6426 13.705122 14.1205
-105.32561 -108.2929 13.914745 15.1195
-105.48499 -93.751389 13.761315 12.0635
-105.52396 -91.729904 13.753815 12.50425
-105.29189 -91.484215 13.794655 15.003
-105.51717 -92.870888 14.127645 12
-105.48019 -92.565933 14.07712 12
-105.36877 -92.272385 14.061726 13.00075
-105.40079 -91.788223 14.182028 13.2555
-105.268 -111.57964 14.660976 15.121
-105.40788 -92.31575 14.752049 13.058667
-105.38265 -91.977249 14.651092 14.001
-105.57948 -91.152008 14.766262 10.14
-105.27298 -93.825333 15.021068 14.099
-105.43683 -93.258041 14.9693 10.142
-105.45397 -92.830215 15.161544 13.06
-105.48012 -92.181129 14.821669 13.577999
-105.45692 -91.697403 15.010637 12.312249
-105.37917 -91.396362 14.931262 11.079
-105.41072 -93.46846 15.215769 10.1455
-105.23148 -93.098396 15.529504 12.013
-105.29987 -92.512703 15.528625 14.098
-105.40172 -92.24015 15.280493 14.598
-105.44346 -95.331848 15.771019 12.013
-105.33702 -93.079063 15.75432 15.0985
-105.53162 -92.731033 15.947777 14.0015
-105.3166 -92.274559 15.602217 15.098
-105.2745 -95.836693 16.042374 12.0125
-105.31126 -93.124954 16.22167 14.000833
-105.436 -94.915665 16.665094 13.01
-105.28127 -93.398552 16.596172 15.0005
-105.02503 -100.91871 3.1948144 4
-105.14449 -94.015137 2.9868834 3
-104.9523 -93.709618 3.1452191 4
-105.00968 -95.395218 3.5725942 4.3333335
-104.93365 -95.390755 3.8682942 5
-105.05349 -95.329124 4.0121312 5
-104.86413 -95.505943 4.4545789 6
-105.00924 -115.8933 5.6858811 7
-104.8068 -116.10366 6.747263 8.1230001
-105.12376 -116.08691 6.8059258 8.1219997
-105.01495 -95.393745 7.0587316 12.124
-104.99537 -94.940834 7.0975413 10.68705
-105.13195 -94.716095 7.110333 9.5027504
-105.08965 -95.428764 7.3341794 12.637501
-104.99619 -95.026245 7.36449 11.62004
-105.0305 -94.752014 7.416203 11.91115
-104.82048 -108.60191 7.7636542 9.1780005
-104.80863 -108.19255 7.8558307 9.1780005
-104.98008 -94.988876 7.7568855 13.7065
-104.92914 -94.562721 7.7908258 12.848812
-105.02708 -94.213211 7.8374677 12.319444
-104.82065 -116.16584 8.3895283 9.1759996
-104.86522 -110.11066 8.025198 9.1774998
-105.03329 -109.74947 8.3819561 10.151
-104.89307 -109.42346 8.288743 9.6625004
-104.97375 -94.902267 8.1650753 12.350061
-105.13649 -94.61248 8.1524668 15.13
-104.89261 -94.306099 8.1720552 14.099
-104.9722 -110.32102 8.7205296 10.12
-105.00475 -108.58381 8.4119015 10.167
-105.04731 -92.997169 8.4915237 10
-105.1133 -92.604103 8.7067719 10
-104.8533 -110.68966 8.8065443 10.1695
-104.90263 -107.61072 9.0404024 11.1555
-105.0433 -93.492798 9.1468239 15.172
-105.10374 -107.87936 9.3503036 11.167
-105.14516 -93.790764 9.5699005 12.1015
-105.0339 -93.459496 9.4213476 14.610001
-105.1283 -93.038086 9.3040714 15.1105
-105.05344 -92.742912 9.4465485 14.1075
-104.86938 -109.86994 9.9264889 10.1015
-105.03842 -92.993248 9.7691936 13.772166
-105.00797 -92.693466 9.7491398 13.102875
-105.09195 -114.07156 10.256035 11.122
-104.80528 -108.45129 10.122007 12.1515
-104.84043 -108.21917 10.12638 10.1775
-104.8354 -93.222626 10.300033 10
-105.01601 -93.013611 10.169752 12.02775
-105.17158 -92.590828 10.062568 14.105
-105.04655 -112.27122 10.532559 12.13
-104.83426 -108.89994 10.461756 12
-104.81219 -108.0113 10.56079 10.177
-104.82 -107.9392 10.761847 13.141
-104.88042 -92.670547 10.69513 11
-105.09945 -113.61224 10.887177 12.1345
-104.96275 -113.39195 11.096064 12.14325
-104.83838 -110.18576 10.934494 11.1775
-104.96982 -108.04116 10.995514 13.1475
-104.90831 -107.91586 11.083497 12.117
-104.9135 -92.840874 10.893188 11.0015
-104.9229 -92.709145 11.08817 12.002
-105.07616 -113.17452 11.378408 12.1215
-104.8047 -111.0851 11.546314 13.1405
-104.95782 -108.5238 11.420928 13.0795
-104.97101 -108.22482 11.429626 12.705167
-104.97194 -111.74465 11.661347 12.1735
-105.06521 -108.46024 11.662057 13
-104.88754 -93.674332 11.939349 15.104
-105.184 -92.372513 11.884857 11.007
-105.07436 -91.818855 11.91592 12.6199
-104.95155 -91.514793 11.806604 13.002334
-104.89469 -108.87092 12.039525 14.144
-105.19725 -93.605171 12.306632 15.103
-104.9548 -92.203766 12.184025 11.920644
-104.96304 -91.897476 12.115319 12.851167
-104.93638 -91.539711 12.246116 13.777
-105.19254 -111.54559 12.558636 14.1345
-105.15999 -109.33027 12.52059 13.1755
-104.95049 -108.19901 12.620242 14
-104.90926 -93.883629 12.454989 9.1494999
-105.13755 -92.628227 12.656734 11.07425
-104.85911 -92.140991 12.605574 10.081249
-104.92869 -91.713531 12.535069 15.004
-105.07821 -91.480598 12.55317 13.002
-105.08729 -112.56124 13.024349 14.14
-104.87331 -108.40827 12.892792 15.144
-104.9434 -93.138466 13.006129 11.01475
-104.97852 -92.584198 12.923721 11.0155
-104.91732 -92.170189 12.893801 12.751125
-104.95776 -91.839226 12.888054 12
-105.17831 -91.434982 12.833261 12.06025
-104.81461 -108.00275 13.478761 15
-104.95499 -107.85326 13.573387 15.059999
-105.09737 -93.687004 13.271682 11.013
-105.14169 -92.936584 13.516016 14.002
-104.91945 -92.130714 13.345946 14.0025
-104.9325 -91.787613 13.343466 12.517166
-104.97299 -91.444313 13.460757 13.456929
-104.92096 -112.51258 13.67221 14.1215
-104.80477 -108.41484 13.899161 15.12
-105.1889 -107.83316 13.929222 15.119
-104.80028 -94.351349 13.6402 13.0005
-105.07467 -92.715485 13.723783 15.099
-105.15761 -91.660286 13.94256 12
-105.09208 -91.366783 13.909971 14.002
-105.00313 -92.445549 14.089071 12
-104.80197 -92.06955 14.041411 14
-104.93965 -91.8041 14.162536 13.00075
-105.1252 -92.149071 14.676668 12.016
-104.98478 -91.683517 14.568575 12.016
-105.13379 -91.89019 15.02202 10.145
-104.87357 -93.719818 15.356864 13.06125
-104.98943 -92.491646 15.243223 10.1445
-105.1124 -91.673958 15.216677 10.1495
-104.8692 -92.748489 15.757784 14.5015
-105.18002 -93.391472 16.366163 13.0105
-105.14682 -92.920135 16.087841 14.0005
-105.06034 -110.35819 19.69875 11.1415
-104.96797 -110.39666 20.135347 11.1495
-104.72231 -93.148857 2.7342598 6
-104.50652 -93.834373 3.1940541 4
-104.68032 -95.3479 3.4397721 4
-104.44161 -93.911102 3.3057873 4
-104.61688 -107.90047 3.6092949 5
-104.65422 -95.315102 3.93578 5
-104.46747 -107.91004 4.313961 6
-104.60914 -95.5028 4.4490499 6
-104.60728 -95.166267 6.728641 10.662
-104.62726 -116.15282 6.8680763 8.1592503
-104.48219 -95.640717 7.0515823 12.1315
-104.54443 -95.287369 7.0759006 11.266035
-104.66193 -95.107689 7.028358 11.426667
-104.60215 -95.267853 7.2888536 11.087563
-104.57994 -95.119781 7.4119973 11.7125
-104.61494 -94.603645 7.5094786 11.311438
-104.52415 -94.272331 7.4884863 10.924313
-104.75652 -108.55448 7.6875973 9.1780005
-104.63327 -95.434647 7.7185698 10.0025
-104.59164 -94.609436 7.8005242 12.765555
-104.55143 -94.297981 7.808897 12.304749
-104.50434 -116.1679 8.2442017 9.1615
-104.59818 -108.52422 8.2460585 9.6490002
-104.66047 -108.35194 8.2435312 10.138
-104.73933 -107.67131 8.2710161 9.1780005
-104.63292 -95.250877 8.1203585 14.146
-104.4909 -94.976814 8.1907139 12.085125
-104.61997 -94.620041 8.1500673 14.309916
-104.55304 -94.307053 8.2016945 14.213666
-104.48291 -116.19005 8.4390602 9.1763334
-104.53172 -111.38238 8.7852793 10.121
-104.65712 -109.78887 8.5749187 9.6737499
-104.5232 -109.56686 8.4882975 9.1774998
-104.53794 -108.22124 8.5740919 10.1735
-104.62611 -107.95258 8.6290483 10.15625
-104.6125 -95.296867 8.493001 13.438
-104.53559 -94.828178 8.483223 15.1465
-104.42037 -94.75103 8.5671453 14.1635
-104.70887 -94.202606 8.6693697 15.157125
-104.44381 -93.670708 8.5150146 12.579
-104.55954 -111.36922 9.0620871 10.174
-104.58349 -109.6668 9.039856 11.1285
-104.60282 -109.52773 8.8314257 10.17525
-104.4233 -108.72692 8.8276949 10.1775
-104.49414 -107.66412 8.9652739 11.07075
-104.49084 -107.54385 9.0260038 10.66925
-104.49345 -95.698296 8.9643459 14.1665
-104.6397 -94.179268 8.9674597 14.1132
-104.65675 -93.508652 9.0748606 14.115167
-104.45751 -107.75194 9.2677546 11.12025
-104.43279 -107.56663 9.3624229 11.1195
-104.61525 -92.973831 9.4443035 12.38725
-104.69603 -92.723656 9.5577497 10.501249
-104.52643 -108.74853 9.9459 9.0109997
-104.61095 -107.68774 9.6348352 12.1355
-104.63145 -92.977737 9.931241 13.55625
-104.67941 -92.716675 9.8457975 10
-104.66451 -114.34133 10.302276 11.16
-104.47349 -113.23739 10.263503 11.166
-104.49808 -110.21044 10.242843 10.1775
-104.73441 -108.93491 10.144691 12.14425
-104.66669 -108.30611 10.144685 12.1555
-104.48124 -107.7595 10.035894 12
-104.60043 -93.275612 10.143442 10.00275
-104.5315 -93.127342 10.296714 10
-104.43553 -92.264145 10.195869 11.0005
-104.75512 -108.74729 10.579154 12.167
-104.43164 -107.62476 10.686759 13.1415
-104.54317 -93.553421 10.652629 10.016
-104.75273 -92.936813 10.691694 11.667834
-104.50962 -92.26487 10.561929 10.5075
-104.48547 -114.18427 10.920291 12.1305
-104.61491 -112.57386 10.825261 12.1405
-104.4821 -94.336685 11.018983 13.101
-104.65041 -92.934898 11.043366 12.5035
-104.67953 -92.7416 10.977261 12.00275
-104.44849 -92.253822 10.937293 11
-104.50285 -91.952332 11.151393 15.1035
-104.49602 -114.03583 11.451068 12.1225
-104.62209 -108.28689 11.414833 12.872666
-104.77269 -107.92484 11.298382 13.1205
-104.52002 -92.90435 11.420613 13.336334
-104.54188 -92.616219 11.266341 14.0045
-104.6507 -108.82688 11.957337 14.141
-104.5787 -92.937798 11.731996 14.602
-104.65677 -92.608788 11.678941 13.003
-104.52444 -92.318687 11.797379 13
-104.44434 -108.75714 12.017335 14.1445
-104.56196 -92.496368 12.217005 15.1015
-104.68459 -92.008614 12.147079 15.101
-104.60065 -91.806656 12.183068 11.51225
-104.41605 -108.49001 12.493888 14.121
-104.66087 -108.22932 12.511226 14.023999
-104.59049 -92.572548 12.724196 12.007999
-104.59976 -92.169815 12.496724 13.57425
-104.54722 -91.849083 12.589165 12.667834
-104.45946 -113.31428 12.978542 13.169
-104.733 -112.51791 13.081853 14.1435
-104.60902 -108.15989 12.824972 13.64875
-104.58086 -91.728539 13.020234 15.004
-104.77148 -91.318466 13.177176 12
-104.60967 -107.89843 13.469136 15
-104.63905 -94.451469 13.29315 9.1534996
-104.74641 -94.357651 13.458433 9.1534996
-104.52288 -93.33683 13.357518 13.001
-104.74608 -92.831993 13.315051 12.0035
-104.56757 -92.680153 13.27074 15.0035
-104.57819 -92.009666 13.238574 12
-104.70328 -91.805626 13.403058 14.098249
-104.73218 -91.435493 13.341256 12.5
-104.66969 -91.182381 13.386628 13
-104.78361 -107.71223 13.673081 15
-104.74915 -94.403252 13.70777 15.0025
-104.69739 -93.613274 13.865508 13.001
-104.4796 -92.082954 13.797471 14.598249
-104.601 -91.509949 13.736418 14.036334
-104.7572 -92.478088 14.176668 12
-104.60596 -92.033424 14.045766 12
-104.54443 -91.801369 14.144002 12.267375
-104.67601 -91.471123 14.454166 14.0015
-104.74461 -93.649834 15.425485 14.0805
-104.74105 -93.380272 16.364288 13.0125
-104.44413 -93.786232 16.725775 13.015
-104.51866 -93.382416 16.562557 14.371333
-104.79124 -110.6242 20.250473 11.1515
-104.5069 -111.4986 20.423433 11.1505
-104.24033 -96.174324 2.894856 3
-104.33442 -93.186195 3.1377432 3
-104.03948 -90.75174 2.8942425 3
-104.14796 -95.308319 3.4484496 4
-104.02931 -93.845062 3.3595312 5
-104.14504 -95.349197 3.8152704 5.1999998
-104.09113 -115.74558 4.2507672 6
-104.14251 -107.95153 4.2665319 6
-104.33908 -95.751289 4.2842774 7
-104.1687 -95.577385 4.3385024 6
-104.31507 -94.015038 4.2345228 6
-104.36835 -95.493584 4.4443851 6
-104.07042 -95.31353 6.7086086 10.877875
-104.27621 -95.051826 6.679564 11.147
-104.06583 -93.840759 6.5742273 9.7573328
-104.16845 -116.12095 6.9447346 8.154376
-104.19157 -95.327087 6.9677348 10.94877
-104.25455 -94.980766 7.0740867 10.563749
-104.33645 -94.559731 6.9909244 11.168
-104.06851 -94.369301 7.009944 12.148
-104.19843 -93.872917 6.8973465 11
-104.04494 -108.23883 7.5699954 9.1782503
-104.15788 -95.776695 7.4793963 9.0004997
-104.24112 -95.336304 7.3475499 11.9181
-104.15251 -94.980507 7.3819222 11.530143
-104.25055 -94.587212 7.4480324 12.269333
-104.20985 -94.252563 7.4694071 12.575875
-104.18775 -93.730011 7.3736582 11.694722
-104.12798 -93.442711 7.4762063 9.0015001
-104.3051 -110.13073 7.8520379 9.1780005
-104.38673 -108.23379 7.6853113 9.1785002
-104.15919 -95.888954 7.9503345 12.171
-104.19457 -95.393639 7.7694077 10.05625
-104.23841 -94.855545 7.7129884 12.1135
-104.35567 -94.597961 7.8541093 13.31825
-104.28756 -94.16732 7.8162146 13.5153
-104.22755 -93.791557 7.8450713 11.4009
-104.04908 -93.562645 7.7662721 13.34615
-104.24382 -116.18371 8.2703342 9.1673756
-104.27639 -108.25335 8.2073584 10.06925
-104.0187 -107.98441 8.3307581 10.168
-104.00231 -95.498421 8.2857819 9.0039997
-104.22223 -94.944412 8.3406076 12.045166
-104.3426 -94.459618 8.0269213 11.0045
-104.20869 -94.242683 8.1445055 12.871876
-104.22463 -93.793098 8.1483116 13.328375
-104.02057 -93.587906 8.0201283 14.157
-104.35928 -116.23862 8.4160204 9.1765003
-104.33293 -108.61733 8.6924696 10.175
-104.16875 -107.6585 8.4777718 10.65225
-104.21365 -107.51227 8.6251268 10.1775
-104.09321 -95.657433 8.6725292 12.55825
-104.17586 -95.500763 8.5677032 11.0035
-104.10982 -94.916496 8.5484972 13.083124
-104.12236 -94.675072 8.4659262 15.1475
-104.2147 -94.187492 8.6414509 13.822375
-104.0611 -93.00177 8.7861519 10
-104.1787 -107.68199 9.0573139 11.068501
-104.16605 -107.54892 8.9981422 10.6714
-104.19575 -95.707321 8.9665165 13.67225
-104.30483 -95.423615 9.009716 15.1545
-104.28551 -94.125771 9.0137405 14.176
-104.26774 -93.658775 8.9189692 13.09075
-104.28965 -93.329285 8.9606409 12.0905
-104.21481 -107.54642 9.5304203 12.131
-104.34394 -93.500549 9.2266541 12.50475
-104.26423 -93.111946 9.3621674 11.002251
-104.17107 -92.763084 9.5468979 10.5015
-104.04199 -107.63975 9.8517723 11.116751
-104.29781 -107.55788 9.8009043 12.068
-104.24314 -94.769409 9.6951017 13.107
-104.18394 -93.286316 9.7580118 12.553625
-104.19009 -93.030899 9.7688189 12.370167
-104.18172 -92.626869 9.8261557 12.8429
-104.05633 -92.192917 9.9913721 11.0025
-104.01888 -91.370064 9.7367897 12.098
-104.05665 -114.42435 10.367914 11.1625
-104.21861 -111.07465 10.058257 10.1775
-104.19526 -107.6395 10.158089 12
-104.2893 -107.50939 10.138777 12.093499
-104.37786 -93.083122 10.124635 11.5515
-104.15375 -92.562836 10.187111 12.574143
-104.05585 -92.292534 10.19213 13.037333
-104.18398 -91.718483 10.185792 13.024699
-104.03875 -91.536247 10.346323 14.1025
-104.21827 -110.42744 10.453972 10.1775
-104.16221 -110.07891 10.550076 12.12225
-104.1214 -96.636681 10.694274 13.60775
-104.07514 -95.240776 10.679615 14.1075
-104.12741 -92.593994 10.62431 12.335334
-104.14082 -92.318741 10.468499 11.00175
-104.18436 -91.878494 10.664508 12.753625
-104.37619 -113.16415 11.14585 12.147
-104.25643 -108.56747 11.142759 13.15
-104.28819 -93.069633 11.031285 13
-104.19361 -92.530289 10.930596 13
-104.27052 -92.142105 10.921545 11.714286
-104.28917 -108.2352 11.282184 12.618999
-104.33605 -107.83836 11.246657 13
-104.29426 -92.629677 11.340873 13.0035
-104.14608 -92.224785 11.404125 14.5515
-104.06462 -91.977402 11.226987 13.004
-104.03745 -110.5132 11.690548 12.118
-104.31886 -109.13955 11.652164 13.121
-104.16135 -108.55669 11.803014 13.146832
-104.27549 -92.904961 11.743568 12.502
-104.19139 -92.601433 11.870859 13.366666
-104.28413 -111.84769 12.166416 12.177
-104.28864 -111.50064 12.307821 12.1775
-104.29569 -108.32832 12.176157 13.175
-104.01062 -96.759094 12.12468 9.0944996
-104.11018 -96.307724 12.267659 9.0944996
-104.12866 -95.520393 12.049095 9.0939999
-104.35434 -92.41317 12.226733 14.099
-104.18008 -92.270355 12.225984 12.700333
-104.26382 -91.696465 12.345232 13.002
-104.3023 -108.20174 12.611585 13.17775
-104.08409 -96.696266 12.717537 9.1497498
-104.15923 -96.316856 12.709339 9.151
-104.14568 -92.628876 12.732863 15.1005
-104.20364 -92.17083 12.583006 13.19975
-104.22594 -91.783257 12.544092 12.471388
-104.3737 -108.29751 12.921762 14.1705
-104.11035 -97.005791 12.974002 9.1520004
-104.22021 -95.362534 12.816537 9.1514997
-104.06474 -93.278412 13.106173 15.1005
-104.12393 -92.953682 12.969603 11
-104.21063 -92.646446 12.99586 13.057501
-104.18393 -92.181229 12.866136 12.278749
-104.22803 -91.827232 13.003229 13.534333
-104.12617 -91.459969 13.006638 15.0045
-104.0949 -98.089584 13.549818 9.1529999
-104.14091 -95.63195 13.410275 9.1540003
-104.10191 -92.659378 13.306929 13.0015
-104.09682 -97.028328 13.791008 9.1540003
-104.19608 -95.056625 13.824835 13.501249
-104.21161 -91.641594 13.882439 13.087
-104.32124 -91.523491 13.942379 13.369166
-104.26514 -92.228874 14.213995 13.742833
-104.17054 -91.778709 14.145238 12.799556
-104.28828 -91.453468 14.063023 13.501249
-104.07312 -92.013542 14.454285 14.002
-104.11412 -91.928757 14.427247 15
-104.27371 -93.68438 16.01947 13.007
-104.29225 -93.253098 16.26675 13.671166
-104.10731 -93.136269 16.244356 15.0015
-104.1477 -93.256035 16.420481 13.011
-104.34618 -93.161186 16.453648 15.001
-104.17924 -93.061325 18.097258 11.1495
-104.04108 -108.63451 19.077061 11.1305
-104.24915 -108.65173 19.251789 11.1375
-103.88004 -95.433144 3.1776886 4
-103.92133 -93.711571 3.1530035 4
-103.65608 -93.179161 3.0755682 3
-103.82619 -90.775375 2.8700571 1
-103.68395 -95.415848 3.4160743 5
-103.80919 -93.711205 3.5428777 4
-103.68647 -95.347649 3.8569493 5
-103.92825 -93.840935 3.8805604 5.6666665
-103.73999 -93.727119 4.2145343 6
-103.84229 -95.47644 4.4160943 6
-103.86765 -93.81562 5.0955329 8.1234999
-103.70327 -115.81954 5.5160775 7
-103.81902 -93.78009 5.4450517 8.6021252
-103.65018 -93.598351 5.4637766 8.0039997
-103.72698 -115.86691 5.6535411 7
-103.78555 -93.782837 5.7730103 8.3539171
-103.83173 -93.514107 5.8541288 8.0019999
-103.80185 -93.752846 6.2584758 9.9593334
-103.80817 -108.2598 6.6617508 8.1780005
-103.78754 -95.316696 6.6852665 10.383667
-103.7962 -93.729462 6.6007895 10.702785
-103.6879 -116.0778 6.8386188 8.1440001
-103.80701 -108.24871 7.0082231 8.0113335
-103.93212 -95.35247 7.031373 11.353313
-103.79369 -93.763626 6.9990611 11.530905
-103.80114 -93.481606 7.1728449 9.0024996
-103.78166 -108.41641 7.5910244 9.118
-103.75289 -108.1801 7.4813061 9
-103.84 -95.763412 7.4531536 10.6832
-103.89323 -95.385666 7.3027325 12.380625
-103.81821 -94.962845 7.3626809 10.925376
-103.76324 -94.547173 7.4910784 12.142
-103.82924 -94.122414 7.471118 10.502251
-103.8275 -93.74752 7.3776345 11.473083
-103.81504 -93.484985 7.4344068 11.017499
-103.8675 -108.18294 7.6885176 9.1786251
-103.68053 -95.682037 7.6162186 13.12425
-103.84235 -95.368675 7.7578859 13.12
-103.66571 -95.045738 7.6048474 10.004
-103.88304 -94.63887 7.6300373 13
-103.72015 -94.05616 7.7711329 12.55975
-103.84846 -93.655022 7.7864232 11.776751
-103.78594 -93.491257 7.773025 12.857614
-103.62181 -116.20268 8.23909 9.1480007
-103.7721 -108.14394 8.1844139 10.139
-103.71824 -107.36185 8.2480564 10.1685
-103.63142 -95.294838 8.0406971 12.636499
-103.71714 -95.039734 8.2385693 11.57775
-103.69895 -94.761711 8.1023026 13.13975
-103.82575 -94.210228 8.2514353 12.40575
-103.76751 -93.819145 8.335 12.2341
-103.66912 -93.346489 8.1545706 11.0055
-103.661 -92.622581 8.212923 11.04925
-103.76868 -92.332932 8.2599163 13.087376
-103.7067 -116.17686 8.4129162 9.177
-103.88334 -107.73276 8.6234379 10.02925
-103.79026 -95.68676 8.6210003 11.044875
-103.68634 -95.278473 8.7293053 14.656
-103.66856 -94.965881 8.653718 11.004
-103.63271 -94.618484 8.5658674 11.371834
-103.77824 -94.210106 8.5789194 11.986347
-103.75625 -93.939995 8.4326181 15.153
-103.81208 -93.352173 8.6212225 12.500285
-103.7664 -93.048569 8.6166601 11.196834
-103.72517 -92.506699 8.5310974 13.783
-103.65276 -92.111641 8.5503244 12.4713
-103.71697 -91.826164 8.5604763 14.61075
-103.65701 -109.91223 9.0398331 11.1315
-103.84088 -107.78926 9.0110683 10.88675
-103.69057 -107.42175 8.9787121 10.452666
-103.70298 -95.505196 8.9983292 15.1535
-103.6502 -94.443314 9.1430998 15.165
-103.89243 -94.306793 8.9148188 13.571375
-103.86491 -93.791649 8.9441948 13.3365
-103.87298 -93.359322 8.9815464 12.5
-103.74967 -93.032867 8.9271431 12.726334
-103.65061 -92.666664 8.9806747 10.002
-103.61162 -108.64995 9.3167419 11.1605
-103.87441 -107.76379 9.2798662 10.414666
-103.79208 -107.08137 9.2334061 11.1685
-103.83743 -93.407799 9.3536844 13.089438
-103.80494 -93.015549 9.4951763 11.8012
-103.79362 -92.617668 9.4977016 11.579945
-103.64206 -107.6661 9.7740126 12
-103.63396 -107.37704 9.861351 11.1785
-103.76562 -93.383728 9.8235359 13.0055
-103.88003 -92.611786 9.7872276 12.888857
-103.73111 -92.16507 9.7988024 12.370999
-103.76319 -91.919357 9.7545671 12.314249
-103.97725 -91.294991 9.9968052 14.007
-103.86519 -114.55717 10.188839 11.148625
-103.67976 -113.62749 10.235668 11.163
-103.73493 -113.55195 10.321967 11.1665
-103.68291 -108.24276 10.15674 12.1565
-103.63396 -107.50442 10.086838 10.1785
-103.7353 -93.899315 10.25264 11.002
-103.86337 -92.526932 10.229705 10.90075
-103.75689 -92.166527 10.188913 12.142
-103.75967 -91.756508 10.155219 12.6235
-103.8342 -91.362968 10.159277 13.554625
-103.75317 -108.64199 10.757589 12.171
-103.62652 -108.17487 10.716489 12.12
-103.87614 -94.032318 10.501738 10.011
-103.86669 -93.984169 10.74197 10.016
-103.86401 -92.705063 10.40502 15.0055
-103.77658 -92.156601 10.604402 11.6033
-103.78593 -91.877144 10.526355 13.305786
-103.85262 -91.454536 10.434879 13.099
-103.77215 -108.65266 10.949406 13.142
-103.79037 -108.12989 11.050866 13.1525
-103.91399 -94.727585 10.966209 14.1055
-103.8003 -93.777603 10.913657 12.002501
-103.74006 -93.45916 10.930163 12.003
-103.79775 -93.048004 11.0728 12.001249
-103.91185 -92.539635 11.159414 15.006
-103.8263 -92.240891 11.003199 12.762313
-103.80863 -108.17637 11.245598 13.12175
-103.64906 -93.631859 11.463439 11
-103.79269 -93.089417 11.24847 15.105
-103.81129 -92.219612 11.202459 14.101
-103.62486 -113.33893 11.983689 12.121
-103.62346 -93.452446 11.86524 13.002833
-103.67296 -93.180168 11.639627 14.0045
-103.96508 -92.582367 11.669895 11
-103.74065 -109.36958 12.209759 14.145
-103.92086 -93.008736 12.148668 15.005
-103.78272 -92.500641 12.250646 11.285714
-103.79525 -93.990005 12.422821 15.0045
-103.98243 -92.846085 12.437181 15.1015
-103.68424 -92.743462 12.432041 15.005
-103.8832 -92.393272 12.488428 14.04925
-103.66502 -111.24144 12.911324 14.148
-103.9668 -98.696465 13.13543 9.1525002
-103.76734 -92.146759 13.0054 13.699833
-103.97625 -91.888649 12.995339 14
-103.6323 -111.03275 13.476843 15.136
-103.96309 -95.398613 13.476845 11.508249
-103.85948 -92.609489 13.510504 14
-103.65573 -92.391724 13.498833 12.005
-103.95 -91.782303 13.349781 14.098
-103.97275 -98.936104 13.970925 9.1545
-103.68867 -95.019173 13.786507 14.50275
-103.74303 -94.488014 13.783669 13.50175
-103.82136 -92.420273 13.684973 12.006
-103.90004 -92.02639 13.627529 14.003
-103.96239 -91.564377 14.034137 12
-103.8557 -91.924187 14.495445 15.0035
-103.8793 -95.737816 14.844938 12.0105
-103.99873 -95.449486 15.014616 13.002
-103.88295 -94.658119 14.821685 15.0025
-103.77373 -94.264816 15.499119 13.0035
-103.75218 -93.776161 15.260345 15.0025
-103.81332 -93.831245 15.698408 13.753375
-103.67739 -110.51122 19.074274 11.1005
-103.71539 -108.89841 19.300631 11.1355
-103.87386 -108.78377 19.201807 11.133
-103.65981 -93.198051 19.390139 11.1535
-103.37978 -104.11608 3.1821542 5
-103.20243 -95.352943 3.1552448 4
-103.3771 -93.913071 3.1685457 3
-103.40186 -90.824059 2.8553872 1
-103.28115 -90.475548 2.8452857 1
-103.24302 -102.68954 3.3833201 5
-103.38751 -95.316231 3.4516914 4.25
-103.37195 -95.323883 3.7711864 5.1666665
-103.54036 -93.653404 3.9603167 5
-103.50873 -93.646698 4.8143759 7
-103.59844 -93.502899 5.7508502 8.0030003
-103.4437 -93.79586 6.2091031 9.4012003
-103.39551 -93.577362 6.0741773 10
-103.26884 -94.065742 6.4129272 8
-103.30928 -93.865883 6.6099167 10.985931
-103.504 -93.591225 6.4420185 11
-103.46903 -108.21742 7.0524931 8.0014992
-103.4301 -94.295227 7.092484 12.137938
-103.42781 -93.802338 6.9408941 11.04675
-103.39731 -108.16566 7.4737434 8.9101429
-103.38949 -94.452934 7.3550019 12.64825
-103.30934 -94.265556 7.3937631 13.140125
-103.48875 -93.664139 7.3350053 10
-103.42366 -93.520195 7.4369855 12.085834
-103.22609 -91.98542 7.456182 13.113
-103.27054 -116.10819 7.838182 9.1359997
-103.52081 -110.11321 7.8045659 9.1785002
-103.53211 -109.87859 7.8372068 9.1785002
-103.39914 -108.21569 7.725049 9.4951668
-103.32655 -107.13499 7.600883 9.0830002
-103.45573 -95.909134 7.7873712 12.621
-103.44049 -95.395233 7.775393 12.433499
-103.59009 -95.026627 7.788456 9.5025005
-103.34785 -94.554443 7.7903295 14.1415
-103.40499 -93.675102 7.7472591 11
-103.29272 -93.536156 7.7692761 14.644501
-103.22237 -92.543762 7.8169608 13
-103.41289 -92.187859 7.9808202 12.0055
-103.49249 -116.19317 8.3552561 9.177
-103.40721 -107.74645 8.1202106 10.157
-103.59278 -106.96851 8.2474775 9.1785002
