# .PCD v0.7 - Point Cloud Data file format
VERSION 0.7
FIELDS x y z intensity
SIZE 4 4 4 4
TYPE F F F F
COUNT 1 1 1 1
WIDTH 195
HEIGHT 1
VIEWPOINT 0 0 0 1 0 0 0
POINTS 195
DATA ascii
-201.6564 166.31218 1.5710487 9.0675001
-201.12105 170.06465 1.6303438 9.0495005
-200.98965 171.98871 1.6907549 9.0555
-200.60732 168.87523 1.566259 9.0369997
-200.57031 166.62361 1.6105738 9.0640001
-200.40721 167.54306 1.6337421 9.0570002
-200.60909 165.02756 3.9487176 10.048
-200.25481 165.82425 1.609316 9.0609999
-199.88199 166.94061 1.5942708 9.0605001
-199.89124 167.49536 1.5009294 9.052
-199.66202 173.6479 1.6282121 9.0579996
-199.91853 174.54309 1.6324769 9.0609999
-199.35547 169.32233 1.5797331 9.0594997
-199.50864 169.68947 1.5714782 9.0459995
-199.56609 168.50922 3.9719813 10.0565
-199.13293 167.87106 1.5594321 9.0600004
-198.96883 173.67555 1.6072865 9.0533333
-199.03059 171.10217 4.0056129 10.052
-198.84807 175.96164 4.0399518 10.047
-198.81027 176.10591 4.1081934 10.057
-198.64439 174.26137 1.5315697 9.0474997
-198.39595 174.67982 1.5705501 9.0506668
-198.02544 176.37115 2.1747086 9.026
-198.32434 168.54878 3.8059437 10.0495
-198.25749 171.76572 3.9072721 10.045
-197.62206 172.69046 3.8629563 10.035
-195.94696 174.16208 1.4456918 9.0570002
-195.76561 176.4559 2.4411752 9.0240002
-195.22546 174.08405 3.7606535 10.0535
-195.05081 174.10432 3.7653654 10.05
-193.45558 174.20683 3.4668286 10.0365
-193.23236 175.32159 3.6190376 10.0425
-192.70135 174.67511 3.0070488 9.0795002
-191.69029 174.37213 1.9329274 9.0270004
-191.42349 167.10303 -0.45593458 8.0295
-191.39258 173.3791 1.1642357 9.0459995
-191.58435 173.98325 1.2191397 9.0492496
-191.17935 173.46951 1.1728946 9.033
-190.9675 173.53778 1.7951943 9.0249996
-190.88174 173.49954 4.0724139 10.025
-190.95151 175.39322 4.5192084 10.023
-190.89204 172.62929 5.5938907 11.0495
-191.02341 172.16745 6.2774897 11.0255
-190.65405 173.40475 3.2362995 10.036
-190.6911 173.02284 5.5208621 11.046
-190.30356 179.60225 -3.3997879 7
-190.00529 175.76112 4.1431432 10.024
-190.01892 172.77826 6.2308316 11.025
-189.68378 176.29161 4.3274126 10.0215
-189.68088 173.58997 5.4457283 11.0455
-189.48454 178.94278 -1.1400836 8.0434999
-189.58568 167.05461 -0.48354506 8.0290003
-189.50366 173.75041 3.9951894 10.0245
-189.56448 173.82935 5.4534307 11.034
-189.42004 173.90454 6.3127837 11.0265
-189.46323 174.16093 6.6066461 11.022334
-188.85448 178.08235 -1.071216 8.0469999
-189.00774 178.41794 -1.1131432 8.0570002
-189.00388 179.22755 -1.0934294 8.0699997
-189.01497 173.91568 5.4639797 11.0485
-188.83185 174.79666 5.3610802 11.035
-188.95795 175.24969 5.532866 11.048
-187.90411 176.20456 -3.2916739 7
-187.89937 178.78885 -3.4439557 7
-187.91573 177.01929 -2.6413176 7
-187.73166 176.50531 -1.2726091 8.0340004
-187.63795 176.29749 -1.1245204 8.0404997
-187.7272 176.51898 -1.1088451 8.0539999
-187.22243 176.12656 -1.2676326 8.0664997
-186.86037 175.82695 -2.7382443 7
-187.01854 162.74152 -0.96425515 8.0524998
-187.17183 162.894 -0.99019271 8.0559998
-187.02513 175.33937 -1.155179 8.0439997
-187.12369 175.65428 -1.149243 8.0310001
-186.71921 175.96645 -2.5076976 7
-186.70221 163.06917 -1.0091147 8.0454998
-186.54529 174.70107 -1.0906775 8.0474997
-186.68599 159.29776 5.4793229 11.08
-186.72279 159.76875 5.3732562 11.0795
-186.25549 174.03581 -3.2437768 7
-186.04202 163.53029 -1.0464602 8.0754995
-186.01808 173.97453 -1.117331 8.0509996
-185.93892 173.33255 -3.1838839 7
-185.85918 163.61188 -1.07758 8.0764999
-185.67558 173.55077 -1.1272258 8.0544996
-185.59996 174.302 -1.1523671 8.0719995
-185.31554 175.20836 -3.3297114 7
-185.38484 172.63176 -3.1704788 7
-185.3226 163.76695 -1.082572 8.0349998
-185.2536 164.60817 -1.1443446 8.0769997
-185.21791 172.79518 -1.1410218 8.0410004
-185.40486 157.9709 5.0138144 11.08
-185.48796 160.30341 5.1545539 11.079
-185.14433 172.48692 -3.3171375 7
-184.99181 172.64284 -2.5582471 7
-185.09836 172.64882 -1.2774621 8.0345001
-185.03476 172.62477 -1.1478409 8.0579996
-185.18895 159.02599 5.0500441 11.0795
-184.51682 171.28799 -3.1439002 7
-184.54291 161.55115 -1.0607765 8.0489998
-184.47461 171.7115 -1.1364278 8.0397501
-184.72472 172.04425 -1.1697001 8.0445004
-184.05086 170.53952 -3.0802383 7
-184.3158 170.96208 -3.0670352 7
-184.11566 171.43536 -1.2547805 8.0614996
-184.1091 162.21364 -1.0509746 8.0502501
-184.16411 171.22359 -1.132748 8.0515003
-184.25078 152.76509 0.6855222 9.0535002
-184.18752 152.8662 0.64810628 9.04
-183.75285 171.34647 -2.5275404 7
-183.97775 162.41809 -1.0609627 8.0450001
-183.70491 162.97031 -1.078023 8.0585003
-183.96098 170.96021 -1.1414735 8.0550003
-183.29648 169.59808 -3.0601423 7
-183.29404 159.75444 -1.0423557 8.0565004
-183.35283 163.64993 -1.1214206 8.073
-183.26331 170.09166 -1.1632141 8.0585003
-183.5856 162.60121 4.8606696 11.029
-183.56906 152.80272 6.2649899 12.03
-183.25658 154.29054 6.6638646 12.0815
-183.38782 151.42421 6.9944539 13.044
-183.5289 154.29907 7.1217465 9.0004997
-182.86852 169.16957 -3.1846633 7
-182.80099 169.29497 -1.281521 8.0349998
-182.83038 169.25977 -1.1806948 8.0450001
-183.16545 169.77084 -1.1542311 8.0415001
-182.87271 160.49519 2.4063416 10.0525
-182.81784 163.62193 2.4671979 10.0545
-183.10674 162.04228 4.1927323 11.045
-183.15082 162.7354 4.2666078 11.0515
-183.1796 162.8564 4.2665439 11.055
-183.17918 150.03705 4.610846 10.0195
-183.03841 152.24886 6.1353278 12.029
-182.48503 168.33669 -2.9754677 7
-182.60548 169.18999 -1.2625339 8.0620003
-182.61761 159.40422 -1.0713435 8.0547504
-182.43481 168.71489 -1.1473168 8.052
-182.69122 169.0518 -1.1222533 8.0485001
-182.61499 160.54367 2.3649859 10.0525
-182.73277 164.61293 2.4878874 10.054
-182.45969 162.65866 4.1505952 11.0445
-182.22836 170.6882 -3.1098797 7
-182.14134 158.93187 -1.0899836 8.0635004
-182.08945 168.31761 -1.1798751 8.0319996
-182.03435 158.97597 2.3063784 10.0635
-182.21497 160.26173 2.3152721 10.05425
-182.35982 162.1823 2.4059486 10.0515
-182.20598 164.18968 2.4450624 10.054
-182.08589 162.70499 4.1442456 11.0345
-182.09781 150.8974 5.5260911 12.0345
-182.22389 152.1987 6.0895123 12.0285
-181.65221 169.12569 -3.2104907 7
-181.71472 167.23859 -2.9996095 7
-181.74844 167.61177 -3.0304861 7
-181.82346 167.9247 -1.1746521 8.059
-181.68105 159.73682 2.2931972 10.063
-181.83946 162.93628 2.3807039 10.0545
-181.66521 159.84253 3.9704702 11.054832
-181.73814 160.04698 4.0048842 11.0595
-181.81233 161.8889 4.0190997 11.048
-181.84349 150.96736 5.4669118 10.0175
-181.42336 166.89313 -2.9619639 7
-181.29916 161.51486 -1.1132065 8
-181.30885 167.06049 -1.1661445 8.0419998
-181.23892 167.83867 -1.1930816 8.0734997
-181.35542 161.42882 0.58514553 9.0620003
-181.37224 161.82397 0.58532846 9.0263338
-181.25876 162.0127 0.51704842 9.0649996
-181.53017 162.1183 1.0940347 9.0284996
-181.45876 158.74249 2.2476518 10.053
-181.52109 160.83926 2.274684 10.053166
-181.55072 161.8622 2.3269098 10
-181.29955 162.05922 2.2972231 10.0345
-181.45815 158.95499 3.9307311 11.06
-181.28209 161.48294 3.8867702 11.038
-181.32256 162.73976 4.0540996 11.0545
-181.05931 161.85773 -1.2216576 8.0649996
-181.06938 161.77908 -1.1429334 8.0345001
-180.93106 162.08543 -1.1370312 8.0749998
-180.80351 166.38838 -1.1684253 8.0559998
-181.00302 166.58665 -1.1611228 8.0498753
-181.04237 162.82637 1.0974656 9.0279999
-180.86794 164.77075 3.2006388 10.0235
-181.04039 159.44954 3.8273101 11.049
-180.56403 165.79875 -2.9482396 7
-180.74364 166.32225 -1.2852238 8.0354996
-180.42401 165.87485 -1.1859226 8.0594997
-180.79837 160.07721 2.1022143 10.0385
-180.517 160.87807 2.1022849 10.038
-180.46989 160.23053 3.8505213 11.054334
-180.2072 158.20601 -1.1343414 8.0749998
-180.08588 165.36598 -1.1914188 8.0325003
-180.01167 162.79608 2.7520394 10.0255
-180.14421 163.22745 2.819562 10.0275
-180.26054 162.91016 3.9545774 11.0505
