# .PCD v0.7 - Point Cloud Data file format
VERSION 0.7
FIELDS x y z intensity
SIZE 4 4 4 4
TYPE F F F F
COUNT 1 1 1 1
WIDTH 1229
HEIGHT 1
VIEWPOINT 0 0 0 1 0 0 0
POINTS 1229
DATA ascii
-22.156811 20.303621 3.3514404 13.350935
-22.185623 20.566874 3.3045583 13.933566
-22.179102 20.915863 3.4373798 12.214571
-22.010759 22.634239 3.2766836 14
-22.076216 23.07626 3.5132556 13.477166
-22.243032 23.33391 3.5028071 9.0705004
-22.079876 27.084469 3.3949635 12.812429
-22.016464 27.434837 3.2903783 13.730344
-22.090967 27.829515 3.3603387 13.472333
-22.039024 28.200788 3.4039545 13.624707
-22.142973 28.663433 3.3819087 13.791394
-22.285019 29.019224 3.4092715 13.726912
-22.132931 29.221289 3.3680449 12
-22.373722 29.629499 3.2082641 11.1725
-22.385859 0.1520946 3.866215 11.08
-22.23703 1.1074386 3.7374988 11
-22.216423 5.908802 3.7425258 11.666667
-22.243959 6.2382493 3.7795584 13.875
-22.276503 6.5879059 3.7706828 13.548575
-22.145533 7.0846791 3.8257959 13.032
-22.281103 7.4491673 3.809027 14.52125
-22.313311 7.7299562 3.7957027 14.02
-22.182688 8.2732286 3.7729528 14.026501
-22.209114 8.5713997 3.8108304 13.4132
-22.335138 9.1015234 3.8144426 13.539208
-22.365278 9.3669844 3.7784739 14.036416
-22.082912 9.6670246 3.7403753 14.0175
-22.241421 11.486769 3.7740479 13.08075
-22.107876 11.808171 3.7392287 11.5575
-22.161304 12.354976 3.7001255 13.06175
-22.170818 12.554547 3.7591102 13.865942
-22.265074 13.391426 3.995297 15.06125
-22.264032 13.890709 3.9698033 15.06275
-22.271097 14.150632 3.9490466 15.06375
-22.360832 14.581704 3.9242022 15.064167
-22.213755 15.146563 3.8493433 12.53
-22.226259 15.443873 3.7954481 13.578583
-22.239956 15.786348 3.8026848 11.58675
-22.099901 16.140593 3.8811686 14.597
-22.100735 16.620733 3.8370309 14.828688
-22.07288 16.817823 3.9905665 15.108749
-22.265953 17.398346 3.8116138 14.231833
-22.180111 17.853939 3.7374246 13.703814
-22.148237 18.122713 3.9733715 15.05875
-22.137325 18.607088 3.9631085 14.563062
-22.162958 18.975817 3.8899481 14.554063
-22.147886 19.390013 3.8406584 14.415084
-22.242056 19.767389 3.8219545 14.425049
-22.286917 20.092831 3.7245679 13.435801
-22.100782 20.90008 3.7022641 12.806189
-22.141438 22.288828 3.6411719 15
-22.322863 22.591688 3.6396272 15
-22.014803 23.884781 3.768759 14
-22.060263 24.383156 3.8007116 15
-22.059475 24.584015 3.7935038 15.045001
-22.083666 25.037676 3.7583752 14.652499
-22.195396 25.44446 3.7496147 14.8274
-22.077868 25.853117 3.7599268 15
-22.071032 26.158752 3.7481353 15.086249
-22.127092 26.581896 3.7143931 14.848063
-22.106142 27.017302 3.7281065 15.032625
-22.10494 27.506794 3.7064865 14.895542
-22.091415 27.829414 3.6944134 14.843813
-22.080103 28.253826 3.6806724 14.486215
-22.167465 28.584545 3.6721175 14.069
-22.147917 28.970703 3.6488645 13.944583
-22.308836 29.337912 3.6089542 13
-22.302622 0.32713094 4.3186984 12.0675
-22.358126 0.64160126 4.227242 11.714833
-22.159107 5.9664373 4.3059521 12.714286
-22.289677 6.2264533 4.3110175 13.313215
-22.313183 6.5925403 4.2761407 13.153594
-22.358973 6.960691 4.2900944 13.037937
-22.376791 7.3231769 4.2545109 13.038124
-22.398954 7.8369975 4.3022571 13.371417
-22.303215 8.2313747 4.1173306 11.684834
-22.384781 8.6005278 4.1056662 13.0315
-22.340281 9.0576267 4.0770659 12.020375
-22.334503 9.980237 4.0192232 11.009
-22.268362 11.388601 4.1758356 14.027
-22.237574 12.556667 4.03055 13.2875
-22.216082 13.002131 4.0579982 14.831625
-22.129196 13.426666 4.0944719 15.039562
-22.095819 13.868666 4.1090455 15.032582
-22.268497 14.597532 4.1155887 15
-22.302074 15.030866 4.1020293 14.016
-22.219936 15.508826 4.0444674 14.590312
-22.156523 15.792397 4.0399032 14.433417
-22.260712 16.257879 4.0665131 14.044125
-22.217089 16.698837 4.0708928 13.688834
-22.361629 16.998388 4.0344443 15.00875
-22.182512 17.466913 4.0344882 14.017
-22.244076 29.45862 4.0799251 14
-22.23036 5.9251733 4.4300289 13
-22.110117 6.0784249 4.435905 13
-22.19174 7.025907 4.5354271 14.027249
-22.38818 7.7491927 4.4591789 14.026251
-22.053856 8.3160076 4.4871678 14
-22.141481 8.4976587 4.4788814 14
-22.284279 9.3263683 4.4509277 14.0275
-22.240419 6.5032516 4.8084641 15
-22.196651 12.782559 5.4517846 11.0515
-22.16305 19.701471 5.5441275 12
-22.251524 22.54538 5.5817909 11.172
-22.309866 12.647188 5.6310339 11.0545
-22.347202 24.041721 5.6881771 11.1725
-22.385649 25.724083 5.8145452 11.173
-22.397573 29.113104 5.9296713 11.0025
-22.152412 29.394478 5.8460979 11.855
-22.283947 29.665754 5.7059026 11.053
-22.260767 12.673523 6.0655241 12
-22.013582 13.49336 6.0548601 12.164
-22.048443 14.206907 6.1669507 12.167834
-22.082138 14.93324 6.2105365 12.1695
-22.141748 15.551074 6.220078 12.171
-22.167049 16.281145 6.1954079 12.1705
-22.034595 18.057734 6.2774439 11.179
-22.329977 18.516981 6.1449094 12.169
-22.079689 18.98488 6.2543645 11.1785
-22.245317 20.191189 6.2151151 12.164
-22.302542 20.768513 6.3307104 12.0225
-22.048233 22.740976 6.1556597 11.1765
-22.096325 23.700731 6.2142582 11.176
-22.206125 24.646519 6.1382017 11.1755
-22.244009 25.566702 6.0559278 11.175
-22.271212 25.628395 6.2026119 11.175
-22.266739 26.548607 6.1173906 11.1745
-22.319239 27.529997 6.1122437 11.174
-22.052294 27.946697 6.1620684 12.167
-22.195597 28.591978 6.0998225 11.67
-22.139914 29.137922 6.1479897 13.595751
-22.16044 29.405106 6.2254319 12.758889
-22.183294 29.888174 6.2329226 14.106833
-22.225569 12.573133 6.6468072 11.097
-22.089684 19.090483 6.7410684 13.113
-22.319342 20.583403 6.7295122 13.1175
-22.363295 22.164465 6.6976514 13.12125
-22.044092 22.869244 6.6612887 12.019
-22.042847 27.143373 6.6471014 12.137
-22.266054 29.166338 6.5066419 14.0945
-22.208426 29.305994 6.6194539 14.1345
-22.129704 29.829153 6.6718135 13.346624
-22.333624 11.524908 7.0206261 10.067
-22.077526 12.479215 6.9118247 11.0945
-22.0907 14.587243 6.9845381 15.0935
-22.107389 15.063737 6.9793587 15.093
-22.134336 16.004326 6.9741859 15.092
-22.164734 16.560244 7.0501494 14.05925
-22.171576 16.946236 6.980175 15.091
-22.195276 17.509291 6.9882684 15.0905
-22.214045 17.935343 6.9804387 14.056
-22.211319 18.451984 7.003057 15.0895
-22.244045 18.922369 7.0196905 15.089
-22.240946 19.402184 7.0300384 15.0885
-22.100485 19.740963 6.9702511 13.741834
-22.205072 20.514116 6.9757695 13.06025
-22.382505 23.438299 7.0507851 13.1185
-22.083183 24.365459 6.8127356 12.0195
-22.383411 25.498396 7.0432701 13.12
-22.088699 25.982552 6.9820924 12.02
-22.288925 26.266603 7.1219029 13.117
-22.086948 26.516672 6.9910827 13.133
-22.162764 27.131987 6.9780612 13.1295
-22.130482 27.954325 7.0305328 13.139
-22.231094 28.236948 6.8174567 13.64725
-22.207697 29.15682 7.1935115 15.078
-22.236803 29.319067 7.0216112 13.358
-22.159878 29.894524 6.9403076 13.412
-22.358358 12.521704 7.5213675 11.1115
-22.136307 14.700756 7.4572425 14.115
-22.222843 17.756325 7.352262 14.121
-22.271894 20.67544 7.3879137 13.05575
-22.382008 21.759855 7.5843387 13
-22.380741 22.319458 7.5466981 15.106
-22.352921 22.416552 7.3669877 13.101
-22.233391 23.010859 7.3718286 13.8025
-22.382427 23.579958 7.321856 13
-22.252024 24.624144 7.4984231 11.069
-22.398129 25.009806 7.2328758 13.119
-22.392923 26.72159 7.4353118 13.1195
-22.276625 27.871201 7.3881974 13.1135
-22.318306 28.357161 7.4152026 13.1175
-22.225786 29.85601 7.3914213 12.742667
-22.003494 13.084105 7.6795893 15.0055
-22.022129 14.79574 7.6037993 15.099
-22.383446 20.385332 7.7621264 12
-22.327713 20.608677 7.8782692 12.5
-22.354963 20.907894 7.7726111 13.300751
-22.286392 21.385338 7.7551689 12.3895
-22.389198 22.316227 7.8331618 15.1055
-22.37472 22.586491 7.8564329 14.436501
-22.290894 23.469442 7.8637929 13.081
-22.299086 25.348799 7.6418691 12.0605
-22.258017 0.53729588 8.1875134 15.081
-22.333574 0.91439599 8.3691835 15.103
-22.307341 1.3841931 8.1870613 14.0965
-22.384527 1.7802656 8.0472078 14.079
-22.321205 2.2080753 8.0821609 13.579
-22.350143 12.10898 8.139575 11.033
-22.309729 12.597107 8.1963539 12.0985
-22.013296 15.181014 8.1963644 15.1045
-22.325378 20.687117 8.1989574 13.666667
-22.319012 20.955017 8.1912422 13.800875
-22.34042 21.389601 8.1742163 15.10475
-22.217094 21.797178 8.1860943 13.0805
-22.392025 23.570925 8.225729 14.1015
-22.148844 24.619085 8.2888784 11.0705
-22.222561 26.168352 8.1200361 11.071
-22.273026 26.92886 8.1484528 11.07225
-22.25552 0.15018995 8.5250692 15.078
-22.237579 1.0484366 8.4997196 15.0805
-22.350519 20.633459 8.5799217 13.420801
-22.328255 20.870287 8.7345343 13.756001
-22.02404 21.419596 8.642848 11.0695
-22.135384 23.142385 8.7214918 11.072
-22.096157 23.330259 8.5050077 11.0705
-22.345945 23.849539 8.5441074 14.602249
-22.3372 20.726063 9.0689993 14.2
-22.19158 21.100191 9.0192709 12.451858
-22.220261 21.312262 9.0398693 13
-22.348497 22.596893 9.0523109 15.10225
-22.391861 22.963076 8.8633833 14.101
-22.384581 23.390612 9.0671921 15.102
-22.322519 29.497061 9.1931171 13.023
-22.357681 20.72748 9.4381933 14.5
-22.307825 21.018913 9.3480101 14.434166
-22.382748 21.279764 9.495019 14.1005
-22.381405 23.537813 9.5775928 15.1015
-22.377258 23.860672 9.3081398 15.102
-22.325314 25.823423 9.4165497 13.0625
-22.359045 26.297968 9.4650736 13.0635
-22.03853 28.295305 9.3626509 13.049
-22.313753 20.683672 9.7093287 14.333333
-22.309248 20.852163 9.8369389 14.5
-22.369217 23.852865 9.7973499 15.1015
-22.326294 25.513227 9.7718496 13.064
-22.240234 20.746433 10.285346 14.353667
-22.266819 20.83708 10.111938 15.101
-22.088882 21.624872 10.193153 13.0595
-22.392876 22.680132 10.262694 15
-22.301756 22.989801 10.163761 14.056499
-22.252596 23.897425 10.066237 13.0635
-22.06699 29.763014 10.242564 14.0275
-22.31513 20.748011 10.700454 15.05025
-22.303301 21.344713 10.623932 15
-22.236309 29.439932 10.644886 14.04475
-22.330011 20.690628 11.112678 13.666667
-22.276058 21.069429 10.948679 13.775001
-22.175606 21.275663 10.89224 13.016072
-22.379791 23.073797 11.143236 14.0955
-22.395464 23.886972 10.920861 15.101
-22.028452 28.263334 11.07672 14.049
-22.372652 29.550917 10.903543 14.023
-22.122087 29.659639 10.823015 14.032
-22.279142 20.648211 11.491168 14.038834
-22.317909 21.445852 11.348504 15.1005
-22.381487 22.170053 11.561716 15.1005
-22.281725 25.697672 11.221797 14.0605
-22.346748 26.320593 11.37586 14.0635
-22.30518 20.624311 11.742105 14.5
-22.231281 21.402781 11.888556 13.0665
-22.212294 23.616106 11.693377 14.06
-22.270704 24.252058 11.659615 14.062
-22.103697 24.686758 11.885303 12.076
-22.328953 26.955343 11.730816 14.0655
-22.324574 20.713316 12.173195 13
-22.221319 21.285227 12.17966 14
-22.142838 21.734243 12.124669 14.0595
-22.207027 22.580782 12.022779 14.0615
-22.182863 23.031546 12.083091 14.0625
-22.236353 23.910933 12.298988 14.06425
-22.278341 25.456144 12.037745 14.065
-22.125774 21.298136 12.457961 14.062
-22.311937 29.447973 13.862453 15.0095
-22.395935 12.739546 15.072741 15.0985
-22.087627 12.68267 15.41591 15.098249
-21.741228 18.502728 -2.0485792 4
-21.902975 18.85478 -2.0581868 4
-21.816736 19.636951 -2.0038559 1
-21.759642 20.12468 -2.0024137 2
-21.793293 20.449261 -2.0175629 4
-21.836084 22.912203 -2.0545557 1.5
-21.628592 24.195637 -2.0683537 1
-21.906298 13.439537 -1.6854039 3.15625
-21.81949 13.743065 -1.8342094 1.8
-21.657804 14.29574 -1.8858585 2.8
-21.646521 14.738688 -1.865685 3
-21.669298 15.121611 -1.8799603 3
-21.728567 15.415508 -1.8761539 3.2857144
-21.745584 15.738813 -1.8825678 2.8461537
-21.784019 16.096472 -1.8893661 2.7
-21.858664 16.453064 -1.8896911 3.1111112
-21.812986 16.946297 -1.8004344 3
-21.722271 17.410276 -1.8391155 2.1666667
-21.764734 17.824087 -1.8334514 2.4000001
-21.725325 18.203514 -1.8267101 1.25
-21.702662 18.591101 -1.8154297 2
-21.794472 18.941666 -1.8483859 2.5714285
-21.793325 19.355894 -1.7935549 2.3333333
-21.850245 19.78212 -1.774031 2.2857144
-21.834686 20.240629 -1.7491715 3.9738562
-21.924133 20.56813 -1.7707984 3.9857142
-21.826048 20.920124 -1.7400672 3.625
-21.81769 24.437777 -1.7746646 1
-21.631571 25.512751 -1.9607736 2
-21.680285 26.082333 -1.8048748 3
-21.816021 28.165943 -1.6470568 5
-21.714964 29.313713 -1.8383358 4
-21.780247 6.2808175 -1.2454939 5
-21.91361 6.8185091 -1.377126 5
-21.923073 7.3443823 -1.4328634 5
-21.881819 7.820601 -1.3892242 5
-21.777962 12.652753 -1.2136122 4
-21.786436 12.943446 -1.2776191 4
-21.798796 13.509492 -1.2957964 3.7
-21.775791 13.878244 -1.3130686 3
-21.757563 14.375371 -1.2434036 2
-21.678516 14.773458 -1.2524977 2
-21.789404 15.021703 -1.2288232 3.25
-21.802412 15.485229 -1.2990572 3.75
-21.812389 15.873308 -1.3548838 3.6666667
-21.818893 16.230387 -1.3022282 3.5
-21.810789 16.568766 -1.329459 3.5714285
-21.746956 16.9694 -1.3186913 3.6666667
-21.785254 17.399864 -1.3940965 3.2857144
-21.777552 17.880617 -1.3134418 2.5
-21.757051 18.272762 -1.3818904 2.2
-21.789627 18.70961 -1.4613281 3.75
-21.872383 18.996401 -1.4689423 4
-21.717171 19.481733 -1.3365487 6
-21.698669 19.811169 -1.3260851 5.23
-21.793356 20.227213 -1.3667382 4.6493707
-21.849119 20.569567 -1.3488051 4.8311687
-21.776333 20.97747 -1.3529733 3.8055556
-21.763973 21.382122 -1.3756773 1.8333334
-21.887905 22.48406 -1.57576 0
-21.685225 25.581341 -1.412286 3
-21.849957 25.716595 -1.4339134 3
-21.679586 27.468435 -1.528501 5
-21.705662 29.099979 -1.3797226 4.5
-21.774033 29.389656 -1.384475 5
-21.745537 6.3322096 -1.0224183 4.9000001
-21.942688 6.6449094 -0.8887884 5.6666665
-21.750116 6.9692516 -0.89530104 6
-21.950871 7.2256041 -0.98426288 6
-21.98488 8.0301838 -0.88855106 5
-21.861961 9.251338 -0.97164339 6
-21.947248 11.501952 -1.1828473 5
-21.921789 12.203193 -1.0327923 3
-21.770586 12.611978 -1.0455202 4.5
-21.816751 13.058668 -0.87403643 4.375
-21.79109 13.310048 -0.9394303 4.5
-21.690357 13.940104 -1.1870519 3
-21.842562 14.162572 -1.1449652 1.5
-21.705338 14.409716 -1.1875702 3
-21.951292 15.132977 -1.1806929 4
-21.93327 15.418583 -1.1914525 4
-21.869215 15.696191 -1.1975137 4
-21.69939 19.470705 -0.91115785 4.25
-21.732239 19.847691 -0.98095602 3.7068965
-21.82424 20.233055 -0.99195826 4.7337279
-21.871038 20.560919 -1.0042981 4.9373388
-21.823626 20.981644 -0.95375305 4.4584794
-21.834106 21.393316 -0.91797376 5.3129997
-21.773918 29.132824 -1.0607758 5.3333335
-21.819365 29.393314 -0.94686967 6
-21.742447 5.9282408 -0.69043279 4
-21.758751 6.3287396 -0.55712837 5.9545455
-21.848623 6.5173492 -0.63235211 5
-21.868818 7.055974 -0.64920098 5.5
-21.865583 7.3688555 -0.651582 4.6666665
-21.851246 7.7244887 -0.54185379 4.5
-21.675026 9.0098886 -0.53695327 7
-21.819798 9.2777309 -0.70231587 6
-21.984737 11.789336 -0.42015752 6
-21.774948 12.66893 -0.70454901 4.7777777
-21.793564 13.000711 -0.64660132 3.5833333
-21.65991 19.577902 -0.62797874 4.8333335
-21.734207 19.809303 -0.59905475 4.6055555
-21.804914 20.214848 -0.60045171 5.675746
-21.865795 20.585718 -0.56657124 6.1370521
-21.841936 21.003855 -0.59783638 6.1167665
-21.859465 21.410299 -0.57057673 6.3064208
-21.958044 21.639919 -0.67376792 6.7142859
-21.785601 23.234703 -0.58043951 0
-21.919485 24.458578 -0.63613272 1
-21.743525 29.160515 -0.64851022 6.25
-21.766943 29.40354 -0.53367639 6.8571429
-21.73349 5.9512415 -0.17498286 5
-21.776764 6.3254528 -0.1328453 6.6585364
-21.904127 6.4487596 -0.11961865 6
-21.800217 7.8138351 -0.23298898 5
-21.825731 9.7887554 -0.33258045 6.3333335
-21.926073 10.266241 -0.29782659 6.5
-21.849321 10.598637 -0.24530928 6.4285712
-21.84848 11.109407 -0.28248948 6.3333335
-21.814598 11.467943 -0.27866781 6.1666665
-21.798376 11.621477 -0.29255611 6
-21.957209 12.375297 -0.22481522 5
-21.732954 12.602694 -0.23997347 3.8571429
-21.716478 12.859516 -0.3266502 4
-21.643503 19.588028 -0.11066985 6
-21.714081 19.806091 -0.19224559 5.818182
-21.801437 20.220385 -0.20460142 6.8670411
-21.832747 20.590427 -0.15770015 7.1105943
-21.814592 21.006184 -0.17468511 7.0964289
-21.829695 21.407578 -0.16943112 7.2493129
-21.903984 21.640471 -0.14395288 7.6666665
-21.922754 25.943319 -0.18504348 5.55825
-21.871441 26.039307 -0.39083764 8.0745001
-21.769875 29.177202 -0.27562764 7
-21.741154 29.436134 -0.070031211 7.626925
-21.864782 1.0763731 0.2906501 8.0530005
-21.746826 5.9859738 0.33876702 6
-21.769871 6.2955132 0.17084301 7.4751668
-21.64113 6.5224786 0.13122503 6
-21.663815 9.472929 0.33607146 7
-21.936386 9.759799 0.26729897 7
-21.798225 10.600675 0.1097134 6.6666665
-21.983469 10.985443 0.15009615 6
-21.905592 11.326991 0.22422503 6
-21.697407 11.600827 0.087930001 6
-21.701229 12.71094 0.37824038 5
-21.643137 19.54211 0.16760802 7.75
-21.69092 19.767927 0.23552229 7.4871793
-21.790998 20.215416 0.17883889 7.9958153
-21.826113 20.580112 0.19820282 7.9609046
-21.799269 20.999498 0.23026922 7.9613104
-21.857193 21.407242 0.17497234 8.0053797
-21.845608 21.619192 0.13653331 8.6901665
-21.933437 25.902693 0.043346707 8.1230001
-21.963127 26.184689 0.14897899 8.1032505
-21.733681 29.338699 0.24207594 8.1027279
-21.797861 5.8252583 0.6966871 7.31005
-21.751791 6.3046188 0.56153208 8.0839748
-21.751091 6.4455066 0.51512396 8.0044374
-21.858587 11.300138 0.48652232 6
-21.891752 12.551401 0.40163437 5
-21.688431 19.761543 0.60767639 7.8338332
-21.804562 20.235668 0.56458676 9.2344475
-21.849203 20.570477 0.55894041 8.8580894
-21.844481 20.998755 0.54712063 8.7644253
-21.86721 21.433908 0.56099427 9.0959673
-21.890081 21.643612 0.55130577 9.5536499
-21.806067 29.164675 0.70608282 9.0862503
-21.740316 29.350578 0.57123649 8.9207726
-21.820576 0.98829842 0.84883255 9.0530005
-21.800508 5.8870196 0.90805835 7.9183183
-21.775759 6.2856293 0.98160726 8.8246412
-21.714602 6.4214754 1.035488 9.0034647
-21.819292 12.736623 0.89833468 3
-21.715839 19.810619 0.99343163 8.7223034
-21.790447 20.228893 1.0019848 10.339904
-21.847979 20.557083 1.0200658 9.84445
-21.822985 20.992382 0.99930394 9.7904739
-21.859032 21.408543 1.008153 10.224898
-21.946302 21.65307 1.01677 10.5
-21.776363 28.920269 1.1614338 9.1625004
-21.76166 29.404238 0.93139297 9.181818
-21.603397 0.55254048 1.2727315 8.0985003
-21.823627 5.8802977 1.2882961 8
-21.775465 6.2759728 1.3390734 9.7308598
-21.817881 6.4296379 1.4389956 9.9035501
-21.76112 11.550602 1.3892759 6
-21.660965 19.539259 1.4965082 9
-21.692629 19.79121 1.4155722 9.3481007
-21.762278 20.239883 1.4256673 10.800551
-21.817665 20.562931 1.4483935 10.5864
-21.820148 20.997837 1.4293494 10.399623
-21.862263 21.409107 1.4299198 10.919187
-21.903519 21.660067 1.4957072 11.631968
-21.721649 28.884586 1.2166703 9.6560001
-21.739407 29.423365 1.3931938 10.585042
-21.832041 5.8906155 1.8406008 9.0095243
-21.758207 6.2724824 1.787443 10.261229
-21.750975 6.4354892 1.7737604 10.450212
-21.987034 12.20013 1.9595661 9.1459999
-21.661112 19.599949 1.6388247 9
-21.694225 19.836988 1.7973475 10.315017
-21.775024 20.222048 1.7914132 11.595097
-21.822447 20.58852 1.8186538 10.99119
-21.818096 21.020969 1.807089 10.957539
-21.851158 21.410545 1.8237448 11.432298
-21.916908 21.699318 1.8388842 12.425958
-21.7736 29.375359 1.8741901 11.172566
-21.735838 4.4395113 2.3109217 8.0509996
-21.812326 5.9187279 2.2726166 9.3777781
-21.786276 6.2830696 2.1976674 11.664127
-21.78018 6.4378557 2.2061524 11.45765
-21.978045 14.157056 2.3993449 10.164
-21.693527 19.802654 2.1944249 11.176823
-21.788319 20.268929 2.1903508 11.930952
-21.838835 20.583633 2.1831374 11.611258
-21.837368 21.011534 2.1739745 11.605645
-21.858562 21.403225 2.2029483 11.769358
-21.942011 21.672552 2.221077 12.243902
-21.807543 29.067703 2.2999713 10.845375
-21.809006 29.321974 2.2227271 11.786435
-21.83795 5.9006639 2.5540669 9.9285717
-21.8403 6.2515283 2.5689387 11.620527
-21.776434 6.4369416 2.6348407 13.089587
-21.812429 9.4318228 2.7241051 12.586
-21.686085 11.902484 2.7577906 12.931884
-21.789539 12.181876 2.7236681 13.118869
-21.895575 12.429314 2.7089989 13.270251
-21.735929 18.038288 2.5303047 10.1605
-21.79249 19.322767 2.7845259 14.176
-21.701916 19.822548 2.5926106 11.93388
-21.766809 20.260733 2.6058481 12.303627
-21.851627 20.567322 2.6081514 12.351592
-21.817902 20.985928 2.5841346 12.068475
-21.844002 21.385408 2.6047006 12.116957
-21.918692 21.785805 2.6772866 12.7835
-21.843319 22.154814 2.7159767 13.015786
-21.817636 22.622345 2.7279775 13.083376
-21.862652 23.043173 2.7267702 12.585438
-21.787817 23.812956 2.6007359 12.654699
-21.70994 24.210032 2.6631711 13.630124
-21.966152 24.639269 2.6581614 13
-21.749146 25.063152 2.6453226 12.857916
-21.734188 25.341242 2.6809344 13.353072
-21.790535 25.759432 2.6088958 12.623475
-21.76256 26.193844 2.6255777 13.43296
-21.733555 26.60396 2.6328125 13.501058
-21.792227 27.008053 2.6453214 13.895044
-21.732454 27.405886 2.630883 13.037182
-21.756426 27.82963 2.6414897 12.58666
-21.771921 28.189009 2.623105 13.412187
-21.785131 28.564236 2.6896782 13.355181
-21.789301 28.993822 2.6084301 12.143214
-21.786968 29.31106 2.6387544 12.224094
-21.615822 29.624107 2.6517675 11
-21.610018 4.2467828 3.0402398 9.5807505
-21.833084 5.9269547 3.0171292 10.7197
-21.861029 6.2747865 3.0218325 12.843285
-21.775244 6.4538116 2.990025 13
-21.75321 9.3641291 2.8593202 13.1445
-21.889921 11.564429 2.9449692 12.129375
-21.836096 11.811033 2.9464564 13.474923
-21.718147 12.195292 2.8561237 13.315358
-21.821594 12.702144 3.0241995 13.6996
-21.852421 12.920355 3.0642118 14.727
-21.880392 14.17736 2.9385219 14.110001
-21.759787 15.558876 3.0276005 13.6485
-21.77404 15.727063 3.0126665 13.556167
-21.841244 17.93227 3.0400503 13.275333
-21.82658 18.094414 3.0477395 13.471597
-21.942379 19.198147 3.1469626 12.0665
-21.80134 19.21537 3.0326295 13.074
-21.697737 19.843319 3.0085382 12.884615
-21.745573 20.2565 3.0059605 12.881663
-21.821278 20.581852 2.9984844 12.782405
-21.785242 21.029346 2.9525795 12.694041
-21.793098 21.387087 2.9514878 12.410564
-21.800755 21.845436 3.0180221 13.664263
-21.760857 22.225193 3.0110569 13.061559
-21.812654 22.620281 3.0069015 13.256428
-21.802122 23.020281 3.0231843 12.898834
-21.824289 23.310999 3.0111997 12.292001
-21.838469 23.773218 3.0708411 11.7248
-21.749821 24.259787 3.1106265 12.37925
-21.67952 24.610365 3.10394 12.75725
-21.719984 24.92886 3.1133232 12.0845
-21.769802 25.415934 3.1009431 13.392929
-21.749685 25.743961 3.0679746 13.427388
-21.778494 26.15609 3.0932498 13.113562
-21.825983 26.658085 2.9129226 13.642
-21.844265 27.056282 2.955297 13.538857
-21.831593 27.41997 3.0179429 12.839702
-21.793261 27.76623 3.0320008 14.046593
-21.785511 28.211748 3.0832434 12.928416
-21.831284 28.58769 3.0295608 12.741313
-21.768675 29.025091 3.0242624 13.210751
-21.763496 29.320461 2.9910734 13.169277
-21.734306 29.62817 3.1229334 12
-21.733627 5.9225545 3.5272481 11.262688
-21.832802 6.2498164 3.4236925 13.466666
-21.78602 6.4558368 3.4432666 13.363636
-21.831907 9.0199862 3.455209 11.32075
-21.64677 9.3747234 3.4599164 13.053
-21.723919 11.884151 3.3941166 12.748555
-21.669519 12.007158 3.3157094 14.069
-21.983707 12.573548 3.2223337 14.1495
-21.879982 12.962543 3.394732 14.212142
-21.728981 13.380869 3.460247 13.716832
-21.804544 13.714492 3.4838705 14.056749
-21.881395 14.254381 3.4706774 14.057751
-21.671736 14.63906 3.4392383 15.00775
-21.833607 14.950333 3.4692276 14.319937
-21.851332 15.383151 3.4818466 13.596672
-21.772491 15.712842 3.3747721 13.0555
-21.934435 16.161718 3.4395027 14.828562
-21.771706 16.581718 3.5095065 14.3081
-21.770292 17.018847 3.4960165 14.10845
-21.859312 17.403996 3.4566112 14.090349
-21.807074 17.841938 3.4649475 13.800987
-21.827965 18.137711 3.222367 14.0975
-21.674147 18.631056 3.504384 15.174
-21.767307 18.981548 3.4771869 14.157938
-21.758158 19.395744 3.5050364 14.839833
-21.710281 19.852343 3.3721478 13.772779
-21.800446 20.259045 3.3397217 13.757572
-21.861727 20.500681 3.3430145 13.507058
-21.781668 21.007605 3.4370644 12.538462
-21.780289 21.414022 3.4750502 12.51526
-21.789242 21.842119 3.3976629 13.213235
-21.833376 22.231853 3.3979547 13.268911
-21.852514 22.613792 3.376436 13.12214
-21.820477 22.955095 3.3936002 13.136868
-21.815598 23.406532 3.3714697 13.150161
-21.817707 23.817812 3.3586562 13.122604
-21.832743 24.163755 3.3789434 13.230638
-21.863348 24.614582 3.3747666 13.320309
-21.842333 25.037872 3.3406718 13.409416
-21.838514 25.365763 3.351867 13.577748
-21.886045 25.767918 3.3552518 13.520203
-21.919327 26.20812 3.34741 13.482751
-21.938616 26.64982 3.3686786 13.589145
-21.908169 27.01244 3.3646388 13.683633
-21.863306 27.386238 3.4288802 13.369532
-21.766891 27.733791 3.4133604 13.0516
-21.775221 28.161655 3.4604146 13.189159
-21.812071 28.601753 3.3523312 13.415385
-21.784391 28.997828 3.3343112 13.488143
-21.874466 29.351362 3.4193144 13.5
-21.834055 5.9254708 3.6970675 11.51485
-21.901583 6.1639743 3.7540157 13.009182
-21.786287 6.5371537 3.7589335 14.004849
-21.804594 7.1956692 3.7840953 13.03475
-21.626728 7.4139767 3.9341433 14.05375
-21.741484 7.8388176 3.7761457 14.255312
-21.824854 8.2175474 3.8356748 14.026125
-21.68437 8.5767965 3.8284233 14.53575
-21.800508 8.9304705 3.7985914 14.363
-21.759892 9.7523537 3.8570461 14.04975
-21.746269 10.049527 3.6747744 13.5885
-21.696468 10.583481 3.8211248 14.04825
-21.756454 11.511848 3.8392577 13.864801
-21.851803 11.871808 3.7812841 12.698833
-21.717253 12.106843 3.6638761 14.959
-21.788139 12.552023 3.7835453 13.022857
-21.872818 13.100732 3.9441619 15.063
-21.963194 13.397346 3.919405 15.063
-21.793262 13.808296 3.8724947 14.22375
-21.779297 14.258365 3.9089584 14.547
-21.848438 14.649996 3.8830664 14.638049
-21.854469 15.063203 3.8558302 14.710167
-21.796556 15.400432 3.8064225 13.23073
-21.667255 16.028355 3.895252 15.086625
-21.865633 16.596985 3.9111488 14.439916
-21.85066 16.855843 3.85745 14.599251
-21.774586 17.552074 3.8526433 14.544374
-21.763739 17.812664 3.802738 13.085313
-21.606806 18.257002 3.9438879 14.61675
-21.611893 18.556376 3.9235861 15.1085
-21.698416 18.942211 3.9159431 15.036416
-21.802288 19.486309 3.8497269 12.34
-21.700914 19.825148 3.7307842 13.537823
-21.76679 20.146826 3.6978841 13.4
-21.808949 21.018532 3.7702076 12.95931
-21.763931 21.384703 3.7773991 13.19023
-21.775913 21.788162 3.8156137 13.201374
-21.801159 22.196968 3.7666039 13.227417
-21.810411 22.593754 3.7441616 13.494937
-21.80747 23.017923 3.7486832 13.771297
-21.846848 23.34264 3.7349305 13.199083
-21.867449 23.841215 3.7076631 13.695999
-21.846846 24.20472 3.6784191 13.956291
-21.891376 24.585569 3.7347987 13.924022
-21.912939 25.007332 3.7010067 14.230428
-21.93959 25.358995 3.7222517 13.856499
-21.887083 25.810925 3.6586871 13.985358
-21.840462 26.130484 3.6704419 13.975834
-21.863552 26.463484 3.6809762 13.807
-21.817055 26.982046 3.6778898 13.71125
-21.957935 27.276756 3.6781952 15.125999
-21.993004 27.716042 3.6508062 14.628125
-21.767715 28.292324 3.6484706 12.1765
-21.739357 28.578438 3.6003857 13.167
-21.76725 28.864538 3.7279186 13.38
-21.776199 5.9469919 4.1980968 13
-21.827612 6.1662903 4.1942406 13.761875
-21.773373 6.5039225 4.3500323 14
-21.89077 9.322197 4.031518 15.06475
-21.746634 11.411202 4.142952 14.025666
-21.738676 12.018493 4.2296405 15.059
-21.803471 12.592289 4.0955291 13.563188
-21.901083 13.076475 4.1650724 14.686417
-21.926571 13.691565 4.0948009 14.0665
-21.843086 14.263578 4.0645313 14.335812
-21.819319 14.607295 4.0345392 15.0995
-21.925083 14.857102 4.0885077 14.02025
-21.890213 15.863887 4.0492177 14.069875
-21.735481 16.279764 4.0285864 14.087916
-21.928253 16.405708 4.1289625 13.031
-21.783876 17.096178 4.0166898 14.01575
-21.755598 19.840981 4.2285733 10.178
-21.73921 27.210001 4.0007825 15.14075
-21.758959 6.5205002 4.7467713 15
-21.600349 7.5231957 4.5157928 14
-21.767197 7.8006668 4.5059762 14
-21.820866 8.1666079 4.492065 14.019833
-21.960606 8.5845537 4.4783831 14.029
-21.689064 9.5225563 4.4393859 14.0305
-21.765457 9.7773743 4.4278922 14.03
-21.875193 29.443977 4.7697334 11.1505
-21.789501 12.864948 5.3586574 11.1445
-21.8517 19.886477 5.4058909 12.1305
-21.683754 20.259382 5.4170227 11.553599
-21.717581 20.546566 5.448667 11.886375
-21.750948 21.058661 5.4812822 11.8075
-21.670261 21.308716 5.4023952 11.7218
-21.852388 21.654295 5.5212831 11.6375
-21.902706 12.709218 5.9529362 10.0645
-21.851496 19.591707 5.9381032 10
-21.742615 19.801788 5.7489972 11.178
-21.764992 20.364124 5.7247195 12.11075
-21.712385 20.491962 5.7648554 11.147166
-21.843475 21.417765 5.8047018 12.111
-21.805883 21.641027 5.7713017 12.1115
-21.997295 23.959681 5.8689523 10.017
-21.966248 24.592939 5.9085808 10.0205
-21.630482 13.26864 6.3454251 12.169
-21.849173 14.236363 6.3958154 10.029
-21.912519 14.839444 6.3913145 12.1755
-21.87932 15.398249 6.2896132 10.353666
-21.909218 16.090143 6.3294449 11
-21.793634 17.065811 6.3229032 11.17275
-21.629803 17.750259 6.0362582 11.1665
-21.677582 20.119577 6.334446 11.048125
-21.775982 20.478117 6.2081947 10.62025
-21.716198 21.157356 6.3274312 10.0735
-21.72732 21.351507 6.2950397 10.723999
-21.824663 24.029871 6.1384745 12.1695
-21.923929 27.122431 6.1409578 12.1675
-21.86071 29.469755 6.1724615 12.146
-21.791897 29.87875 6.1210408 11.6035
-21.683674 13.706976 6.7021499 12.179
-21.849924 14.24756 6.4637561 11.001
-21.684467 14.474236 6.67242 12.1785
-21.814671 15.080781 6.6579318 12.324625
-21.687725 15.342951 6.713191 12.16
-21.672525 15.805708 6.6315737 12.16825
-21.648727 16.37904 6.6752949 12.15125
-21.767498 16.688385 6.6817055 12.604
-21.665483 17.065136 6.7013359 12.15125
-21.80349 17.528358 6.5927548 12.1765
-21.688238 17.855946 6.690083 12.15075
-21.80908 18.297596 6.5742249 12.176
-21.666933 18.711203 6.5968766 12.157
-21.892233 19.060083 6.5699029 12.1755
-21.6964 19.479788 6.5944762 12.1565
-21.778824 19.846518 6.7107849 12.386875
-21.82472 20.278048 6.5294886 12.01575
-21.718063 20.415661 6.7210379 15.1085
-21.682638 21.329327 6.7666612 12.801167
-21.621357 21.813606 6.706368 12.1415
-21.748085 22.151514 6.7218904 12.63625
-21.620295 22.579269 6.7671757 12.1495
-21.663929 23.073814 6.736166 12.1395
-21.763659 23.444901 6.7447786 12.1395
-21.752968 23.798187 6.6022053 12.1247
-21.757118 24.201763 6.6942234 12.11125
-21.776382 24.594212 6.6165667 12.151
-21.772726 25.029268 6.7491384 12.138
-21.795759 25.410091 6.6123729 12.1455
-21.754278 25.816931 6.7223201 12.139
-21.760294 26.213007 6.7335787 12.1395
-21.775467 26.63957 6.759398 13.116166
-21.618019 26.926273 6.6390409 15.072
-21.785769 27.895439 6.6647034 12.136
-21.83456 28.238279 6.766449 12.13525
-21.823278 28.674837 6.7329636 12.137601
-21.843212 29.04257 6.7720351 12.135501
-21.635408 4.9331541 6.9525962 14.0205
-21.813503 12.5671 6.9431777 13.09675
-21.710896 13.05301 6.999238 14.047501
-21.67651 13.435145 7.0783429 13.309626
-21.686079 13.941582 7.0134754 13
-21.672913 14.164774 6.9575882 13.0573
-21.740862 14.624104 7.0251713 13.247299
-21.742064 14.969635 7.0073934 13.04975
-21.694111 15.4023 6.9969134 13.228833
-21.716009 15.778328 6.9786425 13.033666
-21.739914 16.202669 6.9260888 12.922358
-21.781174 16.582027 6.943862 12.932938
-21.727282 17.041599 6.9564543 13.053082
-21.794209 17.404982 6.94309 13.051083
-21.779047 17.774294 6.9398289 12.832779
-21.794506 18.238468 6.9670835 12.931938
-21.771816 18.620361 7.0166812 13.079573
-21.87438 19.000383 6.9570432 13.0276
-21.862274 19.395151 6.9932508 13.099833
-21.743853 19.759407 6.9779677 12.6849
-21.849686 20.553375 7.0315199 13.108999
-21.739986 21.10984 6.9450707 13.102
-21.767982 21.930824 6.9066143 13.1315
-21.729265 22.054783 6.9047608 13.128166
-21.784279 22.69627 6.9908161 12.587999
-21.698063 23.417995 7.1379066 12.047
-21.634886 23.752213 7.0989108 12.047501
-21.674011 24.19919 7.1554666 12.572583
-21.661541 24.471161 7.1556635 12.046
-21.734735 25.059414 7.1653113 12.046
-21.788456 25.512497 7.1518936 11.177
-21.719824 25.8368 7.1798987 12.044
-21.72481 26.096861 7.1900606 12.045
-21.72579 27.41618 7.1617675 12.04575
-21.751762 28.245794 7.1565771 12.0455
-21.974461 29.562994 7.0157118 12.064
-21.819523 0.32947254 7.3802543 15.102
-21.932941 0.52669823 7.204464 14.1
-21.822668 0.94491673 7.4354053 15.1025
-21.766775 1.3157681 7.2781506 14.1005
-21.951162 12.607633 7.4526725 13.102
-21.741173 15.328883 7.3008099 14.11825
-21.617844 15.74112 7.4266133 11
-21.693829 16.242678 7.4517484 12.0239
-21.717745 16.550903 7.4058218 12.4478
-21.664169 17.011393 7.4309387 11.5
-21.66201 17.398525 7.3898072 12.3735
-21.83749 17.710844 7.3225002 12.55525
-21.679869 18.187777 7.3334732 11
-21.699291 18.812654 7.2634931 13.11
-21.693668 19.579948 7.3714747 12.179
-21.731506 19.823086 7.3255343 12.342667
-21.671881 21.327465 7.2588415 12.084
-21.621939 22.670521 7.4677444 13.1015
-21.627897 23.19039 7.458261 15.107
-21.650423 23.291843 7.3353486 12.630751
-21.728378 24.642654 7.5195427 13.084
-21.700752 25.340887 7.4063306 13.108999
-21.726013 26.647381 7.2022429 12.0435
-21.797241 27.139303 7.4086781 15.0805
-21.833721 27.873648 7.2179108 15.0795
-21.766817 28.306309 7.240643 12.044
-21.828247 29.014988 7.2794757 12.807124
-21.615072 29.835461 7.2841611 12.037
-21.757673 12.87959 7.9127712 11.05975
-21.749043 21.021791 7.6042652 14.104
-21.757565 26.817467 7.6112165 13.0825
-21.769432 27.540539 7.6467981 13.082
-21.782595 28.291925 7.6863732 13.0815
-21.850784 13.003565 8.2580338 12.574249
-21.868408 14.618302 8.2900829 13.0995
-21.869505 16.784697 8.1681499 13.1
-21.786316 18.183231 8.0941553 15.1055
-21.918959 21.180616 8.2923241 12
-21.727245 24.281712 8.2314425 12.0355
-21.838873 24.480204 8.3662004 12.046
-21.999931 21.048769 8.5014343 11.069
-21.943466 21.209082 8.7500286 12
-21.730768 21.695915 8.7249813 12.051
-21.820663 21.136 8.9644423 12
-21.871012 21.238911 8.9974241 12
-21.99017 29.311674 9.2290049 13.041
-21.858377 25.893465 9.8616524 13.037251
-21.955572 26.532068 9.7314768 13.0465
-21.959654 21.232534 10.233767 13
-21.843786 23.825399 10.173635 13.0515
-21.771925 24.344791 10.150303 13.0425
-21.835835 25.757521 10.235993 13.0185
-21.83827 21.28706 10.668613 13
-21.8172 21.282412 10.913857 13
-21.989096 29.286093 10.913712 14.041
-21.933683 25.779573 11.5568 14.052
-21.902964 26.597929 11.409811 14.040251
-21.732906 26.85915 11.540729 14.0315
-21.842274 27.241755 11.424334 14.0405
-21.733028 24.248837 11.919226 14.0355
-21.82519 24.514887 11.996501 14.044
-21.735701 25.089706 11.959598 14.04
-21.766449 21.348854 12.206403 14
-21.826965 23.770636 12.043636 14.0515
-21.832981 24.363531 12.034428 14.048
-21.869442 21.320192 12.612768 14
-21.929945 13.337705 14.856095 14.0375
-21.682867 13.297341 15.216999 14.0165
-21.60062 21.709015 15.493548 15.065
-21.349363 21.075405 -2.7668908 6
-21.260494 17.307459 -2.0167599 4
-21.406349 17.6684 -2.0249038 4
-21.593193 18.146839 -2.0383439 4
-21.480211 20.212725 -2.0474455 4
-21.426538 23.473486 -2.0615761 0
-21.468746 24.689487 -2.0948496 1
-21.418205 12.658533 -1.8177023 2
-21.457676 12.972147 -1.8216923 2.3333333
-21.3363 13.417286 -1.7681674 3
-21.326267 13.793938 -1.8607963 2.5
-21.475971 14.215714 -1.7871734 4
-21.438534 14.535966 -1.800516 2.8
-21.477213 15.005819 -1.846354 1.375
-21.415375 15.409675 -1.8390393 0.66666669
-21.410652 15.788903 -1.8556249 0.80000001
-21.42724 16.203966 -1.8485066 2.6666667
-21.454386 16.569601 -1.8091766 2.3333333
-21.429165 17.01058 -1.8352197 1.4444444
-21.462809 17.430788 -1.8658512 2.5999999
-21.430805 17.823919 -1.8667369 2
-21.34289 18.290146 -1.8919449 2.8
-21.26918 18.679565 -1.9515698 2
-21.380272 18.975941 -1.8609794 2
-21.417292 19.347897 -1.8722011 1.3333334
-21.400246 19.860916 -1.7685121 2.8888888
-21.418711 20.225899 -1.7636081 4.1121798
-21.287857 20.599903 -1.758249 3.4000001
-21.294619 20.865395 -1.7669318 3
-21.375212 21.625931 -1.68453 0
-21.420301 25.225494 -1.9997057 2
-21.453716 25.823544 -1.7459811 3
-21.368832 29.283588 -1.8740225 4
-21.40893 6.6633644 -1.4440402 5
-21.389835 7.1865697 -1.3501985 5
-21.291689 9.1707897 -1.2283386 5
-21.543287 11.994483 -1.2027493 5
-21.562622 12.981679 -1.2220012 4
-21.343683 13.39109 -1.3053282 3
-21.477156 13.679421 -1.2169526 3
-21.4097 14.232723 -1.3131293 2
-21.319241 14.653461 -1.3443916 3
-21.354782 15.025781 -1.3770031 1.6666666
-21.399063 15.385807 -1.4744607 2.6666667
-21.42856 15.750435 -1.422327 2.5
-21.399269 16.173363 -1.4304935 1.4
-21.454437 16.502773 -1.4167075 3.6666667
-21.414299 16.886913 -1.505363 0.66666669
-21.517757 17.375214 -1.4096652 2.25
-21.470434 17.829382 -1.401621 3.5
-21.427156 18.192583 -1.4812608 4.4000001
-21.463669 18.588083 -1.3702136 3.3333333
-21.395021 18.974092 -1.3692046 3.5
-21.521435 19.398895 -1.4018086 5
-21.386583 19.826664 -1.3524868 3.8076923
-21.424286 20.215992 -1.3642111 4.4078541
-21.321154 20.626369 -1.3491827 3.7678571
-21.306702 20.981398 -1.359762 3.5396824
-21.36392 21.442955 -1.3918196 2.4000001
-21.23938 25.524397 -1.5654066 3
-21.257589 25.630056 -1.3330098 3
-21.315432 27.957531 -1.5648875 5
-21.363626 28.204897 -1.5586092 5
-21.466494 29.111315 -1.3880552 4.5
-21.31661 29.368019 -1.4213215 5
-21.440678 6.319819 -0.89904517 5
-21.305096 6.6480384 -0.86707979 6
-21.379887 7.4568782 -0.91036147 5.5
-21.442793 7.6495328 -0.84985214 5
-21.410345 9.0417728 -1.0621667 6
-21.520182 12.655727 -0.88140607 5
-21.405169 13.112208 -0.91693789 4
-21.352535 13.326336 -1.0221583 4.0555553
-21.530277 13.654158 -1.1666168 3
-21.222198 18.919056 -0.89048344 2
-21.318607 19.467733 -0.925924 2.2
-21.363466 19.876024 -0.99813139 4.0653062
-21.400822 20.229034 -1.0292261 4.6995559
-21.321316 20.659079 -1.0508232 4.2880001
-21.318813 21.025539 -1.0662833 4.7595959
-21.336329 21.397367 -1.019956 4.5554004
-21.44117 21.721968 -0.88388902 6.1428571
-21.487207 22.186666 -0.8847307 7
-21.404972 29.127962 -1.0017445 5.5999999
-21.331627 29.367975 -0.98834354 6.0454545
-21.321512 6.3651738 -0.54455703 6.0714288
-21.370893 6.7950902 -0.7693516 6
-21.205978 6.8376937 -0.43991578 5
-21.297548 7.3571286 -0.59254539 5
-21.269331 11.061493 -0.55835885 5.6666665
-21.44932 12.74441 -0.72772491 4.8000002
-21.390953 12.915512 -0.68635798 3.6666667
-21.288126 19.512897 -0.61205894 4.5
-21.378792 19.8475 -0.59650666 4.7982454
-21.388203 20.202263 -0.61321223 5.4044991
-21.33415 20.613684 -0.66433954 4.9514289
-21.314753 20.988817 -0.65579569 5.081336
-21.324106 21.403093 -0.66220742 5.3592596
-21.326645 21.626106 -0.61243778 5.8571429
-21.470322 23.346603 -0.59784251 0
-21.316322 29.045288 -0.59902269 6.3333335
-21.339439 29.369022 -0.50899249 6.8888888
-21.393995 6.3208184 -0.14070819 6.6666665
-21.399235 6.4065542 -0.073788188 7
-21.238291 7.3291235 -0.20692016 5
-21.529205 8.9064016 -0.3771255 6
-21.508535 10.092414 -0.30198541 6.5
-21.486019 10.95906 -0.19382668 7
-21.415516 11.466901 -0.29710749 6
-21.430244 11.639012 -0.38532892 6
-21.396826 12.636604 -0.25311172 4.3333335
-21.493807 12.985677 -0.26507568 3.2
-21.38945 19.751451 -0.18414845 6
-21.387486 20.192179 -0.18212134 6.7380219
-21.32226 20.613575 -0.23630379 6.6014633
-21.304564 21.01199 -0.19528705 6.6285853
-21.318419 21.433912 -0.22878127 6.7187781
-21.322636 21.634333 -0.21615162 7.1666665
-21.408779 26.043001 -0.34098312 3
-21.350599 29.183632 -0.20240931 7.1999998
-21.330156 29.384607 -0.099380761 7.6030998
-21.391773 6.2571764 0.16036937 7.4708624
-21.326336 6.4728527 0.21637967 8.1033335
-21.343716 8.8121433 0.038979534 6
-21.382473 10.01053 0.32993343 7
-21.478165 10.419261 0.34690744 7
-21.271875 11.41605 0.33149165 6
-21.418503 12.495869 0.041033536 4
-21.458302 12.849481 0.34854385 5
-21.372866 19.766146 0.25090387 7.0999999
-21.36902 20.198019 0.20137767 7.90417
-21.291658 20.604677 0.20935115 7.7965493
-21.322592 21.031876 0.2342439 8.0114365
-21.318846 21.411793 0.19489801 7.536531
-21.303473 21.625811 0.15063189 7.694591
-21.28718 28.947136 0.095119409 7.4000001
-21.316557 29.32832 0.17488301 8.0977888
-21.376869 29.752869 0.11381049 8.1450005
-21.447832 5.8214254 0.71830875 7.4250832
-21.396219 6.2840281 0.56810576 8.0170851
-21.35841 6.4429693 0.51168805 8.0806923
-21.449644 11.38183 0.48598319 6
-21.575661 13.155617 0.79557914 2
-21.444672 19.592802 0.7861926 8
-21.387169 19.755215 0.55462807 7.6144443
-21.395086 20.226206 0.58057785 9.2150249
-21.330267 20.626245 0.55161989 9.2363462
-21.330276 21.035982 0.57830942 9.1285706
-21.325476 21.410166 0.57596087 8.9627266
-21.322762 21.644293 0.57890397 9.8823528
-21.271187 28.92164 0.62780792 8.272727
-21.336252 29.359932 0.5639317 8.9712429
-21.369205 5.8486652 0.96203887 8.0168333
-21.408976 6.2827291 0.98714179 8.897727
-21.388256 6.4313412 1.0316346 9.2177858
-21.390953 19.755646 0.96262234 8.2857141
-21.398016 20.220686 1.0020635 10.374854
-21.325382 20.641869 0.96320945 10.719891
-21.336615 21.045574 0.990439 10.532094
-21.331703 21.398359 0.97207099 10.313848
-21.303806 21.649868 0.99641562 11.145687
-21.259443 28.910721 1.0910058 9.02075
-21.328255 29.382038 1.0367855 9.8461332
-21.551785 0.63832915 1.3867276 8.0970001
-21.394827 5.8906593 1.2718619 8.0037308
-21.390385 6.248435 1.309085 9.5352297
-21.452553 6.4457421 1.4468207 9.8631868
-21.509811 11.627326 1.3844889 6
-21.373529 19.773548 1.4202294 9.2399998
-21.384779 20.237272 1.4302324 11.03197
-21.316189 20.610821 1.4231377 10.757452
-21.329069 21.044827 1.4324883 10.505527
-21.343781 21.388657 1.414397 10.819796
-21.364079 21.68585 1.3675469 11.420147
-21.538706 22.078613 1.4213991 8
-21.282253 28.906887 1.3647052 9.125
-21.345547 29.381184 1.3948923 10.331913
-21.399912 5.8768864 1.7948232 9
-21.356915 6.2479153 1.7610176 10.233478
-21.372892 6.4423656 1.7889864 11.00745
-21.308645 9.3712997 1.9323523 9.1490002
-21.541109 11.69461 1.9795834 9.1455002
-21.389257 19.781256 1.7630875 10.078947
-21.388962 20.239159 1.7957202 11.600096
-21.296909 20.597145 1.7756596 11.14176
-21.287802 21.030861 1.801638 11.007216
-21.310919 21.402885 1.7667096 11.489299
-21.288193 21.653542 1.7687026 12.9
-21.269955 28.884836 1.8117725 9.8571424
-21.372799 29.387987 1.8305484 11.034253
-21.441628 4.6283765 2.3423827 8.0404997
-21.372719 5.9100986 2.3033829 9.5100994
-21.398092 6.2497663 2.1664417 10.787319
-21.386557 6.4439783 2.2025304 11.818182
-21.435629 19.772524 2.1715589 10.727273
-21.410095 20.26568 2.1872222 11.777714
-21.293818 20.573439 2.187279 10.985311
-21.294254 21.015451 2.1716542 11.484205
-21.324236 21.377533 2.193295 11.598941
-21.342413 21.72209 2.2363701 12.962577
-21.328676 28.944265 2.338376 10.543938
-21.389532 29.321634 2.2194438 11.677392
-21.377695 29.647877 2.1799526 10
-21.283373 4.3594632 2.797785 9.0834999
-21.410398 5.8940506 2.506547 9.8876247
-21.420738 6.2809396 2.6020668 11.712352
-21.369368 6.457725 2.6189926 12.830349
-21.383503 9.4210606 2.7314618 14.11
-21.288416 11.545781 2.7503986 13.24675
-21.500578 11.792622 2.72158 13.065429
-21.450153 12.249332 2.7315412 13.066188
-21.428827 12.443556 2.7582109 12.895857
-21.208525 17.987848 2.5263655 10.1605
-21.436497 18.013689 2.5119758 10.1605
-21.302065 19.429136 2.7759809 12.038167
-21.378159 19.785353 2.6034615 11.807017
-21.40362 20.261223 2.59354 12.152825
-21.302078 20.539589 2.6050162 12.134583
-21.318237 21.021318 2.584456 11.678499
-21.322302 21.387955 2.6359448 12.33416
-21.395208 21.77923 2.6315367 13.135272
-21.46809 22.243151 2.7334812 12.704459
-21.468624 22.665024 2.7060227 13.002
-21.462965 23.042892 2.7080939 13.225107
-21.451929 23.399712 2.7309978 13.193893
-21.465904 23.759983 2.7486093 13.5336
-21.462219 24.19903 2.6677201 13.656928
-21.457588 24.581638 2.680392 13.600124
-21.453766 24.961231 2.74629 14.478208
-21.513336 25.334682 2.6810043 14.3507
-21.518074 25.800964 2.6979311 14.436178
-21.527395 26.231785 2.6512778 13.453055
-21.503277 26.679558 2.6964989 13.536536
-21.519808 27.016781 2.6602426 13.324901
-21.518171 27.386068 2.6444843 12.077214
-21.505077 27.81679 2.6642189 12.412666
-21.551725 28.223394 2.651098 12.6876
-21.536327 28.649261 2.6720271 12.069571
-21.41785 28.977688 2.5365684 11.065785
-21.384291 29.345823 2.6221242 12.216643
-21.510714 4.2343621 3.0849729 10.080501
-21.392553 5.9408336 2.9976962 10.606934
-21.417309 6.2580023 2.9921091 12.572094
-21.433365 6.445035 3.016567 13.232523
-21.438335 9.5768661 2.8260946 13.018
-21.549093 9.7083502 2.8424504 12.0285
-21.215216 10.322655 3.0426986 14.1545
-21.46253 11.566573 2.9362314 13.151751
-21.488819 11.878943 2.9431465 13.767856
-21.428694 12.207224 3.0206873 13.35757
-21.46233 12.761504 3.093663 14.157249
-21.345448 12.947329 3.070399 14.117295
-21.248436 14.128138 2.956207 13.65975
-21.406322 15.526885 3.0473714 12.815498
-21.357458 15.704309 3.0110853 14.835125
-21.453199 16.963495 2.8570497 12.028
-21.481155 17.946728 3.0765169 12.16925
-21.385544 18.108093 2.9426165 13.653467
-21.525232 19.17634 2.9831359 13.1705
-21.482531 19.361691 2.8060305 12.552999
-21.40954 19.820795 2.9695892 12.382353
-21.414614 20.268473 2.9971044 12.759447
-21.3908 20.581619 2.9718306 11.7
-21.312576 21.066198 3.0495522 12.542962
-21.388645 21.361277 2.9849494 11.525362
-21.447289 21.880398 2.8981187 13.285625
-21.440483 22.15416 3.0092583 13.447804
-21.431063 22.582676 2.986228 13.450876
-21.426109 23.01597 3.002106 13.520765
-21.448458 23.457237 3.0020144 13.289233
-21.441689 23.779417 2.980588 13.473926
-21.447191 24.20108 3.0009501 13.196079
-21.453506 24.576082 3.0124447 13.83325
-21.454016 24.98617 3.0426443 12.928037
-21.480066 25.421207 2.9911914 13.099063
-21.471519 25.804747 3.0402691 13.276584
-21.518648 26.224892 3.0333407 13.303399
-21.497387 26.631212 3.0574856 13.105451
-21.545509 27.042025 3.002913 13.695227
-21.511808 27.415678 3.0393233 13.568875
-21.528297 27.843107 3.0465183 12.747546
-21.496416 28.170248 3.0423245 13.369657
-21.533133 28.662939 3.028811 13.1228
-21.409121 28.975615 2.9960778 12.686114
-21.360668 29.338778 2.9395113 12.4119
-21.463802 29.668251 3.1073637 12
-21.267754 4.1938004 3.30284 10.077
-21.404631 5.9023657 3.4256134 11.41035
-21.386307 6.2428455 3.4229267 12.992111
-21.358398 6.4798069 3.3842623 13.468233
-21.396309 9.0788984 3.5106819 12.075583
-21.356096 11.432404 3.4460924 12.956695
-21.452789 11.876522 3.3502812 12.513126
-21.397079 12.102476 3.3140373 12.653999
-21.384022 12.973039 3.446399 14.551212
-21.360493 13.386894 3.5418448 14.618
-21.367785 13.767424 3.5172529 14.104219
-21.374207 14.156539 3.5168228 14.70875
-21.344713 14.59138 3.533983 14.3835
-21.237265 14.952348 3.5581145 14.827667
-21.40938 15.409531 3.5006206 13.615179
-21.338902 15.718251 3.4806931 14.02925
-21.353577 16.129917 3.5696981 14.36975
-21.409889 16.575197 3.525702 13.602062
-21.303654 16.975763 3.5657384 14.384999
-21.374432 17.361893 3.5714197 14.162313
-21.40048 17.814089 3.4851534 13.324793
-21.481552 18.078619 3.317934 13.5655
-21.597383 18.714878 3.5661335 14.1675
-21.343803 19.013441 3.2928798 14.142933
-21.469322 19.409172 3.3025115 15.007653
-21.394604 19.840549 3.3705211 13.295567
-21.407518 20.208775 3.3568828 13.171083
-21.426569 20.520533 3.2960336 13.666667
-21.309069 21.076099 3.3106208 13.5
-21.353249 21.350798 3.3292601 11.915786
-21.397707 21.788866 3.379452 12.777411
-21.3967 22.190781 3.4030895 12.776982
-21.426699 22.596863 3.4089 12.902197
-21.425434 23.008205 3.3753893 13.150796
-21.404575 23.386633 3.3444176 13.703057
-21.462557 23.809845 3.4018176 13.191472
-21.484934 24.237188 3.4279077 13.091322
-21.467552 24.545122 3.3882384 13.078406
-21.482029 25.024569 3.3938599 12.88165
-21.526426 25.43733 3.3790374 13.039536
-21.510733 25.845398 3.3918011 12.171287
-21.513273 26.283672 3.3895583 11.776125
-21.479935 26.736876 3.544179 12.004999
-21.503571 27.050632 3.378773 11.50975
-21.550224 27.35545 3.3531172 11.598249
-21.520115 27.736828 3.3954754 11.50775
-21.492977 28.184359 3.434732 13.008
-21.561457 28.720263 3.3817225 11.0155
-21.308146 28.973816 3.4031065 12.56885
-21.436325 29.279146 3.3575261 13.358666
-21.417854 5.9203339 3.7205207 11.5
-21.457314 6.173697 3.7238088 13.076923
-21.442999 6.5516353 3.7826669 14.138133
-21.545788 6.8874292 3.9524996 14
-21.493509 7.4870629 3.8205934 14.533751
-21.412971 7.7964025 3.7270312 14.56625
-21.383417 8.1906548 3.7383978 14.717418
-21.522564 8.6096458 3.7591281 14.019751
-21.298895 8.8875227 3.7671592 15.0195
-21.414648 9.6347322 3.7040854 14.10475
-21.421291 11.465416 3.7357163 13.283584
-21.211672 11.609833 3.6936781 13.03
-21.421171 12.582376 3.7948649 13.891796
-21.404465 12.939285 3.6597247 12.53475
