# .PCD v0.7 - Point Cloud Data file format
VERSION 0.7
FIELDS x y z intensity
SIZE 4 4 4 4
TYPE F F F F
COUNT 1 1 1 1
WIDTH 1237
HEIGHT 1
VIEWPOINT 0 0 0 1 0 0 0
POINTS 1237
DATA ascii
-40.453365 194.93434 0.81354904 10.144
-40.473194 193.99294 1.4747794 12.0425
-40.422428 194.01472 1.3306358 11.886307
-40.600636 196.39723 1.488569 12.045
-40.422371 197.58537 1.3763797 10.0115
-40.469303 191.28256 1.724973 11.2695
-40.482121 192.60873 1.9708328 11.0075
-40.558956 193.79903 1.6194311 11.0015
-40.631832 197.49869 1.7378465 12.045
-40.568596 192.71396 2.2431333 12.0165
-40.456161 193.86229 2.2974911 10.0275
-40.662418 194.00812 2.0534952 10
-40.529499 198.69783 2.1887939 11.59
-40.433781 198.83487 2.3692026 11.178
-40.538223 202.87984 2.3972392 12.0445
-40.518208 192.5004 2.4843616 13.0415
-40.632156 193.86061 2.6167996 13.043699
-40.598103 194.03625 2.5656648 13.0445
-40.584457 196.98979 2.4087629 12.0175
-40.798969 198.54016 2.7255785 11.0085
-40.524773 202.43172 2.6448066 12.0415
-40.496475 202.98404 2.4260375 12.044
-40.414787 189.8541 2.9652152 13.0645
-40.728302 190.28261 3.0820467 14.042323
-40.475899 199.93245 2.8257804 12.021
-40.74699 200.24359 2.8935251 11.009
-40.659702 190.94707 3.31341 13.02225
-40.569687 193.26093 3.5513532 14.045
-40.638302 198.71204 3.2491603 13.0445
-40.449772 191.58636 3.9707496 12.1435
-40.653728 191.98331 3.6740282 11.57825
-40.556553 192.91286 3.7500696 14.042999
-40.74646 193.90179 3.8232234 14.042
-40.554794 191.11095 4.2990894 15.045
-40.692402 191.38792 4.2992382 13.024167
-40.524986 191.66948 4.0938978 11.5925
-40.695663 190.64676 4.7909904 13.1725
-40.656208 191.05142 4.4568357 15.041877
-40.686787 191.30515 4.634881 13.1765
-40.663273 190.50627 4.9577656 13.719501
-40.42741 190.85657 5.0242548 13.137
-40.593674 191.46846 5.0088272 15.0295
-40.402554 191.69443 5.1845789 13.1355
-40.493801 190.35336 5.3493557 12.0165
-40.635303 190.61461 5.2097015 15.0195
-40.579227 191.19522 5.7438374 12.683167
-40.449226 191.57982 5.6900964 13.1435
-40.545425 192.71991 5.6760473 15.02
-40.547913 192.93979 6.1275344 15.0165
-40.679783 195.50145 6.1127338 14.0105
-40.701206 197.77043 7.0365639 12.0295
-40.63467 200.13176 7.5255566 13.011
-40.451355 200.01367 7.743947 15.021
-40.073513 180.35838 -5.3778291 6
-40.223934 181.13506 -5.3056989 6
-40.084606 181.67746 -5.3647537 6
-40.399189 182.06874 -5.313086 6
-40.095791 183.80144 -5.3421054 6
-40.176754 184.09077 -5.4193635 6
-40.340115 184.56337 -5.4508891 6
-40.289665 185.02 -5.4289765 6
-40.22221 185.43983 -5.2485013 6
-40.260754 185.72533 -5.2922053 6
-40.216633 186.29187 -5.3952227 6
-40.045444 186.74742 -5.3433142 6
-40.322407 189.54387 -5.4528036 6
-40.185181 191.64537 -5.5694203 7
-40.198219 193.70222 -5.2855306 7
-40.01458 192.7332 -5.0693817 7
-40.340256 192.9843 -5.0372291 7
-40.258766 193.31334 -4.9415998 7
-40.187607 193.9165 -4.8994994 7
-40.195148 194.11401 -4.9927845 7.3536668
-40.134502 194.90544 -5.1256108 7
-40.165901 193.0609 -4.668798 7.27075
-40.202835 193.38622 -4.4746227 7.7241669
-40.268661 193.75298 -4.6124063 7.1373124
-40.386456 194.21831 -4.440423 7
-40.157692 194.96742 -4.5633326 7
-40.27586 195.49663 -4.5593028 7
-40.002739 200.48305 -4.6747031 7
-40.186935 193.52112 -4.3721032 7
-40.387764 193.7753 -4.2444301 7
-40.288406 193.96204 -3.6707375 8.0428839
-40.044262 194.01959 -3.7000093 8.0439997
-40.08511 195.32806 -3.7857635 8
-40.172459 193.70093 -3.2684443 8.0565004
-40.348808 194.01741 -3.4257743 8
-40.053383 195.17805 -3.4697914 8.0450001
-40.05706 195.2403 -3.4997122 8
-40.245541 201.32393 -3.3860621 8.1365004
-40.015495 193.44301 -2.8193412 8.1464996
-40.286949 193.83372 -2.9206393 8.1080008
-40.344883 194.00432 -3.0827186 8.1409998
-40.267857 198.12665 -3.078619 8.1415005
-40.218498 193.76344 -2.7675588 8.0080004
-40.166313 194.56129 -2.4452167 9.0434999
-40.077602 194.94522 -2.4844043 9.0219994
-40.098881 198.10791 -2.4890544 8.5284996
-40.175514 198.44539 -2.7492423 8.0089998
-40.023285 200.97285 -2.7196076 8.0089998
-40.031784 201.54884 -2.7356794 8.0094995
-40.344639 194.64189 -2.2223349 8.5229998
-40.066463 194.88359 -2.2393322 9
-40.092781 197.86382 -2.0680459 8.5290003
-40.296074 198.10355 -2.1341729 8.3594999
-40.132664 200.69511 -2.195121 8.7782497
-40.236378 200.95004 -2.2161596 8.6971664
-40.055309 194.70312 -1.7855339 8.5127506
-40.328629 200.66661 -1.6576796 9.0179996
-40.058758 201.05394 -1.9814376 9.0179996
-40.084232 194.62755 -1.2403128 10.021999
-40.340511 194.87083 -1.5553818 9
-40.190697 197.37991 -1.3793525 9.1367493
-40.287113 192.4062 -1.1523654 10.0295
-40.009502 194.30257 -0.95443767 10.0415
-40.037518 194.61536 -1.080138 10.030937
-40.306145 197.13995 -0.99107891 10.041
-40.055862 198.60048 -1.0400666 10.04575
-40.29388 198.07524 -0.65139419 10.035749
-40.079391 198.51588 -0.67705846 10.0415
-40.105923 194.34334 -0.038842734 11
-40.012077 191.6906 0.022569004 11.041
-40.095295 194.28564 0.15183488 10.8178
-40.135231 194.61075 0.16322048 10.892715
-40.174522 196.24493 0.27321967 11.042499
-40.306381 193.81993 0.43847603 10.141
-40.394432 196.13371 0.47044355 11.0405
-40.274559 198.50046 0.7012257 11.0425
-40.256931 199.30507 0.48950267 10.137
-40.24036 193.30214 1.0912123 10.0105
-40.171768 193.88811 0.80433476 10.1535
-40.061554 197.23787 1.0465755 10.154
-40.059067 193.1142 1.2980314 12.043749
-40.12888 194.14999 1.3447958 11.955291
-40.018051 195.09375 1.3853738 12.044
-40.253635 191.45638 1.7393345 11.0675
-40.26046 192.94237 1.677786 11.731334
-40.391342 194.11963 1.898223 11.177
-40.147633 198.97823 1.9614737 12.042
-40.029537 191.96356 2.2384515 13.042001
-40.198032 192.65816 2.3274107 13.04475
-40.072746 191.42976 2.723577 13.0285
-40.213284 191.99538 2.4209027 13.04
-40.020294 192.6651 2.4827709 13.043
-40.169872 193.6902 2.5294018 13.041501
-40.387951 194.13821 2.5905981 13.042497
-40.264435 198.68143 2.4798911 11.009
-40.310226 202.48418 2.4191425 12.043
-40.059181 189.78075 2.9730077 13.7985
-40.20306 189.9538 3.227073 13.0155
-40.065113 190.32498 3.4536746 12.13725
-40.148209 190.45564 3.3361094 13.090124
-40.383423 191.20392 3.2419608 12.136
-40.222828 191.76024 3.4533639 13.021
-40.294556 199.0117 3.5274158 13.045
-40.017117 190.15588 3.7925527 12.143
-40.271992 190.91458 3.8904579 12.153
-40.097038 191.50322 3.9197168 11.0225
-40.281738 191.64433 3.7735314 11.5935
-40.110207 202.61511 3.8481839 13.04525
-40.259708 203.90913 3.7080648 12.0185
-40.066975 190.44267 4.3053951 15.0415
-40.365879 191.02161 4.3561301 15.0435
-40.129642 195.4657 4.147325 13.025499
-40.274979 195.65804 4.361753 14.0415
-40.279102 196.2359 4.035902 12.137
-40.006702 202.52916 4.1020966 13.044
-40.233376 190.51714 4.4489675 15.041
-40.0392 191.43428 4.6522179 15.042
-40.026886 191.89981 4.6716032 15.041374
-40.127045 191.51469 5.0811696 13.08875
-40.351009 191.65143 4.984941 13.542
-40.081242 191.51366 5.2965283 14.0575
-40.236477 191.76291 5.3508778 13.099
-40.347221 191.04773 5.8835263 12.0225
-40.209003 191.36752 5.7398653 14.397
-40.129002 192.97208 5.8683066 13.1465
-40.0173 195.81993 6.4436007 13.1575
-40.225998 197.84703 6.7853198 12.024
-40.226704 198.01447 6.8681426 15.021
-40.190838 199.48586 6.9842381 13.1475
-40.213943 199.22542 7.2365899 12.0295
-40.074177 199.96431 7.5712304 14.0025
-40.390575 199.96339 7.6238284 13.151
-39.603432 180.37758 -5.2281156 6
-39.873947 181.18541 -5.3428116 6
-39.690243 181.21175 -5.2856956 6
-39.664337 182.07152 -5.3326812 6
-39.778526 182.65479 -5.3395052 6
-39.812939 183.90598 -5.3698487 6
-39.755035 184.26091 -5.4336338 6.0999999
-39.853592 184.62891 -5.3970137 6
-39.834816 184.89418 -5.4152279 6
-39.860325 185.27678 -5.2813506 6.1999998
-39.788689 185.68217 -5.4481139 6.5
-39.92017 191.10205 -5.6000471 7
-39.924355 194.3022 -5.2345638 7
-39.838562 195.4615 -5.2829523 7
-39.957127 192.78845 -5.0045805 7
-39.817841 193.06491 -4.8590465 7
-39.87685 193.96188 -4.9685965 7
-39.844265 194.13187 -5.0285697 7
-39.672966 194.43878 -5.1804752 7
-39.728031 197.1693 -4.9218221 7
-39.616264 200.6086 -4.9341784 7
-39.947594 193.03346 -4.6833301 7
-39.989853 193.21339 -4.4394341 7
-39.759888 193.8699 -4.6632209 7
-39.865997 195.291 -4.4515676 7
-39.854538 200.45151 -4.638134 7
-39.930698 193.51372 -4.264133 7
-39.713547 193.76509 -4.2971768 7
-39.726864 193.81985 -3.6759045 8.0418663
-39.90451 195.30789 -3.7016222 8.0289288
-39.73494 193.3916 -3.2597027 8.0561666
-39.882607 193.75755 -3.3971243 8.0891247
-39.94062 195.24815 -3.5069673 8.045167
-39.771454 200.25522 -3.4413471 8.0651665
-39.709949 193.51091 -3.1249006 8.1389999
-39.826855 200.41708 -2.8737397 8.0749998
-39.988544 194.93834 -2.420588 9.0345831
-39.786922 198.01811 -2.6164455 8.6092501
-39.740105 200.44479 -2.7806637 8.1739998
-39.953812 200.9176 -2.7710164 8.0085001
-39.787159 201.37383 -2.6429672 8.0782499
-39.601589 193.62476 -2.3834479 8.0124998
-39.973148 194.88083 -2.3504128 9.0289288
-39.829811 197.91399 -2.2039671 9.0452499
-39.926044 198.05724 -2.3595624 8.0135002
-39.872059 198.98317 -2.2779915 9.0227499
-39.948143 200.68661 -2.1225479 8.3571663
-39.787716 200.80739 -2.2450421 9.0423422
-39.996143 194.66434 -1.930832 8.0275002
-39.953678 194.8026 -1.6903974 9.1355
-39.635822 200.68013 -1.991518 9.0430002
-39.95715 194.58504 -1.2584749 10
-39.927544 197.29253 -1.4075284 9.0105
-39.998505 194.40491 -0.95257038 10
-39.951973 198.57547 -0.9962275 10.04425
-39.748001 192.26323 -0.51311511 9.0815001
-39.876373 198.42383 -0.76935887 10.044
-39.729599 191.87466 -0.27076393 10.031
-39.958561 194.33611 -0.027087556 11
-39.891594 192.91948 0.053814866 11.044
-39.873135 193.81554 0.20718129 10.437667
-39.968254 194.26231 0.21386266 10.5795
-39.928299 194.58163 0.30645421 10.726501
-39.663658 195.04327 0.16783002 11.042
-39.799156 196.04764 0.27856073 11.0405
-39.95948 198.59027 0.45109355 11.0435
-39.898556 193.40765 1.098889 12.045001
-39.885525 193.14764 1.2050695 12.042001
-39.728634 193.4059 1.325209 12.04075
-39.749863 192.9369 1.8142238 12.01775
-39.941395 194.95613 1.626732 12
-39.990376 191.99887 2.2876177 13.039999
-39.982719 192.78859 2.2371449 13.0445
-39.79187 196.49577 2.3983982 11.008
-39.625198 198.72009 2.2267513 10.0165
-39.623501 190.85614 2.6566029 13.028
-39.963951 198.46385 2.5925195 11.0085
-39.729683 200.30371 2.5346911 12.0585
-39.608841 203.98305 2.4360626 12.0455
-39.945129 189.7597 3.0766897 12.135
-39.627571 190.44849 3.0581014 14.0435
-39.783646 191.6879 3.1388907 13.0625
-39.627087 195.79858 3.07061 13.041
-39.888481 199.9541 2.8991392 11.0085
-39.628468 203.91101 2.8607333 12.0405
-39.633083 189.72792 3.4256949 12.006
-39.847145 190.07686 3.4148448 12.070999
-39.710419 190.60706 3.2708921 13.767427
-39.825344 191.88936 3.452044 14.041
-39.893871 190.21338 3.748749 13.405334
-39.735634 190.75911 3.8598204 11.02
-39.932091 190.84833 3.9262774 12.1565
-39.791061 189.77522 4.0049915 11.0265
-39.859215 190.63724 4.2378287 12.4195
-39.758392 191.59248 4.216855 11.0275
-39.640022 191.79338 4.1838593 11.027
-39.70018 192.52795 4.1531801 14.028666
-39.728172 204.53577 4.2570534 13.044
-39.797565 190.43594 4.4393954 11.026
-39.688168 191.54457 4.7510281 15.0395
-39.86755 191.7558 4.580555 13.526501
-39.733109 192.63773 4.5787001 12.1495
-39.769157 191.56325 5.0620012 14.082001
-39.736649 191.60805 5.0372629 12.012
-39.809814 191.15608 5.5675044 11.0215
-39.864071 191.4548 5.3615685 12.6356
-39.607372 191.64078 5.3595705 13.137
-39.964371 191.37637 5.7690897 13.007
-39.687817 194.94545 6.5745549 12.515249
-39.803555 195.25563 6.8011475 13.15
-39.839302 199.42104 7.4393291 13.51125
-39.81205 198.97438 7.6445398 13.0115
-39.343853 190.5049 -5.6009641 6
-39.418373 180.51262 -5.3777223 6
-39.571178 181.20338 -5.4004388 6
-39.32497 181.75714 -5.3842301 6
-39.462505 182.02904 -5.3032832 6
-39.325413 182.78011 -5.3670282 6
-39.470867 183.86653 -5.3974791 6
-39.251068 184.29202 -5.411304 6
-39.420948 184.65485 -5.4126515 6
-39.358768 185.01299 -5.4247684 6.0666666
-39.368046 185.2226 -5.244875 6
-39.445309 185.7814 -5.2853618 6
-39.277779 186.39212 -5.3393564 6
-39.321796 186.77315 -5.4616342 7
-39.339249 187.05617 -5.3161359 6
-39.382599 188.46709 -5.4000859 6
-39.528629 195.04503 -5.2170796 7
-39.489319 195.22615 -5.3487916 7
-39.502029 197.33893 -5.2499423 7
-39.486622 193.88435 -4.9045339 7
-39.276939 194.62593 -4.9350991 7
-39.322685 195.00403 -4.9781919 7
-39.598335 197.18102 -4.8606601 7
-39.41404 197.24814 -4.802671 7
-39.231056 194.97066 -4.7413859 7
-39.334526 195.41913 -4.5248656 7
-39.304901 192.79868 -4.38873 7
-39.499992 193.69131 -4.3611588 7
-39.381432 193.93286 -3.6633551 8.0410004
-39.237099 194.44722 -3.775008 8.0450001
-39.276237 197.74466 -3.7420859 8.0434999
-39.447441 200.32704 -3.8167787 8.0227499
-39.409523 201.4449 -3.8209636 8.0450001
-39.453545 193.13776 -3.4454594 8.0190001
-39.292976 193.37283 -3.2883062 8.1361666
-39.380363 193.86395 -3.5105474 8.0830002
-39.255943 194.42583 -3.4544368 8.0424995
-39.455677 197.67351 -3.4740405 8.031126
-39.487373 200.15781 -3.5896831 8.0174999
-39.390076 201.46025 -3.3562677 8.1364994
-39.378185 192.58171 -2.8171666 8.1459999
-39.430256 193.44057 -3.0021284 8.1405001
-39.561325 193.71283 -3.1933575 8.1370001
-39.427364 193.6431 -2.6604366 8.6082497
-39.439747 200.09872 -2.4091191 9.0454998
-39.360039 201.45186 -2.6692145 8.0085001
-39.397633 193.50154 -2.2772753 8.5279999
-39.472607 193.60228 -2.3196819 9.0454998
-39.302982 195.64272 -2.0217016 9.0194998
-39.482384 199.85193 -2.0620551 9.0445004
-39.288265 200.15419 -2.142045 9.0429993
-39.255413 200.45605 -2.3812726 9.0445004
-39.396961 200.6337 -1.9768822 8.6938334
-39.247581 194.87958 -1.2535816 10.04525
-39.403488 197.50243 -1.2021239 9.1409998
-39.489738 200.78223 -1.3074888 9.1365004
-39.257454 200.86464 -1.4410063 9.1365004
-39.313644 194.93159 -0.96112722 9.8179998
-39.219009 196.33495 -0.87934554 10.0235
-39.266556 196.58492 -0.65743273 10.029
-39.399715 197.50746 -0.57616365 9.0109997
-39.313686 191.47771 -0.20008624 11.044001
-39.449081 191.85989 -0.14810444 10.741666
-39.257599 193.8773 -0.066953354 11.045
-39.278133 193.79776 0.23614673 11.0415
-39.498394 195.30171 0.23848879 10.527
-39.343189 196.08081 0.20578523 11.0435
-39.397312 197.2854 0.35561764 10.1365
-39.471149 195.83403 0.67475802 11.029
-39.365044 196.95566 0.47143298 10.5905
-39.307621 194.97667 0.9142909 10.0075
-39.265995 195.84999 0.90526515 10.1435
-39.521439 193.36111 1.2933526 12.040376
-39.35976 191.84676 1.8521272 11.512751
-39.364101 192.27238 1.8404742 11.1355
-39.507942 193.34134 1.7454927 12.0285
-39.21122 195.97292 1.9591478 11.011
-39.574486 196.84193 1.8097967 12.0445
-39.224506 191.9933 2.1061206 13.045
-39.396603 192.17842 2.326503 11.153
-39.393902 192.86742 2.1368327 12.02575
-39.304619 196.51166 2.2922099 11.1365
-39.537159 196.82457 2.2525229 11.136
-39.5453 198.79196 2.1620941 11.002
-39.26112 200.78371 2.0458698 12.0445
-39.388405 190.39665 2.6832805 10.022
-39.38863 191.27716 2.5261178 13.0285
-39.356651 192.5027 2.5097957 13.0405
-39.346046 192.97771 2.5687902 13.0415
-39.408642 193.67104 2.5844674 13.0435
-39.424313 200.42082 2.5470169 12.021
-39.367638 203.87535 2.6100278 12.041667
-39.46526 190.44057 3.1403952 13.62757
-39.497932 191.47466 3.0809109 12.682334
-39.520039 193.2928 2.9253228 11.1495
-39.276737 199.96132 2.9332917 11.008
-39.586945 200.15697 2.8945572 12.0205
-39.484932 189.93701 3.3501406 11.593
-39.593773 190.30438 3.2637243 14.0405
-39.591843 190.86932 3.2385402 14.041503
-39.44619 191.36018 3.3494916 14.0435
-39.454144 191.79106 3.3945649 14.043249
-39.403763 189.63585 3.6829691 14.0275
-39.430511 190.17833 3.7975175 14.022
-39.524521 190.89154 3.7052948 14.0285
-39.567043 194.5032 3.8988905 14.043
-39.460228 190.51561 4.3150768 14.078
-39.257313 191.35689 4.007884 12.1525
-39.47459 191.81998 4.1581678 14.02075
-39.563297 194.43967 4.0112433 14.039999
-39.599361 195.59961 4.1926427 14.042001
-39.286251 203.38408 4.3691864 13.042
-39.476212 190.1183 4.6561675 13.0065
-39.466522 190.60977 4.4391918 14.703666
-39.241211 190.8501 4.4431605 14.015
-39.450878 191.91844 4.6897554 14.984058
-39.416237 191.54745 5.0862961 14.10025
-39.458111 191.90106 4.9899006 13.049832
-39.427925 191.46353 5.4833651 14.51375
-39.545483 191.62346 5.3854594 15.0225
-39.473095 191.13078 5.8678217 12.679334
-39.427425 194.63541 6.3456521 13.0075
-39.315098 195.1266 6.3695807 13.157
-39.412834 194.77504 6.4413533 12.023
-39.319626 195.05815 6.6913791 12.0285
-39.465515 194.93347 7.0020928 13.0105
-39.328873 199.4709 7.5373797 14.002
-39.577171 200.22983 7.2841859 15.0245
-38.824799 180.63719 -5.4251142 6
-38.867912 182.15034 -5.3588347 6
-38.927521 183.83368 -5.4127169 6.2857141
-39.149265 184.18857 -5.4871845 6
-38.929344 184.67433 -5.3957825 6
-38.903728 185.03337 -5.4112034 6
-39.120869 185.32271 -5.3574247 6
-38.996925 185.63274 -5.2761636 6
-38.972504 186.01477 -5.4205837 7
-39.198093 186.69496 -5.4586797 7
-39.047882 187.18864 -5.4373002 6.5
-38.805046 187.45853 -5.490243 7
-39.077408 195.50754 -5.3368697 7
-39.189011 192.73085 -5.0413551 7
-38.840824 193.68626 -4.9066291 7
-38.815308 194.22151 -5.1535063 7
-39.026188 194.72658 -5.1194749 7
-38.90926 196.53564 -4.9342842 7
-38.853386 192.60559 -4.4298711 7
-38.941265 193.25011 -4.5351601 7
-38.924137 193.91724 -4.6115351 7.7080002
-38.855297 196.46371 -4.7339196 7
-38.978619 197.50218 -4.5944972 8.0725002
-38.999157 200.64592 -4.6715984 7
-39.040951 192.58333 -4.3649325 7
-38.840256 194.54333 -4.2167778 7
-39.136978 193.97513 -3.7255566 8.0194998
-38.925617 194.49292 -3.6816905 8.0424995
-38.846622 197.63208 -3.690006 8.04
-38.826752 192.92401 -3.4640315 8.0426664
-38.983456 193.33061 -3.391629 8.0757504
-38.902615 197.57166 -3.4470108 8.0395002
-38.975555 197.63782 -3.467309 8.0290003
-38.898067 201.36633 -3.2251928 8.1379995
-38.803558 201.07191 -3.0256557 8.1400003
-38.905987 201.38087 -3.1098311 8.1389999
-39.082996 192.45949 -2.7617667 8.007
-38.99736 196.17625 -2.7603748 8.1435003
-39.081905 198.0249 -2.6004791 8.1610003
-39.076122 194.1649 -2.0527279 9.0190001
-38.877953 195.47725 -2.0853457 9.0284996
-39.015141 197.92732 -2.2251465 8.1499996
-39.159637 199.95145 -2.1222084 8.5307503
-39.078403 200.09145 -2.2591379 9.0421915
-39.047131 200.58289 -2.1049094 9.0450001
-38.917656 200.68394 -1.9846607 9.0424995
-38.880421 200.84166 -1.9395367 9.0295
-39.05542 193.81387 -1.592544 9.1350002
-39.139851 197.62718 -1.4135652 9.1365004
-39.042747 194.90762 -1.1117666 10.041501
-39.028252 196.70047 -0.8966552 9.1435003
-38.979996 197.31013 -1.0276058 9.8045006
-39.000622 196.53233 -0.51373321 10.0195
-38.851826 197.18803 -0.75096381 10.0405
-38.993382 201.4239 -0.1766196 9.1505003
-38.992088 193.83992 0.014146016 11.0425
-38.968109 195.41838 0.22804154 11.04171
-38.929695 196.14897 0.15118909 11
-38.874874 196.9897 0.21099432 11
-39.075459 197.27432 0.25628239 11
-39.102345 195.47705 0.42367795 11.04
-39.023731 196.82184 0.73112357 11.06
-39.002197 196.68092 1.5365707 12
-39.162182 191.72556 1.9473517 11.0065
-38.857121 196.54852 1.7173666 12.031102
-38.866634 191.91879 2.2654142 13.041392
-38.944866 192.14787 2.2025831 11.53525
-39.135845 192.51555 2.3716097 13.0405
-38.973537 194.98933 2.362891 11.13925
-38.957195 196.09276 2.0108082 11.1355
-39.160816 198.77809 2.3686039 12.0205
-39.105598 200.61882 2.2182379 12.042999
-39.189323 200.84241 2.0797894 12.044
-39.096577 190.46457 2.5573473 13.027667
-39.088596 191.01688 2.6801875 13.022
-39.08736 191.797 2.4196258 13.039
-38.845093 192.08421 2.4266512 13.041
-39.189419 192.88417 2.5269978 11.1565
-39.095387 194.38304 2.6453412 11.153
-38.937637 196.09076 2.787292 13
-38.96143 200.71559 2.4866493 11.1355
-39.13113 204.30354 2.7576766 12.045
-38.877991 191.41122 3.0840921 13.018167
-39.049648 191.80956 3.083034 13.062
-38.822216 192.69429 2.8883011 11.149
-39.075962 196.20921 2.9884946 13.0225
-38.804733 200.213 2.9728725 11.008
-38.889751 191.45837 3.3772161 14.043
-39.000328 191.87492 3.3795462 13.407333
-39.157307 192.06364 3.4166341 14.0425
-38.881573 197.63214 3.4194138 13.0395
-39.098015 201.28604 3.5981944 11.0105
-39.085812 201.44585 3.7636223 13.04325
-39.129433 203.22237 3.9722507 13.044
-39.132202 190.28563 4.3223948 15.04053
-38.906277 190.98128 4.2308717 11.027
-38.839611 194.1981 4.3319602 12.146
-39.162399 195.27415 4.282362 14.0415
-38.946098 203.26665 4.3389988 13.0425
-38.87648 192.43327 4.8930593 15.042
-39.057133 193.3701 5.4836321 13.13525
-39.155865 191.08363 5.8710494 15.015
-38.856525 194.50066 5.7469153 13.136
-38.845963 200.073 6.7756152 13.008
-38.92767 194.4021 6.9417863 12.027
-38.855362 198.40222 7.1309218 12.029
-38.899437 199.84593 7.0523791 13.008
-39.045097 198.50938 7.2950568 12.0275
-38.951275 199.04857 7.2989516 12.028749
-39.028343 199.2948 7.2576332 15.0205
-38.720669 190.89992 -5.680161 6
-38.768631 193.13858 -5.6176376 7
-38.596951 195.52585 -5.7463493 7
-38.671318 180.02066 -5.4190717 6
-38.759182 181.95018 -5.3175478 6
-38.439087 182.0511 -5.4196854 6
-38.707203 183.30652 -5.4429021 7
-38.479836 183.86543 -5.4573784 6
-38.75481 184.19041 -5.4287882 6
-38.793736 184.79929 -5.4210978 6
-38.574139 185.04974 -5.3235607 6
-38.534695 186.85486 -5.4483752 7
-38.709526 188.21136 -5.5412102 7
-38.548523 192.31732 -5.5665793 7
-38.763508 196.60152 -5.2072339 7
-38.652218 197.83926 -5.3473697 7
-38.697758 194.38106 -5.003099 7
-38.716484 196.52632 -5.0141945 7
-38.505451 197.92561 -5.0565619 7
-38.516205 193.86227 -4.5991316 7
-38.680183 194.09169 -4.6908908 7
-38.519489 194.55638 -4.5268521 7
-38.45055 194.82144 -4.5776105 7
-38.754398 196.4608 -4.7591448 7
-38.446503 194.17728 -4.3464551 7
-38.426529 198.64983 -4.1773968 7
-38.501671 193.0032 -3.6571605 8.0382137
-38.730019 194.43808 -3.6634209 8.0402718
-38.721767 193.01466 -3.4532082 8.0887508
-38.48135 196.33502 -3.4561954 8.0284996
-38.569382 192.32599 -2.8126409 8.1455002
-38.491837 196.46979 -3.0790713 8.1379995
-38.561588 185.99875 -2.6096497 8.1545
-38.433117 192.32141 -2.7033839 8.0059996
-38.793919 192.56682 -2.7468927 8.0065002
-38.720158 193.10564 -2.7364235 8.0100002
-38.637836 193.34138 -2.7690244 8.1660004
-38.435497 193.6658 -2.6450498 8.1525002
-38.667698 194.10686 -2.5919061 8.1582499
-38.659946 197.83159 -2.512167 8.8250008
-38.77322 200.35992 -2.6707578 8.0080004
-38.49966 200.4026 -2.7273281 8.0085001
-38.485195 185.89207 -2.2280073 9.0159998
-38.496223 193.81677 -2.2643814 8.3580008
-38.468418 194.04166 -2.2069831 8.355834
-38.589291 195.1093 -2.1607156 9.0404997
-38.612129 195.82623 -2.2106459 9.0430002
-38.452602 196.46489 -2.1776547 8.0170002
-38.549023 197.72734 -2.2928367 9.0415392
-38.539143 200.66058 -2.1830933 8.896143
-38.597637 193.64653 -1.7038887 9.1355
-38.570152 197.59381 -1.6309547 9.1350002
-38.734528 197.85129 -1.7085798 9.0165005
-38.620518 200.56505 -1.9881517 9.0405006
-38.514992 196.50131 -1.3548951 9.1365004
-38.766731 197.45888 -1.414883 9.1359997
-38.464649 196.28705 -0.98338908 10.038749
-38.787609 197.11166 -0.81955463 10.044
-38.718182 197.31783 -0.98575395 9.8870621
-38.400986 197.65079 -0.96186858 9.0074997
-38.604214 199.36501 -0.89428347 9.0077496
-38.644234 199.7677 -0.96036679 10.044499
-38.662884 201.30283 -0.055706635 9.0150003
-38.637199 195.52507 0.22621983 11.040916
-38.555359 195.71848 0.25080994 11.04025
-38.536793 196.0249 0.27019337 10.136
-38.697384 197.03813 0.23287779 11.0145
-38.759605 195.56575 0.51571846 11.023
-38.40889 196.55455 0.53201002 11.041
-38.695839 197.31194 0.4266668 11
-38.468285 196.96095 1.0505518 10.1605
-38.434639 200.48207 0.82955498 11.043
-38.709454 196.04843 1.5328074 12.043
-38.5886 196.63676 1.539351 12.021749
-38.616241 192.15465 1.6385258 12.0185
-38.686039 195.17619 1.9055449 11.0105
-38.58128 196.55786 1.7406447 12.04175
-38.681072 191.86418 2.3023782 13.0395
-38.65189 192.52449 2.1990902 13.0445
-38.61668 196.22372 2.0462282 11.579
-38.756702 200.68666 2.1308172 11.0105
-38.603165 200.89546 2.0780141 12.04425
-38.729874 190.80728 2.571605 12.008
-38.580898 193.96173 2.78091 13.04
-38.737385 191.33966 2.9536138 12.0095
-38.560459 191.45039 3.2800593 13.08875
-38.545441 191.92216 3.4545593 12.049667
-38.568649 192.36266 3.5737846 12.1345
-38.669067 197.68448 3.2285595 13.041503
-38.681465 201.27803 3.3923163 11.0085
-38.416176 192.32657 3.7548604 14.0385
-38.592827 193.06067 3.8224173 13.565125
-38.569725 193.21962 3.9483962 12.14
-38.795662 193.71181 3.9378951 14.042
-38.544319 194.03885 3.9167731 14.041
-38.662521 190.81038 4.272141 11.024
-38.561802 191.21568 4.0564246 13.008
-38.759251 193.99353 4.0837922 14.039
-38.459427 192.37296 4.7703934 14.018
-38.54269 192.50827 4.7657309 15.042
-38.769917 192.45958 4.9733977 15.04
-38.513603 195.49364 5.6883283 15.041
-38.497952 194.87776 6.7096176 14.0005
-38.786221 200.47322 6.5813107 13.1735
-38.575722 194.88474 6.8693347 12.0275
-38.554642 199.86438 7.0188389 12.0195
-38.387165 195.51393 -5.7398376 7
-38.320942 180.55695 -5.4298706 6
-38.285309 181.55086 -5.454061 6
-38.162399 181.73178 -5.3216166 6
-38.190441 182.01041 -5.3699498 6
-38.214855 182.60368 -5.3653421 6
-38.304588 183.09627 -5.3513222 6
-38.338905 183.87712 -5.3835535 6
-38.276745 184.16574 -5.4312949 6
-38.342392 184.63051 -5.4577246 6
-38.162094 184.97049 -5.4365616 6.3333335
-38.175343 185.50572 -5.4225488 6
-38.210476 185.90616 -5.3479285 6.6666665
-38.334728 186.64708 -5.3512201 6
-38.07793 187.11781 -5.3628697 6
-38.300034 187.22816 -5.4519224 7
-38.167 183.93535 -5.1903806 6
-38.141228 193.91133 -4.9469032 7
-38.340328 194.26942 -4.9495082 7
-38.163319 194.60641 -4.9449463 7
-38.041813 195.94598 -4.9473643 7
-38.297939 198.31453 -4.8656073 8.0550003
-38.062786 193.77994 -4.6770792 7
-38.142082 194.31743 -4.634428 7.177917
-38.193958 194.71112 -4.6641707 7
-38.338097 197.95833 -4.7867937 7
-38.085312 193.63205 -4.3774095 7
-38.305683 194.28003 -4.3501649 7.5327501
-38.292873 194.51083 -4.0035934 8.0714998
-38.082638 193.75769 -3.7348027 8.0434999
-38.0177 194.49132 -3.6574597 8.04
-38.045563 196.34518 -3.6654899 8.0411253
-38.122276 186.62746 -3.3739188 8.0159998
-38.081871 193.71535 -3.3836288 8.0814285
-38.161682 194.39053 -3.3030832 8.1355
-38.253204 196.30751 -3.4981127 8.043375
-38.208649 198.80037 -3.4886167 8.0194998
-38.008224 185.9193 -3.1926446 8.1365004
-38.256767 191.84351 -3.1181738 8.1394997
-38.298779 192.89563 -2.9201119 8.0042496
-38.161999 185.09119 -2.7572742 8.007
-38.144897 185.82996 -2.5351932 8.7178326
-38.173069 186.16452 -2.6745288 8.4508333
-38.37606 191.3709 -2.6542697 8.1520004
-38.375481 192.18925 -2.7470932 8.0063334
-38.152248 192.71893 -2.7811573 8.1715002
-38.357784 193.10207 -2.6536064 8.0085001
-38.167358 193.3584 -2.6812618 8.0561666
-38.237526 193.89461 -2.4276209 9.0407858
-38.046909 194.02089 -2.5235896 9.0434999
-38.185928 196.17256 -2.722182 8.00875
-38.372673 196.52342 -2.6319849 8.1529999
-38.207809 198.54826 -2.706512 8.0109997
-38.050293 185.4906 -2.2260349 9.0155001
-38.180637 185.80827 -2.2101471 8.8446007
-38.328751 190.61311 -2.12009 9.0174999
-38.275776 193.58174 -2.3134222 9.0445004
-38.27002 193.86182 -2.3769069 8.8951426
-38.06245 194.09619 -2.2029004 9.0407495
-38.213104 194.49426 -2.1055915 8.7286673
-38.149338 195.14767 -2.3101573 9.0225
-38.347042 195.26445 -2.3676767 9.0410004
-38.363014 196.29625 -2.0777235 8.0229998
-38.388603 196.4296 -2.2007408 8.0284996
-38.169487 197.79868 -2.3034573 9.039999
-38.303284 200.51486 -2.2098207 9.0408573
-38.280159 194.77417 -1.7849414 9.0155001
-38.207859 200.60727 -1.8957354 8.690917
-38.393929 197.64917 -1.2042146 9.1405001
-38.159939 196.39499 -0.9486444 9.1459999
-38.152138 196.68172 -0.98091644 9.9743853
-38.310417 197.93892 -0.82927293 10.0445
-38.376595 196.57433 -0.78400564 10.039
-38.164417 197.29524 -0.73435783 10.04
-38.279396 197.83755 -0.70293725 10.041
-38.311436 201.21893 -0.27995533 10.017
-38.158775 196.59996 0.35318485 11.041293
-38.012447 197.43669 0.3764188 11.042
-38.118065 191.12849 0.53400069 11.0175
-38.018681 191.2991 0.56859988 10.145
-38.267155 191.65878 0.70919478 10.152
-38.02166 193.84804 0.65451521 10.006
-38.321594 194.17406 0.48359495 10.13875
-38.312607 196.63922 0.56003541 11.034
-38.146091 197.32504 0.58178061 11.04175
-38.323231 200.60139 0.74568111 11.04
-38.206623 191.35005 0.84236711 11.0145
-38.25795 199.84985 0.85643232 11.042
-38.153385 202.17351 1.0594988 11.03
-38.331249 196.97879 1.5053923 10.1495
-38.063522 195.31798 1.8265371 12.030833
-38.300064 196.63565 1.718446 12.040643
-38.319122 191.68414 2.2492304 13.040498
-38.161507 192.33842 2.0948575 11
-38.088539 195.28107 2.0288358 12.019
-38.167923 193.90184 2.590524 13.04225
-38.30125 194.06306 2.5558589 13.04225
-38.371555 196.5321 2.5059478 12.019
-38.132042 203.94095 2.7974794 12.0435
-38.165123 191.84856 2.9646187 13.033666
-38.204929 199.19691 2.8191679 12.0165
-38.264236 201.43056 3.0837042 12.017
-38.134853 203.9505 2.8673258 12.042
-38.046349 204.0667 2.852632 11.012
-38.099125 205.04938 3.1067524 12.0245
-38.304249 191.42056 3.3557103 13.476786
-38.119411 191.83586 3.4965253 13.547374
-38.004848 197.84056 3.320158 13.0425
-38.198101 198.18694 3.3736897 13.0395
-38.290356 191.71899 3.6000321 14.0395
-38.08366 192.7412 3.8890145 12
-38.337055 193.5536 3.8502994 14.039999
-38.39257 193.93741 3.9696429 14.039
-38.130131 191.99788 4.1611609 12.152
-38.161938 193.36958 4.2869534 12.144
-38.261311 192.43935 4.6298475 13.0095
-38.231102 192.37788 4.9355683 15.0405
-38.283306 192.49559 4.989347 15.039833
-38.162437 193.88194 5.5721965 13.0065
-38.001331 192.35049 5.9665818 13.152
-38.165112 192.49228 5.7598825 13.003
-38.359116 192.88345 5.9586782 13.1455
-38.116009 194.02275 5.6262922 13.1345
-38.143299 194.53102 5.9828248 13.14
-38.297791 192.84021 6.0271773 13.1425
-38.042408 194.44197 6.0088501 13.1375
-38.339333 194.82611 6.7749524 15.0155
-38.142738 199.43443 7.149859 12.0235
-37.878048 180.34505 -5.4236183 6
-37.73233 181.53891 -5.4653826 6
-37.814346 181.82446 -5.4192362 6
-37.697647 182.52191 -5.4293623 7
-37.739452 182.93991 -5.3581543 6
-37.856613 183.48361 -5.433392 6
-37.793747 183.84763 -5.4855704 6
-37.796925 184.36064 -5.42382 6
-37.887993 184.69052 -5.4593153 6
-37.887928 185.11395 -5.4704614 6
-37.676323 185.28349 -5.3992515 6.3333335
-37.876289 185.74504 -5.3820472 6
-37.962025 186.10878 -5.3157616 6
-37.855415 186.7941 -5.35917 6
-37.95388 188.43822 -5.5368633 7
-37.601765 189.12206 -5.4657316 6
-37.826424 193.92368 -4.8818102 7.0644999
-37.769161 194.17325 -4.939589 7
-37.788544 194.71095 -5.0980096 7
-37.684082 200.17212 -5.1741972 7
-37.84277 193.92349 -4.540451 7
-37.684971 194.1368 -4.5951838 7
-37.731201 194.47081 -4.4400148 7
-37.777977 193.80367 -4.303051 7.1376247
-37.742004 193.75818 -3.7044864 8.0185003
-37.817894 195.73888 -3.7600656 8.0317497
-37.977745 196.39322 -3.6898353 8.0419998
-37.713852 198.68544 -3.5618114 8.0445004
-37.666851 185.24615 -2.8167651 8.1435003
-37.833591 186.07965 -3.1761255 8.0543327
-37.76762 186.66595 -3.004051 8.0709991
-37.834076 190.39537 -3.1260076 8.1389999
-37.886818 191.83794 -2.953615 8.1410007
-37.77343 192.34714 -2.9121497 8.0080004
-37.914097 193.76636 -2.9645631 8.1569996
-37.643627 196.29079 -2.9107776 8.0047493
-37.858898 185.07835 -2.6984003 8.6271992
-37.713184 185.4505 -2.6521513 8.4473324
-37.759132 185.87231 -2.5762968 8.9168701
-37.882473 186.0986 -2.5622432 8.9290619
-37.847782 186.63969 -2.7517951 8.0047503
-37.804996 186.86574 -2.6629045 8.0065002
-37.696251 190.22395 -2.7321625 8.0085001
-37.757942 190.98438 -2.5600626 8.7762499
-37.846985 191.41345 -2.6962454 8.0568333
-37.894733 193.50537 -2.6134903 8.1595001
-37.728729 194.16231 -2.423635 9.0415001
-37.884781 195.96878 -2.6846631 8.007
-37.891521 198.2236 -2.6771004 8.0074997
-37.807674 199.53755 -2.5260556 8.1569996
-37.788555 185.51636 -2.2272487 8.3566666
-37.685589 185.73958 -2.1307297 8.0249996
-37.733528 186.19576 -2.1780956 8.0181437
-37.779423 187.03363 -2.1500795 8.0220003
-37.769375 190.36119 -2.0872452 8.0213747
-37.783882 190.56544 -2.2282057 8.3715
-37.7677 190.93462 -2.2480762 8.5305004
-37.69656 192.70824 -2.2467461 8.5322495
-37.764168 194.2132 -2.3609362 9.0375347
-37.909237 196.13554 -2.045337 8.6915007
-37.804302 200.55867 -2.1757195 9.0295
-37.822033 185.79724 -1.8310987 9.1339998
-37.695255 186.48311 -1.9161752 9.1335001
-37.729218 190.58647 -1.8715751 8.8641996
-37.721687 191.05629 -1.8626825 8
-37.719856 195.98787 -1.8504745 8.0240002
-37.799145 196.04607 -1.9914472 8.0279999
-37.821411 197.85028 -1.9911435 9.0159998
-37.815601 200.50519 -1.9723263 8.0290003
-37.713902 196.05023 -1.4097115 9.137166
-37.951683 197.63223 -1.3276827 9.0094995
-37.692677 195.84248 -0.95513088 9.5367994
-37.952724 197.26115 -1.075717 10.043
-37.899315 197.96953 -1.0583173 10.0435
-37.828789 198.93495 -0.90184963 10.04225
-37.809792 199.29167 -1.0314795 9.5377502
-37.905777 196.1713 -0.74756962 9.1085005
-37.828049 196.47078 -0.7984581 10.0415
-37.653816 197.09579 -0.58553725 10.028
-37.897873 197.80875 -0.75963897 9.8109999
-37.920464 198.68501 -0.49676552 10.0285
-37.762344 196.01129 -0.28418288 9.7266665
-37.694115 191.04021 0.26079875 10.351
-37.665237 192.65895 0.068736017 11.043
-37.821815 193.01048 0.22304951 10.52375
-37.653011 195.51151 0.25361413 10.30025
-37.675861 195.6031 0.0031434747 9.0150003
-37.941143 197.4249 0.35852653 11.0425
-37.698128 191.04021 0.47169247 10.085
-37.864475 191.37296 0.67785066 10.159
-37.81319 191.8044 0.78935218 10.1555
-37.608131 194.02484 0.69952416 10.006
-37.664845 195.02707 0.65162677 10.0065
-37.622524 195.45712 0.43287992 11
-37.972431 196.07655 0.75079226 11.028
-37.783508 197.55492 0.48397973 10.1355
-37.800488 199.84204 0.5958665 11.042999
-37.961338 200.22383 0.54722673 11.044
-37.771057 191.2868 1.0725685 12.042333
-37.905685 195.13756 0.96453011 10.1525
-37.866371 196.54654 1.124102 10.1565
-37.917995 199.1234 0.82646847 10.13925
-37.632092 199.64018 1.0976098 11.0285
-37.821362 200.03667 0.81005645 11.0575
-37.745766 191.53728 1.2158257 12.039
-37.677555 195.43781 1.5654025 12.040498
-37.9431 195.60979 1.5893642 12.04
-37.97028 196.73584 1.5529213 12.04325
-37.730083 195.37244 1.7493908 12
-37.773697 196.33769 1.8493521 12.0405
-37.719707 196.63382 1.7646914 12.039584
-37.97765 199.15575 1.869333 12.044
-37.748547 204.64476 1.7810708 10.0105
-37.702274 191.85355 2.2439823 12.02375
-37.685848 193.58804 2.2126191 11
-37.765453 194.0374 2.5794775 13.0415
-37.77441 191.04402 3.15344 14.0425
-37.64867 197.10284 3.1377053 13.044
-37.756004 203.77599 2.9978428 11.1775
-37.948608 191.07921 3.2112694 11.011
-37.847599 191.29851 3.4283996 13.044417
-37.800003 191.78386 3.4881246 12.770333
-37.669308 192.13687 3.5627956 13.884583
-37.672474 196.7753 3.3126979 13.0385
-37.695782 197.01196 3.3073187 13.0405
-37.660007 192.62729 3.8446305 13.0145
-37.784477 192.93124 3.9452159 12
-37.868927 193.69656 3.9489594 13.357333
-37.965748 194.22327 3.8960671 12.1355
-37.636795 192.24721 4.2575579 12.1555
-37.789345 192.39786 4.7381902 15.042
-37.822083 192.60637 4.6133571 13.405252
-37.603115 194.67827 4.5915642 12.156
-37.682987 192.28656 4.8874316 14.03
-37.93185 192.51559 4.9251895 15.0395
-37.793633 192.34187 5.2313919 14.0145
-37.765778 192.65685 5.5234923 14.0985
-37.99939 193.84967 5.5621123 13.135
-37.750149 194.1234 5.4170442 14.549749
-37.799091 192.34648 5.7198625 13.037625
-37.883331 192.51953 5.6612206 14.054875
-37.771709 194.34898 5.9885488 13.006
-37.816463 194.64018 5.8063288 13.1355
-37.994625 191.78806 6.1059928 15.0175
-37.914215 194.07173 6.0545316 15.0275
-37.64436 194.56017 6.3902102 13.156
-37.627014 193.87979 6.4959855 14.0095
-37.813004 194.00185 6.6130147 15.018
-37.211056 184.3217 -5.6225452 6
-37.232731 202.90962 -5.6218696 7
-37.511684 180.0528 -5.3656912 6
-37.408012 181.49791 -5.3687682 6
-37.556999 181.77623 -5.3751392 6
-37.325428 182.16721 -5.2626376 7
-37.275505 183.14586 -5.4167628 6
-37.394352 183.42989 -5.4321666 6
-37.31974 184.31848 -5.4233236 6
-37.320801 184.66753 -5.514792 6
-37.451984 184.94559 -5.4612255 6
-37.411705 185.29195 -5.4412422 6
-37.406445 185.62141 -5.3032451 6
-37.474831 186.0985 -5.3180799 6
-37.375225 186.77109 -5.3551402 6
-37.572739 187.25467 -5.3720322 6
-37.548454 193.72464 -5.3204236 7
-37.347713 195.77045 -5.2516942 7
-37.382729 193.83655 -4.9640989 7
-37.481236 194.11984 -4.9421654 7.0843458
-37.349613 195.76474 -4.8856387 7
-37.344238 193.91438 -4.565516 7
-37.431904 194.14902 -4.6175723 7.3653336
-37.597786 194.49586 -4.5800858 7
-37.404163 195.75502 -4.7393985 7
-37.590096 193.70537 -4.3369827 7
-37.503143 194.05434 -4.1345582 8.092
-37.384193 194.32489 -3.7743223 8.0438337
-37.269379 180.47408 -3.3431268 8.0860004
-37.438038 186.21016 -3.271955 8.1344995
-37.415592 186.6906 -3.3757885 8.0202503
-37.400043 187.16762 -3.3893898 8.0882492
-37.391926 187.2404 -3.4119127 8.0802498
-37.25901 191.40172 -3.4132278 8.0170002
-37.265545 191.75929 -3.2226343 8.0139999
-37.459576 194.27347 -3.4740245 8.0419998
-37.441753 198.76726 -3.4605002 8.0892506
-37.482471 198.88535 -3.2426076 8.1359997
-37.38895 180.23256 -3.1393836 8.0851994
-37.52721 180.56789 -2.9797411 8.5897503
-37.215199 185.13585 -3.1391671 8.1374998
-37.334671 185.37579 -2.8518419 8.1747494
-37.449306 185.72559 -3.0914018 8.0098333
-37.343197 186.13789 -3.1518691 8.1362495
-37.421143 186.6198 -2.9659414 8.1619997
-37.501343 190.36409 -3.1089664 8.1365004
-37.295368 190.41806 -2.8072095 8.1444998
-37.454918 191.10808 -2.8157058 8.1745005
-37.272938 191.53438 -2.8954589 8.1789999
-37.208652 191.86082 -2.8979003 8.0074997
-37.547459 198.58369 -2.9157383 8.0094995
-37.401295 180.21178 -2.5656776 8.5375834
-37.357746 180.54538 -2.6845758 8.5142136
-37.300568 185.04068 -2.6051378 8.5195503
-37.401043 185.35529 -2.6001811 8.9304047
-37.433014 185.80777 -2.6108487 9.0380707
-37.423306 186.25081 -2.6306801 9.0410004
-37.539692 186.67914 -2.698113 8.6049995
-37.507107 190.2793 -2.7506356 8.0053329
-37.247307 190.6685 -2.4828994 8.8917904
-37.485825 190.98138 -2.5432332 8.6948891
-37.366257 192.85124 -2.4387405 8.9537916
-37.380604 196.22705 -2.7664895 8
-37.388935 199.27777 -2.6364949 8.0885
-37.444691 185.13464 -2.3005714 8.6875
-37.357925 185.40514 -2.1874781 8.2301502
-37.47327 185.75684 -2.167191 8.3505011
-37.412094 186.11365 -2.2172744 8.0194998
-37.597164 186.69768 -2.2371104 8.0200005
-37.488987 186.87683 -2.0618837 8.02075
-37.262966 190.24648 -2.2066858 8.0209999
-37.399128 190.56303 -2.1759963 8.5161667
-37.511436 190.92879 -2.2726455 9.0375004
-37.471806 192.54344 -2.165344 8.026
-37.45499 193.38445 -2.1170871 9.0270004
-37.585938 194.39311 -2.3043754 9.0279999
-37.510036 196.2195 -2.3387992 9
-37.390377 185.58116 -1.7982544 9.7398329
-37.344452 185.76822 -1.9153428 8.913125
-37.412842 186.15584 -1.7643437 9.1344995
-37.301273 190.3344 -1.8632681 9.1339998
-37.405045 190.73099 -1.8612154 8.0112495
-37.420391 190.95168 -1.85909 8
-37.483242 196.1436 -1.7192323 9.1339998
-37.379784 185.49733 -1.5247045 10.04
-37.590416 186.03629 -1.5571896 10.0415
-37.241573 186.77789 -1.4422162 9.007
-37.281384 187.04059 -1.5727929 9.1379995
-37.287788 187.44246 -1.3742867 10.039
-37.559994 200.11742 -1.3497556 9.1359997
-37.536674 195.94786 -0.9881928 10.018787
-37.3438 196.0587 -1.0281262 9.934041
-37.326187 196.92964 -1.0517812 9.5217495
-37.241077 197.65286 -1.0679564 10.043
-37.247448 195.97784 -0.65116191 10
-37.253902 197.45326 -0.7761296 9.7749996
-37.4021 190.85583 0.16827205 9.0255003
-37.552803 192.78682 0.16273017 10.60975
-37.431141 192.89131 0.035474397 10.98542
-37.362629 195.44991 0.24266121 10.80085
-37.541473 195.6517 0.11361942 10.134
-37.485035 196.14389 0.32314482 10.98242
-37.485661 191.44867 0.59649342 11.014
-37.489487 191.70805 0.49453989 10.169
-37.571518 194.05437 0.54882389 10.1715
-37.242847 195.1418 0.67871118 11
-37.39893 195.31685 0.46750358 10.800875
-37.393623 196.19296 0.56636357 10.336667
-37.578014 197.34743 0.64650875 11.0385
-37.445808 197.8295 0.54071397 11.03925
-37.32616 198.8878 0.58970392 11.04
-37.266056 200.18669 0.56613106 10.135
-37.237919 200.58951 0.59170556 11.0435
-37.433178 191.19496 0.9806757 12.04175
-37.378227 191.44322 0.99129218 11.527125
-37.281887 191.66435 0.99614185 12.0415
-37.4095 194.89751 1.0594504 10.0075
-37.401604 198.42487 0.95344478 10.1705
-37.236847 199.36076 1.0354648 10.1665
-37.332241 191.79408 1.2880739 12.0375
-37.557518 195.37544 1.5718719 12
-37.337872 195.89163 1.5507364 12
-37.377136 196.0636 1.4928333 12.0425
-37.490978 198.97015 1.5813912 11.016
-37.422684 192.54395 1.8649175 11.089667
-37.344933 195.12425 1.8584586 12.028
-37.335068 195.30956 1.850567 11.51525
-37.460346 195.87541 1.7835385 12.013667
-37.502651 196.00412 1.6925536 12
-37.2719 191.84149 2.3380446 11.342667
-37.357269 193.02611 2.2051744 11.680165
-37.53513 193.53777 2.2424607 11
-37.278519 195.02907 2.0518863 12
-37.234192 196.65623 2.1349788 11.01
-37.300533 196.89996 2.3478169 11.1355
-37.440968 193.3745 2.5589519 11.1485
-37.489819 194.7224 2.6446824 12.357834
-37.578159 195.12114 2.7351599 11.1425
-37.244423 198.36743 2.4933875 12.028
-37.271801 204.52202 2.6906962 12.042
-37.588165 191.32986 3.062367 12.179
-37.526241 191.94606 2.9580374 13.061
-37.427559 192.78896 3.0340459 11.009
-37.217167 193.09979 2.9260631 13.0595
-37.43145 194.0087 3.0962515 11.1485
-37.328781 194.77419 2.9339418 13.04
-37.332226 195.27237 2.9314804 13.017499
-37.31926 197.00192 3.0587401 13.042
-37.214985 198.282 3.1937969 13.0425
-37.299061 203.88219 2.9061484 12.039499
-37.529594 191.47356 3.4340949 12.1345
-37.370892 191.77489 3.4058056 14.04125
-37.275024 196.79616 3.253916 13.041
-37.362629 198.14215 3.5333204 13.0395
-37.431183 199.18814 3.239166 11.0075
-37.333183 192.49094 3.7551703 13.712958
-37.241604 191.44208 4.3419986 11.026
-37.426964 191.71616 4.2635036 14.021
-37.40184 192.1411 4.1518188 11.5135
-37.323334 192.97618 4.2747989 13.09325
-37.229031 193.49992 4.3203521 12.145
-37.418171 194.51672 4.2469678 14.038
-37.511433 194.9917 4.2268925 14.0385
-37.527283 192.51347 4.5852518 11.026
-37.341236 191.64986 5.1444993 14.014
-37.466717 192.25566 5.1763506 13.006
-37.432987 193.09647 4.996603 14.0175
-37.20821 193.62111 5.0853992 15.041
-37.590492 194.9962 5.1649456 13
-37.247929 191.35175 5.3211217 11.0225
-37.354095 192.2149 5.4648747 12.589375
-37.357552 192.51222 5.3563614 13.15275
-37.519127 193.45964 5.2910686 15.0385
-37.43008 193.65343 5.3788023 13.1345
-37.296432 194.29369 5.5651059 12.0115
-37.427372 191.83376 5.8342996 12.01325
-37.27409 192.17438 5.8346629 12.0155
-37.288406 192.74072 5.9843802 13.159
-37.30164 193.83966 5.6364427 13.006
-37.552395 194.12138 5.8843184 13.006
-37.379543 194.5273 5.6998677 13.1715
-37.103214 190.89383 -5.6438808 7
-37.181499 194.02148 -5.6315498 7
-37.070389 202.88881 -5.727427 7
-36.949875 180.24992 -5.2920856 6
-37.007183 181.02557 -5.3790464 6
-36.941364 181.50653 -5.3784466 6
-37.103558 182.63477 -5.3096161 6.3333335
-37.006153 182.95715 -5.4239869 6
-36.930328 183.29382 -5.4499564 6
-36.849159 184.28345 -5.4248552 6
-36.964184 185.02187 -5.4579573 6
-37.012405 185.38062 -5.4007592 6.2857141
-37.061321 185.76089 -5.2967281 6
-36.939774 186.1469 -5.307898 6
-37.177895 186.53845 -5.3201632 6
-37.194183 188.47466 -5.4340034 6
-36.814529 189.70387 -5.5636044 7
-36.96492 193.92567 -5.2839985 7
-37.053577 195.3577 -5.249083 7
-37.160938 195.80653 -5.5077991 7
-36.808502 185.82558 -4.8268061 7
-36.884197 193.95999 -4.9165864 7
-37.168209 194.0414 -4.8877459 7
-36.984085 195.03603 -4.8804684 7
-37.037968 195.74876 -4.9571729 7
-36.890831 193.58009 -4.4801292 7
-36.957848 193.86914 -4.5671005 7
-36.806892 194.33728 -4.5231776 7
-36.876362 194.49423 -4.7579899 7
-37.054146 194.86876 -4.5537515 7
-37.006767 195.71999 -4.7844343 7
-36.862133 186.39412 -4.0483069 7
-37.033764 193.95087 -4.1216955 7
-37.045807 194.12798 -4.2350698 7
-36.898174 186.36815 -3.6566074 8.0419998
-37.083996 187.39317 -3.6491392 8.0422497
-36.815311 191.32727 -3.721704 8.0434999
-36.88623 193.12872 -3.7297423 8.0424995
-37.086639 193.98933 -3.9848912 7
-37.008404 180.14923 -3.2787385 8.0915003
-37.035164 180.47948 -3.418751 8.0531664
-37.055534 185.81873 -3.352354 8.0593996
-36.879547 186.3553 -3.4115391 8.039875
-36.993954 186.45145 -3.4204013 8.0522499
-37.169113 187.00275 -3.3842056 8.0671663
-36.901516 187.35873 -3.5584543 8.0455704
-36.840923 191.08159 -3.2148695 8.0135002
-37.048855 191.51286 -3.3572736 8.1339998
-36.993156 193.09718 -3.5190461 8.0658751
-37.043098 193.41638 -3.41993 8.0248337
-37.00927 193.79407 -3.2938495 8.0221663
-36.859657 180.22261 -2.8340302 8.0862503
-37.193375 180.65646 -2.8130174 8.1704998
-37.000462 180.83803 -2.8006942 9.0404997
-36.900234 185.53175 -2.8771925 8.0050001
-37.076752 190.28365 -2.890393 8.1785002
-36.883694 190.60497 -2.9734778 8.15625
-36.812431 191.0892 -2.8869717 8.007
-37.151291 196.25137 -2.8125579 8
-37.059444 180.25854 -2.6881151 8.8188086
-36.984276 180.5074 -2.7155612 8.828105
-36.956665 185.01039 -2.6740131 8.2981253
-37.04845 185.30687 -2.5929003 8.8197689
-36.951763 185.6772 -2.433197 9.0179996
-36.899918 186.03633 -2.5903282 8.1534996
-36.929832 189.92558 -2.7253239 8.0048008
-36.963696 190.13234 -2.6793332 8.006875
-37.044476 190.47932 -2.537555 8.7868567
-36.948395 191.02094 -2.7374516 8.1550007
-37.106621 191.20624 -2.770725 8.1704998
-36.817547 191.6385 -2.7246614 8.0050001
-37.037418 193.06691 -2.7206829 8.0054998
-37.017597 199.36961 -2.6834147 8.1704998
-37.005508 180.10953 -2.2124357 8.5837145
-37.016449 180.7262 -2.2556348 8.6821671
-37.111427 181.04916 -2.3996651 8.1450005
-36.88969 181.2289 -2.093744 9.0094995
-37.166344 185.06525 -2.1417105 8.0194998
-36.896526 185.33253 -2.2370625 8.8193007
-36.884293 185.69638 -2.1025133 8.5174999
-37.072571 190.22455 -2.1448317 8.5931435
-37.072968 190.54907 -2.2516959 8.371666
-37.063049 192.39438 -2.3313138 9.0209999
-36.996559 192.41792 -2.3163011 9.0174999
-37.041256 199.49199 -2.292907 9.0419998
-36.990459 185.47948 -1.9791646 9.052001
-37.01963 185.77467 -1.8511276 8.8547497
-36.926594 186.15175 -1.7402273 10.042
-37.072258 186.59694 -1.8839359 8.0185003
-36.838146 186.93297 -1.6085709 10.0405
-37.024475 190.31557 -1.8734009 9.1330004
-37.015427 190.56293 -1.8708847 8.0097504
-36.989052 180.01062 -1.3596197 9.1549997
-36.800617 185.08568 -1.5446678 10
-36.990498 185.85605 -1.5066278 9.6956673
-37.007504 186.24168 -1.4653218 9.6434002
-36.999695 186.63515 -1.3549585 9.4449005
-36.901836 187.07292 -1.4769458 9.8885002
-37.020309 187.53169 -1.5593412 10.04
-36.814396 190.73869 -1.4497116 9.1385002
-37.092205 195.94881 -0.82432705 10.022
-37.183002 196.47734 -1.025473 9
-36.896942 196.98534 -0.92556083 10.0385
-36.945217 197.25177 -0.93124574 10.0395
-37.066792 195.86102 -0.65298724 10
-36.952435 196.05154 -0.49922574 10.015
-36.837296 196.69008 -0.68410105 9.1560001
-37.041828 197.0623 -0.73159957 10
-37.085125 197.36424 -0.72350031 10.033334
-37.140217 200.69048 -0.60730779 9.1604996
-37.050568 191.02592 0.29874262 10.736
-36.979923 195.47803 0.30669594 10.740166
-37.006657 195.89191 0.27634037 10.902125
-37.128185 196.00491 0.35339347 11.0385
-37.164429 196.53424 0.30982336 11
-37.120529 195.07863 0.67779559 11
-36.919933 195.4747 0.60422492 10.072375
-37.029793 196.07872 0.74858409 11.006167
-37.151264 196.43472 0.56293499 11
-37.077633 199.91237 0.54026645 11.0425
-37.068649 191.08151 1.0647286 12.037999
-37.152565 191.42326 1.036182 12.040281
-36.924122 196.15254 1.0210146 11.015
-37.039379 196.85332 0.97337413 10.1455
-37.039848 200.38573 0.95503521 11.0395
-37.177284 191.46326 1.2231187 12.0385
-36.884399 194.36107 1.4879582 12.038501
-36.88974 200.14616 1.3873618 11.019
-36.948715 191.84297 1.607221 11.134
-37.010159 192.23534 1.8528019 11.08725
-36.872116 194.22316 1.8621136 11.13375
-37.112865 195.92377 1.6585203 12
-36.932396 196.89066 1.8514528 12.038415
-36.976074 191.34808 2.2367017 11.1545
-37.032612 193.26833 2.1730573 11.171
-37.007706 196.7764 2.3033261 12.0275
-36.976345 196.83308 2.0792806 11.1345
-37.102657 197.72675 2.3623593 11.1345
-36.869881 191.30003 2.5327377 13.0485
