# .PCD v0.7 - Point Cloud Data file format
VERSION 0.7
FIELDS x y z intensity
SIZE 4 4 4 4
TYPE F F F F
COUNT 1 1 1 1
WIDTH 1243
HEIGHT 1
VIEWPOINT 0 0 0 1 0 0 0
POINTS 1243
DATA ascii
-134.85112 -0.42122722 3.0352485 8.0930004
-135.03836 -0.33396795 3.1439085 8.0921431
-134.95422 -14.823735 3.538507 8.0845003
-135.09418 -14.48354 3.4967978 8.0935001
-134.92511 -14.208813 3.5015094 8.0987501
-135.005 -12.812509 3.4410858 8.1355
-134.82094 -9.9083948 3.3607206 8.0915003
-135.15353 -7.7778592 3.4325163 8.1359997
-134.86723 -2.980828 3.5548713 8.1595001
-134.83633 -0.027680187 3.3766372 8.0885
-135.04901 -15.229885 3.811358 8
-135.06837 -15.007023 3.8558438 8.5844374
-134.94014 -14.214762 3.777472 8.8620911
-135.17166 -12.810797 3.8043835 9.1295004
-135.07097 -12.58256 3.8331282 9.1178751
-135.05917 -10.215659 3.7949755 8.4215002
-134.91585 -8.3196249 3.7420039 8.1704998
-134.93869 -2.8789012 3.8827903 8.1595001
-134.97037 -0.17163716 3.6522706 8.1505003
-135.10242 -15.773679 4.3175316 10.405583
-135.03946 -15.359455 4.2295818 10.401185
-134.94965 -15.071704 4.2095361 10.227545
-134.81602 -14.212298 4.1495395 10.113501
-135.1088 -13.280029 4.2175851 9.0939999
-135.04636 -12.910871 4.147594 10.122643
-134.81996 -12.771546 4.1860294 10.10675
-135.16895 -10.423759 4.0129652 9.0930004
-134.94615 -10.060994 4.2946649 9.4285002
-135.04794 -9.7874651 4.3100405 10.110667
-134.967 -4.1471906 4.3263574 9.0935001
-134.90869 -0.30508679 4.2911754 9.0915003
-134.98312 -16.008678 4.7308125 9.5469999
-134.99622 -15.778762 4.6227698 10.648823
-135.04311 -15.4591 4.5487738 10.707751
-134.94482 -15.016261 4.5844584 11.591312
-134.99277 -14.708776 4.7337489 11.787333
-134.81848 -10.872224 4.7312126 11.10825
-134.95299 -10.010842 4.4695425 10.096
-134.86108 -4.2562795 4.628283 10.099751
-134.93704 -16.091717 5.1029716 10.39275
-134.94179 -15.804775 4.9504881 11.007174
-135.08417 -15.458825 5.0315323 12.056075
-135.09808 -14.400087 4.8083587 12.1135
-134.99493 -12.798787 4.8569636 12.123
-135.09065 -10.472068 5.1544499 12.1245
-134.93677 -16.457357 5.4120865 10.0815
-134.94763 -16.154642 5.4169927 12.348264
-134.95982 -15.870158 5.3269057 11.142333
-135.01666 -15.406489 5.3437347 12.087389
-134.94261 -11.914871 5.3576427 13.128
-134.85756 -10.964561 5.47756 13.13
-135.05328 -16.573854 5.8005772 12.304945
-134.98201 -16.314684 5.7572141 11.237545
-134.97722 -15.476846 5.6153393 10
-135.13705 -14.549523 5.783679 12.774666
-135.1666 -13.984812 5.7692642 15.125
-134.93071 -11.084009 5.7873673 11.164
-135.19432 -16.811808 6.0067649 10
-134.95322 -16.619753 6.0229011 12.298124
-134.97717 -16.137117 6.2781186 12.176642
-134.97202 -15.900479 6.2658587 11.820126
-134.90338 -16.596931 6.6621532 11.705278
-134.80551 -16.354593 6.5133486 15.094
-134.93459 -15.818522 6.5513849 11.7675
-135.0719 -15.444593 6.6188302 11.796875
-135.04596 -15.044382 6.6718183 11.087749
-135.00618 -16.577997 7.0044107 12.202826
-134.88515 -16.278233 7.0082798 13.36425
-135.00729 -15.806299 7.0152392 12.768072
-134.82106 -14.338929 6.869276 11.087
-134.98117 -16.571003 7.2263789 12.587626
-135.05922 -16.185577 7.4774771 12.058333
-134.98172 -15.773849 7.5302911 14.094
-134.89813 -7.034596 7.4480872 15.1095
-134.94565 -16.534439 7.6771154 12
-135.00545 -16.183519 7.7381177 13.395416
-135.0213 -15.779691 7.7212019 12.159187
-135.02097 -15.278713 7.8147006 11.547
-135.14796 -15.12785 7.6093364 10.085
-134.91145 -15.353239 8.1464682 12.877999
-135.15652 -14.272495 8.3498287 13.0935
-134.84767 -14.630116 8.6825342 11.082
-135.06572 -14.318694 8.6571836 12.921
-135.08363 -13.955843 8.6429749 14.0945
-135.02412 -14.59759 9.1596727 15.0945
-135.14902 -14.207929 8.8801689 13.59275
-134.97046 -13.95362 9.1532316 14.094
-135.15692 -13.56263 9.1695642 15.0945
-135.09698 -14.479773 9.2857924 13.0865
-134.82626 -13.716786 9.9690428 11.0845
-135.12817 -13.444016 9.6806831 13.587
-135.04733 -13.538857 10.220816 15.094
-135.13937 -13.053267 10.151094 14.091
-134.94641 -12.596811 10.161535 12.084666
-135.17632 -12.707323 10.678602 15.0935
-134.68816 -0.082297303 -1.0358766 7
-134.6064 -14.12529 1.5676756 2
-134.48422 -13.915051 1.5364624 2
-134.46584 -9.4833021 1.5381062 7
-134.71278 -8.4904833 1.5891562 7
-134.65665 -4.572053 1.5165236 5
-134.64587 -4.0998297 1.523223 6
-134.66924 -29.280729 1.9661963 5
-134.42413 -28.879995 1.9973334 1
-134.63644 -28.689619 1.9820045 1.6666666
-134.50543 -28.1637 1.9806416 2
-134.64694 -27.755682 1.9538956 2
-134.65709 -27.416548 1.9597765 3
-134.58968 -26.964457 1.9329737 1.75
-134.54584 -26.602644 1.9294581 2
-134.57106 -26.142336 1.9218948 1.6
-134.59624 -25.784267 1.9053131 2.3636363
-134.62929 -25.48773 1.8944213 2.25
-134.48994 -24.879236 1.8906142 1
-134.49644 -24.536976 1.8526394 3.4444444
-134.65405 -24.204109 1.8352838 2.5
-134.61552 -23.804838 1.8403693 2.2857144
-134.61259 -23.489491 1.8548062 3.3333333
-134.43909 -22.980255 1.8224109 0.66666669
-134.65758 -22.599386 1.812941 2.6666667
-134.56451 -22.211828 1.7989813 2.5
-134.55559 -21.775229 1.7860657 4
-134.64688 -21.393185 1.790682 2.1428571
-134.58658 -20.935526 1.8009939 2.3333333
-134.61546 -20.530476 1.7643706 2.6666667
-134.57976 -20.152399 1.7822571 2.375
-134.56752 -19.816944 1.7535384 1.3333334
-134.68422 -19.341793 1.7565899 2.25
-134.57652 -19.086683 1.7523628 2.8333333
-134.52867 -18.589909 1.7128832 1.6666666
-134.55313 -18.295525 1.7118778 3.75
-134.75638 -17.969442 1.7447964 2
-134.58656 -17.425827 1.8373516 2.3684211
-134.53175 -16.977592 1.7357709 3.75
-134.79903 -15.205298 1.7156037 6
-134.6842 -14.333314 1.6075463 2
-134.59431 -13.642346 1.634931 3
-134.50775 -13.045789 1.6168902 3
-134.57991 -12.547656 1.706175 3.5
-134.67847 -12.256648 1.6628121 3
-134.62624 -11.820413 1.7024336 4
-134.41516 -11.266831 1.6985359 4
-134.58794 -9.4243612 1.6986176 4.25
-134.73074 -8.6340256 1.720144 5
-134.6302 -8.2106752 1.7188938 5.5
-134.43408 -7.843164 1.6888204 5
-134.62932 -5.0676041 1.6586108 5
-134.6938 -4.7748241 1.8470821 6
-134.6219 -3.7471144 1.6786885 5.3333335
-134.75815 -3.0706797 1.7455069 6
-134.73909 -2.493885 1.7380668 6
-134.70168 -2.3638353 1.6852214 6
-134.76619 -1.7594022 1.638769 6
-134.59102 -29.817902 2.0168388 2
-134.59828 -29.439936 2.0179307 2.2
-134.55222 -29.01927 2.0184658 3.75
-134.7411 -28.554314 2.0057509 3
-134.63283 -28.236765 2.0061836 4.5
-134.57616 -17.476276 2.2269964 3.5
-134.64899 -4.4727783 2.3084304 7
-134.61607 -4.2011509 2.2625043 6
-134.59537 -3.8210733 2.3196242 6.3333335
-134.4556 -2.5388501 2.1250398 6
-134.69601 -2.3148375 2.2201605 6
-134.53302 -1.4148351 2.0618446 6
-134.73175 -0.15024178 2.1171875 6.5
-134.59129 -17.514729 2.6130681 4.956522
-134.4673 -17.005125 2.7916267 4.833333
-134.49333 -4.4547663 2.5909693 6.5
-134.55788 -4.2709503 2.5418937 7
-134.57372 -3.92588 2.4312618 7
-134.64351 -0.41568664 2.6269054 7
-134.6658 -0.28538322 2.606916 7
-134.56487 -17.479437 2.8418596 6.2222223
-134.48235 -17.00915 2.8177338 5
-134.41989 -9.3405418 3.1506219 7
-134.45338 -4.5073876 2.8622255 7
-134.68381 -3.7155313 3.106853 8.1040001
-134.6349 -1.7972946 3.0417461 8.0957499
-134.70178 -0.46332642 3.067862 8.0927505
-134.68201 -0.31814989 3.1214087 8.0991669
-134.73318 -14.1594 3.4561038 8.1370001
-134.54831 -13.269649 3.4256115 8.0927
-134.4868 -13.062503 3.4147034 8.0882502
-134.53764 -10.340066 3.4797142 8.0792503
-134.76962 -9.9504271 3.3994596 8.092
-134.60922 -1.751834 3.4779541 8.1634998
-134.76067 -0.45571411 3.4091699 8.1660004
-134.73495 -0.15158169 3.2837367 8.1455002
-134.54959 -15.65973 3.8005831 8
-134.5656 -15.412119 3.8655396 8.4366999
-134.71204 -15.188355 3.7713118 8
-134.70441 -14.594407 3.8405695 8.0834999
-134.49925 -13.249648 3.6749618 8.0852509
-134.59909 -13.049537 3.7652199 8.6746426
-134.58458 -12.630219 3.9083331 9.0966673
-134.46263 -10.271687 3.7756612 9.1049995
-134.76268 -8.7194166 3.8243508 9.0979996
-134.46234 -8.1509686 3.7486153 8.1711664
-134.53026 -2.508363 3.856842 8.1590004
-134.68192 -1.3215666 3.6489863 8.151
-134.57613 -0.47561562 3.7757022 8.1582508
-134.54088 -0.28408736 3.6921186 8.1556664
-134.63284 -15.675533 4.1872869 9.4954233
-134.54033 -15.540913 4.2839065 10.188194
-134.65755 -14.950889 4.177062 10.22195
-134.57217 -14.713399 4.3138332 11.124001
-134.7993 -14.376695 4.3788061 11.13075
-134.49794 -13.657938 4.3862371 11.1225
-134.65001 -12.927698 4.1147156 9.6075001
-134.68309 -10.043473 4.1959248 9.0925007
-134.6011 -9.9420834 4.2038364 9.7687492
-134.6403 -8.8912687 4.2735939 10.11925
-134.69527 -4.5813904 4.2412701 9.0922499
-134.62492 -4.1813822 4.2736282 9.0930004
-134.49733 -16.513533 4.6810355 10.765667
-134.76851 -16.159689 4.6714191 9
-134.64755 -15.78758 4.6760955 10.760167
-134.62003 -15.386709 4.5533228 10.750638
-134.56866 -14.891889 4.4776239 10.09225
-134.78523 -13.914086 4.4108629 11.13
-134.61859 -12.327291 4.5436583 11.116
-134.49022 -11.29441 4.5128584 10.092751
-134.66823 -11.027995 4.5352249 10.6055
-134.76332 -9.9382181 4.7886844 11.11
-134.70938 -8.9371233 4.415905 10.098
-134.43474 -4.0190883 4.7067099 10.0945
-134.54384 -3.8595259 4.5793028 10.1005
-134.50644 -16.453485 4.8844571 9.9553642
-134.54587 -16.265644 4.9534044 10.170714
-134.66202 -15.798071 4.9949007 11.026421
-134.54898 -15.402184 5.0590897 10.671301
-134.57274 -15.065985 5.1635828 10.587
-134.53958 -10.880789 5.095634 12.115
-134.50464 -10.55646 5.1964626 12.10975
-134.70979 -9.9915314 4.8052239 11.1055
-134.74443 -6.0176468 5.0196362 11.129
-134.59718 -16.465401 5.5100679 11.827394
-134.64558 -16.201639 5.4460416 12.096225
-134.65216 -15.882152 5.3582659 12.8765
-134.57953 -15.359254 5.3168306 12.7245
-134.5511 -15.057037 5.4310222 12.706001
-134.44772 -12.996234 5.5041728 14.128
-134.60484 -16.544004 5.821445 12.355749
-134.57172 -16.241697 5.7493296 11.673867
-134.50136 -15.83412 5.6305509 11.733833
-134.59904 -14.825957 5.7589917 14.0995
-134.6244 -14.5925 5.7713099 15.112667
-134.63242 -16.538973 6.1401577 12.051225
-134.54337 -16.217894 6.1703897 11.965834
-134.71626 -15.89238 6.3334785 12.074501
-134.44521 -15.357968 6.2489257 15.0965
-134.62996 -13.660977 6.1909132 13.092
-134.41843 -16.80439 6.6689086 11
-134.59694 -16.522709 6.605022 12.678267
-134.60924 -16.293915 6.5597572 11.453786
-134.71309 -15.648623 6.5447416 11.092
-134.56783 -16.515072 7.0069456 11.899222
-134.6151 -16.246323 6.9990802 12.230727
-134.7795 -14.412602 6.8090954 11.089
-134.46675 -16.898798 7.4620023 10.04175
-134.61334 -16.514362 7.4075079 12.744091
-134.6291 -16.275734 7.3413157 12.899334
-134.76715 -15.896298 7.5967731 12
-134.48145 -17.236025 7.7760901 15.09375
-134.52684 -17.071964 7.7022128 12.391167
-134.60425 -16.564192 7.6614537 13.5
-134.7149 -16.241283 7.701385 12.622285
-134.47049 -17.06085 8.0399084 14
-134.67319 -15.298027 8.1654739 12.420334
-134.56511 -14.976361 8.1641169 12.0845
-134.54982 -1.3545457 8.119051 10.036
-134.51834 -16.217848 8.6025972 12
-134.55457 -15.442742 8.6289759 13.58725
-134.62828 -14.9778 8.6412945 13.088666
-134.77824 -14.482961 8.7216368 15.094
-134.55688 -15.621415 8.9048996 15.094
-134.51906 -15.503798 8.8414383 14.0935
-134.76099 -14.541684 9.1304188 11.083
-134.75525 -13.945578 9.0829115 13.087999
-134.47078 -15.196534 9.2421045 12.079
-134.75671 -14.412129 9.2627525 12.582251
-134.64598 -14.325578 9.3001518 14.093
-134.72108 -13.659162 9.9105453 13.418332
-134.63411 -13.42999 9.7407818 12.085584
-134.64046 -13.749422 10.201627 14.087499
-134.60901 -13.50197 10.168462 13.418583
-134.73703 -14.199727 10.509278 14.085
-134.41724 -12.203565 10.468917 12.081
-134.77771 -11.70477 10.793271 13.0795
-134.67355 -11.492814 10.754498 12.0815
-134.1971 -14.109574 1.5874126 2
-134.13895 -13.886316 1.5536053 2
-134.10033 -6.4673862 1.4592988 7
-134.10222 -5.3123055 1.5056804 5
-134.33292 -3.686029 1.5899665 7
-134.20686 -29.835571 1.9862901 3.5
-134.08992 -29.250257 1.9860599 3
-134.22179 -28.979847 1.980889 1.6666666
-134.18729 -28.594944 1.9654748 2
-134.20694 -28.162449 1.9591966 3.1111112
-134.27664 -27.844004 1.9606344 0.25
-134.21312 -27.388132 1.9486969 2.4285715
-134.25119 -27.021223 1.9178414 0.33333334
-134.17896 -26.525993 1.926159 3
-134.24355 -26.226513 1.9102726 2.8333333
-134.16089 -25.877794 1.9033334 1.25
-134.08717 -25.418924 1.8831851 2.75
-134.25108 -24.935877 1.8613541 3.2
-134.14108 -24.580544 1.8524367 1.8333334
-134.31538 -24.271637 1.8369527 0
-134.10677 -23.761686 1.8408577 2.5
-134.22227 -23.428068 1.825627 2.3333333
-134.13722 -22.956692 1.8046135 0.75
-134.2299 -22.617531 1.7984757 2.5
-134.13449 -22.17877 1.7921728 2.8
-134.18436 -21.803097 1.7912387 2.625
-134.16159 -21.418558 1.7639812 2.7142856
-134.19289 -20.986553 1.7793248 3.1666667
-134.2518 -20.639835 1.7656109 2
-134.18292 -20.107502 1.7922134 3.6666667
-134.21146 -19.828821 1.7713424 2
-134.23863 -19.418322 1.7437298 4.1999998
-134.17502 -19.002914 1.7369859 3.6666667
-134.16296 -18.555616 1.6952235 3.5
-134.22687 -18.166754 1.681699 3.625
-134.23409 -17.844826 1.6835313 2.3333333
-134.22581 -17.364359 1.8771601 3.6470587
-134.18469 -17.007082 1.6922346 4.4285712
-134.20659 -16.203331 1.711153 1
-134.25282 -15.869133 1.6623502 1
-134.10371 -15.477051 1.6514438 1.5
-134.14778 -14.845746 1.6669452 2
-134.06203 -13.620035 1.6352534 3
-134.14943 -12.941664 1.652546 3.5
-134.24957 -12.178842 1.6676414 3.4000001
-134.20135 -11.909419 1.6376512 3
-134.17653 -11.467571 1.6438726 4
-134.07445 -11.026882 1.6733687 4.5
-134.20605 -10.04895 1.7350289 5
-134.19504 -9.3764601 1.661706 4
-134.0656 -9.1853237 1.7217591 5
-134.22023 -8.526392 1.6984823 5
-134.21214 -7.6395631 1.6606635 5
-134.29251 -6.6018996 1.6339937 5
-134.04993 -6.0048161 1.6459295 6
-134.24504 -5.8219142 1.6898552 6
-134.20399 -5.4744468 1.643401 5.5
-134.13112 -4.9571095 1.6982856 5.5
-134.33388 -4.0102286 1.6157657 5
-134.26138 -3.7545505 1.7286659 6.5
-134.31868 -3.5929065 1.6313851 5
-134.16518 -2.6521728 1.7998363 6.5
-134.07935 -2.0805452 1.8038921 6
-134.39407 -1.7616113 1.6307676 6
-134.3416 -1.3119769 1.6236529 6
-134.07483 -0.99549466 1.7151301 6.5
-134.11485 -0.75855994 1.7326283 6
-134.233 -0.2976242 1.6723012 6
-134.19656 -29.829771 2.0137391 1.5
-134.13626 -29.391157 2.0101948 3
-134.15623 -29.004591 2.0266547 4.5
-134.38203 -28.580904 2.0047739 3
-134.21603 -28.383387 2.0007412 4
-134.20691 -17.456055 2.224247 4.040791
-134.3134 -4.4535155 2.2523611 7
-134.24481 -3.7838206 2.220906 6.5
-134.17265 -3.4635932 2.2051563 6.375
-134.13803 -2.4641788 2.1315119 6
-134.08009 -1.7400682 2.0639219 6
-134.00804 -0.98117435 2.1225612 7
-134.20778 -17.404354 2.6034834 4.8068962
-134.12424 -16.696779 2.7594478 6
-134.1579 -3.748148 2.5977671 7
-134.01987 -0.23761164 2.7002897 7
-134.1391 -17.428806 2.8289037 5.7142859
-134.39215 -17.008066 2.8374791 5
-134.12154 -3.5814893 3.0723054 8.0952501
-134.37332 -0.22446193 3.187037 8.1235008
-134.30403 -13.30056 3.5133247 8.0897503
-134.34077 -13.039983 3.467402 8.0839996
-134.08522 -9.9834881 3.2902391 8.0924997
-134.39095 -9.0668306 3.5995066 8.0799999
-134.10306 -6.8789115 3.3747365 8.0911665
-134.18037 -6.5500226 3.2852147 8.1077499
-134.20375 -0.91468585 3.5672081 8.1560001
-134.31255 -13.362821 3.7294693 8.5073004
-134.24947 -13.042986 3.759737 8.5913124
-134.07361 -12.74148 3.7237692 8.4174995
-134.26666 -10.216113 3.8673007 8.6345015
-134.16835 -6.8032622 3.6890452 8.1654997
-134.1516 -6.4824748 3.6349206 8.1653748
-134.1483 -3.2075098 3.7189257 8.1584997
-134.23128 -2.0736499 3.8358889 8.1584997
-134.28122 -1.9957423 3.7225747 8.1582499
-134.13599 -0.90046662 3.7846758 8.1555004
-134.37219 -0.089789771 3.8252201 8.158
-134.37372 -15.497459 4.3500218 10.236166
-134.22455 -12.66993 4.0214653 9.0907497
-134.11925 -11.740505 4.3278251 9.5952501
-134.39536 -11.518081 4.190774 9.0930004
-134.11732 -6.4893661 4.1933661 9.0917501
-134.37325 -3.9306197 4.3029795 9.0930004
-134.39615 -0.70855844 4.2813597 9.0924997
-134.26031 -16.572157 4.6786156 9.6542006
-134.14435 -16.209038 4.7100229 11.024291
-134.14249 -15.88905 4.6590447 11.752915
-134.26259 -15.42404 4.561954 10.512469
-134.21584 -15.077749 4.5407138 11.446042
-134.20055 -14.619903 4.6183677 11.864041
-134.15097 -13.755252 4.5523586 10.433167
-134.04216 -13.328955 4.6368504 10.60625
-134.06459 -11.753351 4.5869303 10.598
-134.23331 -11.59491 4.5443382 10.599
-134.256 -16.441477 4.923934 11.90418
-134.15303 -16.173431 4.9422741 11.393209
-134.14842 -15.867202 5.0421019 12.029428
-134.26146 -15.37291 5.0122628 11.111876
-134.1304 -14.166906 4.9440942 13.1355
-134.03049 -13.840291 5.0241513 13.1185
-134.30145 -13.263093 4.8758035 12.1105
-134.16653 -10.466098 5.1863122 12.109
-134.31308 -10.355605 5.0001359 11.095
-134.16653 -0.60172242 5.1831231 10.09
-134.14928 -16.205036 5.4100304 11.998184
-134.15875 -15.855432 5.4213996 11.14725
-134.31674 -15.330529 5.3325534 11.077667
-134.31856 -15.114589 5.3719058 11.6582
-134.0961 -10.689194 5.2070394 12.1045
-134.215 -16.460447 5.7979612 11
-134.18018 -16.211544 5.7660069 12.360525
-134.2364 -15.815558 5.7478027 10.04325
-134.11124 -15.539027 5.8283992 11.54675
-134.03021 -11.211756 5.7264967 12.158
-134.18755 -16.573029 6.286869 12.787313
-134.16667 -16.247166 6.2699771 12.023209
-134.25841 -15.822891 6.1738243 13.275
-134.11852 -15.44245 6.1014152 11.546249
-134.08664 -14.98004 6.3085871 15.0955
-134.01622 -13.679167 6.1683745 11.093
-134.11198 -16.918613 6.6287589 12.392541
-134.29958 -16.593857 6.5743737 12.389108
-134.1517 -16.268221 6.5008292 12.441572
-134.17569 -15.688951 6.6340332 11.59175
-134.01994 -17.653206 7.1032171 14.1745
-134.07552 -17.379147 7.0787568 14.785834
-134.19302 -16.930222 6.9466228 12.767545
-134.24648 -16.585793 6.9527755 12.376583
-134.28937 -11.884066 6.8772521 14.092
-134.22 -17.705 7.3485732 13.1765
-134.12421 -17.365294 7.4365325 12.803429
-134.18857 -17.034492 7.4388795 11.464222
-134.33539 -16.661148 7.3866248 13
-134.35622 -13.688813 7.2871232 12.1715
-134.17798 -17.397728 7.8156385 14.4722
-134.15178 -17.054199 7.8078165 12.827
-134.37383 -16.624292 7.714314 14
-134.12575 -17.421461 8.0201406 14.0275
-134.22313 -17.045052 8.0910597 13.697833
-134.23637 -16.017918 8.5067425 14.0935
-134.10828 -15.801651 8.6669464 13.289499
-134.1734 -15.660672 8.8684454 14.09
-134.23096 -15.409094 9.0841579 13.084126
-134.15291 -15.039 9.1470795 14.0925
-134.21124 -15.645643 9.4474325 15.0935
-134.1541 -15.447616 9.4198713 13.084332
-134.02837 -15.32659 9.6820107 13.0845
-134.21162 -13.325468 10.388021 14.0865
-134.18744 -13.160824 10.255718 14.0885
-134.11069 -12.678273 10.371847 14.08625
-134.04994 -12.064939 10.712732 13.079
-134.15799 -11.866235 10.992813 14.0855
-134.28487 -11.058794 11.102244 14.0845
-134.20206 -11.31827 11.359354 14.0825
-133.7563 -11.62795 1.589434 3
-133.74716 -11.340677 1.583681 4
-133.6745 -7.0019374 1.5944327 5
-133.71823 -5.6161952 1.5378959 5
-133.90636 -4.9144268 1.5491877 5
-133.70448 -29.920383 1.9966359 0
-133.7202 -29.382771 1.9844435 2.75
-133.87393 -28.961275 1.9486448 2.5
-133.82285 -28.55184 1.9686234 2
-133.79118 -28.267965 1.971572 3
-133.86884 -27.745848 1.9564656 1.2
-133.86317 -27.4447 1.940081 2.5
-133.66801 -26.947203 1.9198396 2.75
-133.86684 -26.602089 1.9202558 2.3333333
-133.77893 -26.254295 1.8979373 4
-133.7379 -25.818316 1.8854806 2.2222223
-133.84552 -25.394278 1.8708447 2.4000001
-133.85042 -24.906446 1.8443092 2
-133.73544 -24.533426 1.8536458 2.5
-133.81149 -24.206289 1.8136923 2.75
-133.73537 -23.80463 1.8191357 2.625
-133.84584 -23.438089 1.8158464 2.4285715
-133.77132 -23.002047 1.7905184 2.5999999
-133.8175 -22.638374 1.775978 4
-133.79718 -22.198635 1.7743627 2.4000001
-133.76862 -21.798872 1.7730033 4
-133.78864 -21.462807 1.7666764 3.25
-133.72783 -21.003286 1.7623127 3.3333333
-133.7787 -20.633768 1.7537482 2.25
-133.8134 -20.16119 1.7626909 2.4000001
-133.77094 -19.86026 1.7511859 1
-133.85594 -19.360882 1.7207481 3
-133.72479 -19.098671 1.7256446 2.5714285
-133.74483 -18.695843 1.7167923 3.3333333
-133.84827 -18.320993 1.6912994 4
-133.90398 -17.84185 1.710144 2
-133.7998 -17.384987 1.8740329 3.1363637
-133.74191 -16.994745 1.7330298 3.8181818
-133.71414 -16.713717 1.7435477 1
-133.9406 -15.841676 1.7061144 1
-133.78702 -15.380082 1.6433507 1.8333334
-133.68999 -15.120122 1.7184416 3
-133.83482 -14.621502 1.6640285 2.5999999
-133.73454 -14.255566 1.6520655 3.4000001
-133.67839 -13.561758 1.62464 3
-133.76517 -12.92266 1.6339749 3.3333333
-133.80675 -12.495649 1.6067045 4
-133.74478 -12.031902 1.6454318 4.5
-133.92235 -11.654679 1.6137569 4
-133.88954 -11.277994 1.6108308 4
-133.85184 -11.021505 1.6451908 4.3333335
-133.75111 -10.781018 1.6416895 5
-133.72568 -9.7751818 1.666118 5.3333335
-133.75797 -9.4264927 1.6400025 5
-133.77946 -9.0497198 1.6448497 4.5
-133.98306 -8.5321846 1.6794685 6
-133.69984 -8.1909657 1.655008 5.3333335
-133.8027 -7.7857685 1.6801534 5.6666665
-133.72404 -6.8981805 1.6439109 6
-133.79401 -6.1182246 1.6827854 6
-133.89363 -5.1328869 1.7616942 6
-133.82147 -4.6652489 1.608191 5
-133.79063 -4.2138977 1.7753762 6
-133.88899 -3.7358844 1.7540461 5.6666665
-133.6949 -3.377579 1.8998902 6
-133.94679 -2.3190136 1.6717269 6
-133.71164 -1.056185 1.746718 7
-133.6653 -0.54438239 1.8871554 6
-133.74014 -0.27813458 1.8752267 6.5
-133.75931 -29.811804 2.008837 2
-133.84157 -29.438551 2.0070922 3
-133.74489 -28.981194 2.0187232 4.5
-133.81592 -17.43297 2.2223618 3.7824562
-133.71869 -17.158842 2.2216976 2.6666667
-133.98717 -4.4240398 2.324192 7
-133.86385 -3.6216583 2.1145825 7
-133.83907 -2.0555305 2.1718707 6
-133.89706 -1.9101686 2.08459 7
-133.69499 -1.3968275 2.1001246 7
-133.84425 -0.90925229 2.1369455 7
-133.64996 -0.60859334 2.2247095 7
-133.85826 -0.21521385 2.3466206 7
-133.77974 -17.399124 2.6140261 4.7751937
-133.68887 -17.013691 2.6328111 4.9375
-133.70876 -16.794275 2.590806 4
-133.98174 -6.6181297 2.7964177 7
-133.81467 -3.5670741 2.7334857 7
-133.89293 -2.9695063 2.691129 7
-133.71164 -17.500984 2.8351996 7
-133.75302 -17.187838 2.8392456 5
-133.96663 -9.4921865 3.1385529 7
-133.8476 -3.4333916 2.9849989 7.5580001
-133.86603 -2.4669046 2.9413972 7.5462499
-133.70776 -16.034584 3.4639816 8.1091661
-133.7787 -15.831619 3.4267962 7.9339113
-133.6281 -9.5928135 3.3249686 8.1230001
-133.72034 -7.0014596 3.5691283 8.0819998
-133.83109 -6.5781903 3.4334209 8.1021671
-133.92238 -6.3079367 3.2795467 8.092
-133.69368 -5.8258195 3.2589772 8.1215
-133.65857 -15.852264 3.7407863 9.0970001
-133.90189 -12.581798 3.8523428 8.7770834
-133.8324 -9.8662233 3.7149403 8.1570835
-133.85805 -6.2427626 3.6582992 8.1645002
-133.87416 -5.9557538 3.7021995 8.1727505
-133.71959 -2.5428107 3.8220336 8.1569996
-133.64618 -13.384414 4.266531 10.094
-133.81425 -11.584526 4.0163603 9.0900002
-133.7135 -11.161903 4.2834597 10.0965
-133.68748 -10.676359 4.1714754 9.092
-133.99492 -9.0447483 4.1436319 9.0909996
-133.64859 -7.0363336 4.1517015 9.0904999
-133.8604 -6.5762177 4.2318678 9.0924997
-133.87935 -16.116552 4.6580291 10.954999
-133.75981 -15.881159 4.6475296 10.595921
-133.85959 -15.163822 4.6426444 12.62575
-133.9151 -13.391743 4.514535 10.0905
-133.86064 -11.764269 4.5929585 10.094749
-133.82466 -11.288372 4.6099911 10.5945
-133.72282 -10.455124 4.6412473 10.09
-133.92509 -16.063318 5.0962534 9.5608759
-133.91982 -15.86057 4.9613647 11.929261
-133.79498 -15.3021 5.0236621 11.310538
-133.75859 -15.162959 5.0979667 11.092167
-133.69337 -14.548679 5.0210176 13.1095
-133.65678 -12.464702 5.0902133 10.1675
-133.74551 -12.233274 4.937212 11.092834
-133.95889 -11.668512 5.1075416 9.0799999
-133.76195 -10.993796 5.1488767 10.592625
-133.9263 -10.677414 5.0416121 10.1625
-133.74005 -10.327684 4.9301615 9.0819998
-133.87244 -16.099159 5.3994036 11.499045
-133.83459 -15.849964 5.3946419 10.8392
-133.80653 -15.411942 5.3989911 13.069515
-133.67641 -15.019692 5.2961659 12.769333
-133.78659 -14.531792 5.4700651 14.105
-133.81351 -13.363089 5.3349605 13.612499
-133.83089 -12.880102 5.4257736 11.091
-133.80708 -11.881821 5.2428718 10.589001
-133.75339 -11.557756 5.3136377 11.09
-133.99869 -9.2809896 5.3598828 12.104
-133.84674 -5.1727753 5.4785852 11.092
-133.71388 -2.1606715 5.2545133 10.0905
-133.63763 -16.918068 5.6053252 10
-133.82011 -16.164129 5.7899256 12.296988
-133.7231 -15.885069 5.7348561 10.565875
-133.69693 -15.280817 5.638 11.0925
-133.76688 -14.954053 5.9485178 13.0905
-133.70911 -13.294478 5.9764791 14.603001
-133.78156 -8.7695427 5.7334685 12.094
-133.70633 -16.875742 6.3246799 10.769751
-133.7804 -16.590811 6.246058 12.205728
-133.92119 -16.252089 6.171823 12
-133.79936 -15.729466 6.0944867 13.089
-133.90401 -15.439895 6.1528711 12.5875
-133.67271 -17.44906 6.6853576 10.082
-133.7628 -16.979731 6.6282039 12.198838
-133.77562 -16.592602 6.5238113 12.530083
-133.93663 -16.294924 6.4942179 12.6184
-133.7283 -15.265789 6.4013658 14.0905
-133.7977 -12.649273 6.4755545 14.0925
-133.89449 -12.122492 6.6437616 12.0925
-133.70619 -9.1782742 6.7304802 14.0965
-133.967 -17.672266 7.1340842 14.093
-133.83923 -17.444124 7.0445743 12.607
-133.80222 -16.892801 6.9796419 12.551769
-133.84218 -16.684509 7.0132995 12.833333
-133.73607 -9.9729357 6.8270369 15.10375
-133.93669 -17.726568 7.3535223 14.175
-133.75708 -17.351723 7.3567066 13.543709
-133.82365 -17.067846 7.486197 11.640334
-133.67628 -16.646347 7.5161333 11.84875
-133.80193 -17.350155 7.7442036 13.242332
-133.80055 -17.090273 7.7206073 12.706077
-133.76407 -16.782801 7.9098287 13
-133.8613 -17.279419 8.0430679 12.666667
-133.81815 -17.093599 8.110199 12.81625
-133.63164 -16.102638 8.2904758 15.0925
-133.81827 -15.82086 8.387742 11.081
-133.60757 -11.764444 8.2332315 15.165
-133.6497 -16.433758 8.6306152 13
-133.75426 -16.084034 8.6523533 11.5395
-133.84329 -15.866517 8.5630217 12.6845
-133.64592 -9.3513393 8.538723 15.16175
-133.68375 -15.706247 9.0003338 12.582251
-133.785 -15.446821 9.0526886 13.83725
-133.70682 -14.818235 9.1732883 14.092
-133.63876 -16.540691 9.43536 13.364166
-133.64456 -16.355473 9.4345284 11
-133.88458 -15.694743 9.4776154 14.087
-133.78569 -15.57155 9.4078102 14.091
-133.62132 -16.110537 9.8429031 14.086
-133.73061 -15.888493 9.6933231 13.584
-133.68195 -11.721126 10.902157 14.587999
-133.99251 -11.210283 11.157707 13.0785
-133.81224 -11.27507 11.387615 15.091
-133.40129 -15.193567 1.598686 1
-133.42149 -14.009403 1.5981779 2
-133.27422 -13.921478 1.5963367 2
-133.28824 -13.465735 1.585061 3
-133.35341 -13.183312 1.595356 6
-133.5473 -12.071318 1.5728931 6
-133.43024 -11.377588 1.5643847 4.3333335
-133.39508 -11.066557 1.5657293 4.6666665
-133.50436 -10.494342 1.5484526 5
-133.29678 -10.199949 1.5385698 5
-133.5773 -9.8639326 1.5855196 5
-133.44862 -9.3802958 1.5778334 4.5
-133.31506 -8.6834631 1.584939 5
-133.29797 -7.3907404 1.5818881 5
-133.46504 -6.7108388 1.5759921 5
-133.23651 -5.8169384 1.5559391 5
-133.5498 -5.0839143 1.5648205 5
-133.35033 -29.74951 1.9717692 4
-133.37498 -29.348331 1.9772177 2.75
-133.32076 -28.909044 1.9733332 4
-133.4774 -28.680864 1.9618125 1.875
-133.3297 -28.330904 1.9515468 3.5
-133.46785 -27.774538 1.9428635 2
-133.43633 -27.431227 1.9289769 3
-133.41954 -26.989382 1.9037923 2.7142856
-133.36716 -26.626539 1.891854 3.25
-133.36603 -26.173733 1.8611183 3.125
-133.3055 -25.854649 1.8850214 1.6666666
-133.32381 -25.437689 1.8680735 2.5
-133.31754 -24.931536 1.8348269 2.8
-133.43286 -24.60383 1.8308101 2.2857144
-133.38969 -24.208757 1.8139832 2.375
-133.48367 -23.836769 1.7648159 5
-133.418 -23.429161 1.8034477 3.5
-133.33559 -23.002298 1.7760185 1
-133.4202 -22.658878 1.7683824 2
-133.39433 -22.229046 1.7646806 1.8333334
-133.43237 -21.768608 1.762096 3
-133.4315 -21.380764 1.7441218 2.1428571
-133.31349 -20.972729 1.7578295 3.1666667
-133.34155 -20.665155 1.7513078 0.33333334
-133.47456 -20.160589 1.7587571 2.25
-133.5038 -19.883753 1.7520058 1.75
-133.51234 -19.39369 1.7287339 3.6666667
-133.31129 -18.990799 1.713383 4
-133.33582 -18.51189 1.6784319 3.4000001
-133.56297 -18.199602 1.6800189 3
-133.46458 -17.834511 1.647334 1.5
-133.49451 -17.285631 1.8194139 1.1666667
-133.39236 -16.945473 1.7252409 3.4444444
-133.36098 -16.632336 1.6927589 0
-133.51631 -16.213673 1.7204319 3.3333333
-133.34221 -15.847306 1.7416204 4.25
-133.37955 -15.313174 1.6665756 2.5
-133.42575 -15.099895 1.676105 3.3333333
-133.33664 -14.657573 1.6623203 4
-133.45219 -14.158131 1.6438116 3.8
-133.42148 -13.434383 1.6215677 4.3333335
-133.323 -13.003642 1.6596138 3.5
-133.35127 -11.888003 1.6135898 4.5
-133.43375 -11.006483 1.603428 5
-133.36427 -10.61725 1.6068652 5
-133.44551 -10.349732 1.6006168 6
-133.31241 -9.7399912 1.6084783 6
-133.34627 -9.4516802 1.6343603 5
-133.4487 -8.9082279 1.6217823 5
-133.39503 -8.6808214 1.6401511 5.6666665
-133.45047 -7.7055917 1.6482432 5.3333335
-133.51073 -6.5050702 1.6293446 6
-133.38394 -6.1856799 1.6746402 6
-133.47832 -5.3194747 1.6002349 5
-133.38097 -5.086452 1.7420532 6
-133.24223 -4.4797058 1.6869699 5.5
-133.48653 -4.3357177 1.8754865 6.5
-133.30844 -3.743449 1.8163445 6
-133.33318 -3.3851116 1.9495791 7
-133.38062 -2.9885185 1.8002064 6.5
-133.36411 -2.4758155 1.812695 7
-133.26706 -2.183742 1.7281083 6.4000001
-133.44026 -1.2688042 1.9133681 7
-133.44591 -0.90306085 1.7789521 6.6666665
-133.39369 -0.67676544 1.7303507 6.6666665
-133.29355 -0.035322983 1.9618388 7
-133.48166 -29.698053 2.0033531 1.5
-133.39595 -28.96957 2.0117993 4
-133.52956 -17.243603 2.1534193 2.125
-133.56047 -17.199747 2.3487749 2.5
-133.26385 -2.5642135 2.091851 6.25
-133.40079 -2.137857 2.1187716 7
-133.38635 -1.2863704 2.0951884 6.4000001
-133.27171 -1.0344876 2.1647422 6
-133.39363 -0.46378011 2.0831058 6
-133.39343 -0.20983048 2.0478733 6.75
-133.49425 -17.282728 2.5889978 4.3125
-133.42891 -17.003551 2.6461101 4
-133.43959 -16.627806 2.6362216 4.25
-133.25 -16.11727 3.0477824 7
-133.28284 -15.73733 3.1187975 7
-133.30103 -15.557037 3.0721669 7
-133.46574 -3.4872212 2.8757524 7
-133.32164 -2.7104232 2.9425418 7
-133.37253 -16.053293 3.4258914 7.855
-133.36536 -15.846998 3.4192142 7.9418402
-133.20345 -15.233487 3.3075509 7
-133.26161 -10.183125 3.5919168 8.1475
-133.26755 -9.8542252 3.3838859 8.1339998
-133.33356 -16.651045 3.8660865 9.1819687
-133.40039 -16.139502 3.7902102 9.0064287
-133.38966 -15.842864 3.7519104 8.936862
-133.33363 -10.181663 3.634707 8.1537495
-133.32762 -9.630887 3.814764 9.1339998
-133.3703 -7.2924299 3.6406035 8.1673326
-133.2363 -7.1117878 3.7001722 8.1609993
-133.52089 -6.4858842 3.8109703 9.1269999
-133.58105 -6.2032561 3.6699479 8.1615
-133.31334 -17.002777 4.3523831 9.092
-133.33795 -16.537991 4.1239734 9.7054253
-133.33932 -16.186129 4.1238666 10.096125
-133.59505 -13.842552 4.2084374 9.0924997
-133.5683 -13.11829 4.3436809 9.0924997
-133.33908 -17.308008 4.5476274 10.091
-133.58766 -15.796291 4.6622596 11.113251
-133.52339 -15.220857 4.7997108 10.092
-133.35843 -15.088103 4.7444367 13.1205
-133.41116 -11.67005 4.748611 11.096
-133.43375 -8.0691366 4.5221648 9.0915003
-133.34856 -7.9127064 4.7563667 9.5885
-133.21078 -17.268225 4.8429832 10.092
-133.45758 -15.094534 4.98419 10.479667
-133.3813 -14.609746 4.971241 10.374857
-133.22769 -13.573163 4.9154978 13.132
-133.47112 -12.104215 4.8125882 10.091
-133.40901 -11.730581 4.9803572 11.4305
-133.51448 -10.694539 4.9450693 10.0915
-133.20421 -8.0068312 4.8337359 9.0834999
-133.51967 -7.9580159 4.818604 10.0895
-133.28644 -16.898046 5.4932394 9.0839996
-133.29428 -16.769312 5.5269427 9
-133.52727 -16.086058 5.4145417 11.092
-133.41507 -15.935645 5.4912095 11.591249
-133.37737 -15.225148 5.3844237 11.0915
-133.40831 -15.079047 5.4018879 11.662714
-133.39566 -14.45558 5.4143844 12.593
-133.34109 -14.281201 5.4403892 13.095875
-133.58618 -12.460581 5.2357268 13.1135
-133.54703 -11.045012 5.5624003 11.0905
-133.43544 -10.655051 5.5911002 13.1075
-133.32249 -16.903913 5.8142514 11.26527
-133.44608 -16.639711 5.8627014 11.776455
-133.44101 -16.048922 5.7431598 12.890699
-133.55817 -15.866211 5.819129 12.091249
-133.33076 -14.886983 5.6504622 11.092
-133.29193 -14.680989 5.6147256 13.0915
-133.28641 -13.662672 5.8945227 14.096
-133.50664 -13.353513 5.6966434 11.092
-133.22162 -10.95914 5.7574797 12.09
-133.38225 -8.9414949 5.8174758 12.0915
-133.29649 -0.42805749 5.9400978 10.092
-133.20103 -17.231058 6.0050607 10
-133.31694 -16.899515 6.1527872 12.859546
-133.4166 -16.645672 6.2026958 11.974234
-133.35069 -12.038732 6.3892088 14.0935
-133.24156 -9.3602142 6.2420483 11.12925
-133.3905 -16.962639 6.6358819 11.84725
-133.39624 -16.638786 6.6044941 12.324714
-133.3577 -15.813731 6.5810509 14.091
-133.44691 -15.530513 6.6217623 12.0925
-133.3112 -10.365861 6.624855 13.0895
-133.41212 -17.316238 7.118197 12.333333
-133.40552 -17.028749 6.9983978 12.430575
-133.5488 -16.561749 6.9473443 12.058167
-133.31015 -17.257004 7.5917625 15
-133.46066 -17.012321 7.409544 12.226001
-133.33595 -16.639223 7.4366021 12.336357
-133.40347 -16.140947 7.566092 10.75
-133.56566 -17.228685 7.8065004 11
-133.4825 -17.005117 7.7644577 13.257709
-133.42516 -16.64418 7.7302699 12.010278
-133.25803 -16.293739 7.7848716 11.75
-133.47067 -15.078031 7.7690806 13.0925
-133.5482 -14.42515 7.6443925 10.083
-133.2278 -17.219278 8.1757555 12
-133.35886 -17.048174 8.192852 12.8349
-133.41455 -16.761135 8.3317251 14.0925
-133.37163 -16.164211 8.1867981 12.776643
-133.2679 -15.853641 8.379612 13.0905
-133.30539 -16.949879 8.6532879 13.4
-133.22905 -16.761238 8.5183249 13.0395
-133.26567 -16.325243 8.7580385 12
-133.48442 -15.910685 8.6021538 13.394
-133.40405 -17.033529 8.870019 13.523125
-133.27731 -16.614574 8.9294777 12.039249
-133.4731 -16.194784 9.010685 11.720333
-133.38063 -10.847416 9.1375933 15.1675
-133.37064 -16.592216 9.4772463 12.194333
-133.38663 -16.248857 9.3749266 12.273125
-133.40331 -15.739062 9.3990946 12.746999
-133.2666 -16.832247 9.7091484 13.5395
-133.21579 -16.607195 9.8573265 14.04575
-133.45609 -16.741453 10.027008 14
-133.34203 -15.044501 10.440222 13.0785
-133.43988 -11.820789 11.338082 14.0849
-133.44116 -10.180995 11.991242 14.0795
-133.49704 -10.169265 12.207532 14.079
-132.99808 -16.996304 1.593596 3
-132.99208 -13.678773 1.5648859 4
-132.84991 -13.254875 1.5633674 3.3333333
-132.92906 -13.052363 1.5644013 6
-133.19635 -12.462354 1.5814624 5
-133.0275 -11.803977 1.5601093 5.3333335
-132.86563 -11.333288 1.529411 4
-133.0038 -11.041231 1.5490767 4.6666665
-132.9594 -10.482091 1.574477 5
-133.01942 -10.14207 1.5608768 6
-132.89476 -9.4507208 1.5620056 6
-132.97847 -8.9023256 1.5593779 5
-133.00328 -8.5071011 1.5474553 4
-132.86655 -7.9585748 1.5609263 4
-133.02895 -7.3900232 1.5765375 5
-133.13023 -6.5978718 1.5778353 5.5
-132.94693 -6.2183671 1.5668478 5
-132.90381 -5.265306 1.5773205 5
-132.9808 -29.806396 1.9668407 3.4000001
-132.98965 -29.371727 1.9646229 3
-133.11308 -28.997892 1.9753181 3.5
-133.03664 -28.644054 1.9539453 2.4000001
-132.97237 -28.306082 1.939756 3
-133.01381 -27.884775 1.9203935 3.4000001
-133.05962 -27.486635 1.9120793 3
-132.9767 -26.916525 1.8898318 1
-132.96635 -26.558365 1.8585244 3.5714285
-133.0471 -26.329098 1.8799061 2
-132.89526 -25.780767 1.8570499 2.4000001
-132.96375 -25.419746 1.8406571 2.5
-133.02759 -25.053238 1.8187015 3.75
-132.97581 -24.609085 1.8258018 2.75
-132.88484 -24.137177 1.7973487 2
-133.02386 -23.72637 1.7639029 2.5
-133.02765 -23.483942 1.792542 2.8571429
-132.9964 -23.001926 1.7664723 1.4
-133.14328 -22.661922 1.7547514 3.5
-133.05206 -22.208992 1.7595561 2
-133.00771 -21.792528 1.759095 3.5
-132.94055 -21.400055 1.7345123 2.5999999
-132.94537 -20.995468 1.7602282 3
-132.9516 -20.636072 1.7340409 1.4
-132.98189 -20.092203 1.7388828 2.1666667
-133.06099 -19.730494 1.7173241 4
-133.05203 -19.305225 1.7052643 2.5
-132.95691 -19.035791 1.7238834 3.3333333
-132.9938 -18.545298 1.6762097 3.5
-133.09222 -18.156689 1.6873356 4.5
-132.92062 -17.83786 1.6832618 2
-133.03841 -17.337429 1.6242946 3.5999999
-132.89293 -16.871088 1.6961967 3.75
-133.09195 -16.585091 1.6779922 0
-132.96587 -16.230623 1.6755569 1.75
-132.96918 -15.805451 1.6902332 2.5
-132.99242 -15.320409 1.685921 3.1428571
-132.82219 -15.0603 1.6947176 6
-133.02809 -14.661829 1.6466209 3.6666667
-133.03484 -14.110694 1.6375371 3.3333333
-132.93956 -13.326095 1.5999629 5
-133.17883 -12.853488 1.6661222 4
-132.97856 -12.72437 1.6389887 4
-132.9666 -11.851724 1.6105239 4
-132.95116 -9.3697023 1.611994 5
-132.97462 -8.5319605 1.6255686 5.5
-133.16618 -6.5087137 1.6148937 6
-132.95151 -6.2348208 1.6319722 6
-132.99416 -5.8731518 1.6555159 5.5
-132.81659 -5.5860839 1.630976 5
-132.96165 -5.1074634 1.7108991 6
-133.03116 -4.4630766 1.8545089 6.3333335
-133.03764 -4.3148313 1.882777 6.8000002
-133.05215 -3.7643902 1.6843024 5.5
-133.12714 -3.0593843 1.7990823 6
-132.9868 -2.6312516 1.7753267 6.5
-132.96231 -2.2236855 1.9475679 7
-132.97929 -1.859174 1.6925812 6
-132.84407 -1.3006815 1.9285202 7
-133.06252 -0.96899378 1.8468888 6.25
-133.01636 -0.64458197 1.713213 6
-132.99452 -3.0675004 2.0616133 7
-132.98994 -2.6324456 2.3759902 7
-133.0663 -2.2322202 2.1387391 6.3333335
-132.91357 -1.4083618 2.1282108 6.5
-133.14836 -0.97865772 2.0907555 7
-133.05435 -0.73786747 2.0867355 6.5
-132.88564 -15.420167 2.7738559 7
-132.97816 -15.766459 3.0785398 6.6923075
-132.96609 -15.414001 3.0215948 6.8157897
-133.00534 -15.157683 3.0624907 7
-133.11673 -16.080856 3.46771 8.1123629
-132.97511 -15.817115 3.3828542 7.7679148
-132.92542 -15.31184 3.3662741 7.5110455
-132.9713 -15.110397 3.3298428 7.1818333
-132.94102 -16.575708 3.7902107 9.01056
-132.9868 -16.271414 3.7765851 9.1485291
-133.05896 -15.848734 3.7433326 9.0008497
-132.82654 -15.356032 3.8135216 9.1389999
-133.12737 -12.428407 3.728102 8.1657505
-133.00623 -12.359883 3.7301588 8.1689997
-132.92018 -8.0457792 3.6391556 8.1680002
-132.94049 -7.7575383 3.6618168 8.1610003
-132.97157 -7.0080714 3.6005516 8.1610003
-133.01382 -22.962841 4.2690611 7
-133.14302 -17.277218 4.2096148 11
-132.91762 -16.958006 4.1758122 10.94728
-133.01628 -16.656799 4.1904888 10.330116
-133.02127 -16.199524 4.1548309 10.851376
-132.98785 -9.5687513 4.2438984 10.102
-133.05804 -19.167171 4.4892216 7
-133.02423 -17.36059 4.6264091 12.08109
-132.99011 -17.035233 4.5988212 12.590395
-132.93025 -16.754759 4.4374723 12.124167
-132.82309 -13.807857 4.6668682 10.0895
-133.01413 -13.515155 4.4612322 9.5900002
-133.01411 -3.9928944 4.5913448 9.1584997
-132.98711 -17.37122 4.9056993 11.753309
-132.92635 -17.078043 4.9994149 10.662974
-132.98747 -14.526107 5.0561633 11.092751
-133.14864 -13.659491 5.1234365 11.164
-132.99736 -11.865703 4.9779391 11.09675
-133.18195 -10.519431 4.9401722 11.093
-133.14973 -7.6402826 4.8949137 10.0895
-133.00797 -16.903555 5.5128551 9.0418749
-132.81615 -16.746553 5.5801802 11.0915
-132.98056 -14.707218 5.439177 12.090333
-133.08414 -14.29191 5.5030155 12.591
-132.88417 -8.1864882 5.2370367 12.121
-132.83728 -17.683826 5.9565024 11.54475
-132.86734 -17.346012 5.8399215 11.669937
-132.97557 -17.043585 5.7779927 11.700019
-133.04855 -16.670959 5.8436613 13.0685
-133.01103 -15.300385 5.8408813 12.839875
-132.98248 -15.03198 5.72611 14.094
-133.05905 -14.657083 5.6915092 11.341875
-133.01498 -14.114535 5.6687222 11.59025
-133.03714 -9.6325531 5.6615629 10.757167
-133.13878 -9.5649405 5.9764576 11.0915
-132.82701 -8.469245 5.9902053 11.091
-132.87173 -17.682453 6.1275306 10.697166
-132.89046 -17.470787 6.2782583 12.612556
-133.02841 -17.071621 6.0707254 12.590375
-133.08113 -16.646376 6.3035898 12.211917
-133.14038 -14.913817 6.0583739 15.09575
-133.01425 -13.352517 6.0231223 14.096125
-133.07809 -12.106921 6.0546446 11.092
-133.04277 -17.259506 6.7684464 10
-133.01221 -17.077106 6.658217 10.145187
-133.04608 -16.556515 6.5954108 12.231363
-133.00015 -16.337988 6.6834197 12.696334
-132.95119 -8.5941954 6.4636259 12.625999
-133.05324 -17.264845 7.0960164 12.0225
-133.03543 -17.051376 6.9335513 12.40775
-132.86259 -16.654015 6.8781633 12.54575
-132.97961 -16.24194 6.8493013 11
-132.81743 -15.64619 7.0141988 15.0885
-133.09705 -10.142001 7.0953951 11.089
-133.09352 -16.423561 7.4565544 12.294875
-132.9847 -16.153839 7.4561925 12.36375
-133.07605 -15.922267 7.4320431 10.04175
-132.82614 -6.2511649 7.2271552 14.095
-132.97101 -17.026283 7.9899278 11
-133.00967 -16.653278 7.7368736 12.042625
-133.01381 -16.282688 7.7764473 12.013
-132.84312 -15.922557 7.7584071 14.0915
-132.85535 -15.588374 7.7110972 11.078
-133.19275 -2.7161341 7.7550831 11.0795
-133.02074 -17.071629 8.2236681 11.607215
-133.17426 -16.664167 8.2313471 13.546
-132.92252 -16.169308 8.0930986 11
-132.8875 -15.856269 8.2725277 12.363334
-132.9679 -15.23556 8.3045406 14.092
-133.05696 -14.764853 8.3524485 15.0915
-133.04837 -17.037933 8.5128927 11.5205
-132.94594 -16.661194 8.614665 13.5115
-133.14128 -16.029058 8.7850447 13.0855
-132.91223 -15.963629 8.4818172 14.54575
-133.05251 -12.101819 8.6698713 14.092
-132.95784 -17.013849 8.878356 12.4
-132.97047 -16.636103 8.9921246 13.727333
-132.90808 -16.169525 9.191781 11
-133.15401 -16.869682 9.4833679 12
-132.99992 -16.558836 9.4029331 12.681252
-132.9778 -16.284517 9.2624407 13.180583
-133.09415 -16.958069 9.7625999 13.5
-133.01376 -16.595432 9.8021975 13.395687
-132.80814 -16.61632 10.041659 14
-132.87151 -16.032957 10.252521 15
-133.14755 -14.95502 10.261216 12.08125
-132.95419 -14.889493 10.598201 13.078
-132.92439 -14.625464 10.690208 14.0815
-132.95247 -12.925459 11.292934 14.081833
-133.17509 -3.5129337 11.540333 11.1765
-132.96988 -10.832599 11.721367 15.089
-133.04761 -9.7179518 12.35563 15.0855
-132.41266 -19.740005 1.5364552 6
-132.44106 -17.919174 1.4126689 6
-132.44473 -17.349142 1.5809606 3
-132.67029 -17.02042 1.5555445 5
-132.43713 -13.551456 1.5303838 6
-132.51562 -12.961844 1.5386767 3.3333333
-132.72328 -12.212708 1.5416526 5.5
-132.40285 -11.904545 1.5657973 5
-132.44771 -11.383482 1.5390369 5.5
-132.60115 -11.167236 1.5471689 3.6666667
-132.59154 -10.001572 1.5270479 6
-132.51643 -9.3562832 1.5641909 5.5
-132.69536 -8.9636049 1.5048277 4
-132.45642 -8.7339993 1.5262555 5
-132.61766 -8.3341446 1.5294282 4
-132.64516 -7.8456149 1.5483416 4
-132.78966 -7.0977635 1.5343015 5
-132.7706 -6.4393935 1.592555 6
-132.57831 -6.1364369 1.5611316 5.25
-132.6456 -5.8959212 1.5566241 5
-132.77455 -5.1151175 1.5873464 5
-132.5909 -29.758686 1.93355 3.4000001
-132.56184 -29.366777 1.9531876 2.25
-132.5569 -28.998032 1.9451975 3.75
-132.63982 -28.649979 1.9379836 2.8333333
-132.5891 -28.245535 1.9136497 3.5
-132.69916 -27.776051 1.9224538 2.5
-132.63501 -27.454487 1.8973752 2.2857144
-132.40187 -26.951347 1.8754964 0
-132.65895 -26.628036 1.8737795 2.3333333
-132.55269 -26.197433 1.8343232 3.4000001
-132.63684 -25.847507 1.8423505 2.5999999
-132.69159 -25.43392 1.8360122 3.5
-132.55092 -24.862808 1.822934 2.5
-132.58481 -24.607195 1.8014716 1.8333334
-132.60135 -24.202509 1.7890387 2.5
-132.63373 -23.780874 1.7782863 3.3333333
-132.5843 -23.39098 1.7588816 3.8
-132.55164 -22.940456 1.7525691 1.6
-132.61043 -22.536068 1.7362908 2.75
-132.68889 -22.178717 1.743664 1.6666666
-132.62485 -21.801025 1.7469082 3.2222223
-132.58496 -21.429749 1.7268947 1.3333334
-132.56709 -21.05048 1.7082582 2.7142856
-132.52812 -20.720999 1.7153231 2.8571429
-132.60468 -20.170986 1.7296222 2
-132.59348 -19.837046 1.697368 2
-132.57338 -19.386709 1.6851658 2.4285715
-132.61336 -19.043705 1.6823114 1.8333334
-132.59238 -18.638929 1.6592306 2.875
-132.61433 -18.288958 1.6462375 3.8
-132.55046 -17.888521 1.6471804 3
-132.60118 -17.424625 1.6400812 2.8
-132.56221 -16.844557 1.7089943 2.5
-132.66321 -16.430248 1.7117954 0
-132.6488 -16.221939 1.7053703 2.8333333
-132.58279 -15.765326 1.6987038 3.75
-132.6292 -15.387179 1.7117456 3.75
-132.52782 -15.051518 1.6701082 3.6666667
-132.66734 -14.039648 1.6171266 4
-132.67171 -12.658046 1.6186672 4
-132.56393 -10.844121 1.6084402 5
-132.53136 -8.3497734 1.6042155 6
-132.73061 -6.1049981 1.6424755 6
-132.49545 -5.8173962 1.623425 6
-132.52902 -4.8904667 1.6566385 5.5
-132.47325 -4.7607307 1.6098639 5
-132.63937 -4.2127838 1.7531558 5.8000002
-132.45145 -3.9526787 1.6487262 5
-132.44972 -3.5211544 1.6420333 5
-132.72641 -2.8854575 1.8751905 6.5
-132.59279 -2.6592577 1.7817338 7
-132.63161 -2.1991034 1.8954204 6
-132.47081 -1.9115523 1.7700988 6
-132.4976 -0.89859951 1.7375407 6.3333335
-132.4088 -17.405766 2.1635077 2.5
-132.63158 -2.0998085 2.1580298 7
-132.58842 -1.8150861 2.0199354 7
-132.44908 -17.396646 2.6151462 6.25
-132.49374 -17.160301 2.5829186 7
-132.44014 -16.677937 2.683887 5.5
-132.66943 -2.9051416 2.4099023 7
-132.69762 -15.823442 3.0912666 6.8666663
-132.67093 -15.458748 2.9785872 6.5
-132.49281 -2.9607983 3.0907071 8.1140003
-132.71675 -0.55684745 2.8238249 7
-132.5089 -16.881905 3.435683 7.9125156
-132.52945 -16.68804 3.4280055 7.9515653
-132.53523 -16.189337 3.4363885 7.757833
-132.66405 -15.798841 3.4165094 7.8843751
-132.64537 -15.416899 3.4407904 7.5757499
-132.45587 -14.168349 3.336622 7
-132.41031 -13.904198 3.3277416 7
-132.54398 -16.924917 3.7820432 8.8323822
-132.57675 -16.631668 3.8404498 9.3390312
-132.63724 -16.155506 3.7691932 9.1595831
-132.61755 -15.829323 3.7587748 9.0752497
-132.59558 -15.354965 3.8048666 8.9751673
-132.72536 -15.195034 3.7592158 9.1459999
-132.62581 -12.752184 3.9279363 9.1499996
-132.57585 -12.364203 3.8079958 8.1665001
-132.44792 -9.8164577 3.6832774 9.1149998
-132.59398 -8.1347046 3.6727722 8.1717491
-132.46185 -7.7070618 3.7439692 9.1254997
-132.50163 -16.895872 4.2438331 10.725382
-132.63359 -16.620453 4.1825714 10.511339
-132.58575 -16.159803 4.1594849 11.055655
-132.56665 -15.940285 4.1393857 10.600374
-132.68187 -15.268156 4.010005 10.146
-132.66144 -3.5732324 4.0126514 8.1564999
-132.72664 -0.091806017 4.3714466 9.1494999
-132.57965 -17.420017 4.6259274 11.760422
-132.57477 -16.9921 4.569447 12.51203
-132.65881 -16.68165 4.4723959 11.789285
-132.72925 -16.38588 4.5512719 11.09
-132.5936 -13.751558 4.6406341 9.085
-132.75153 -11.941441 4.7864456 10.09
-132.60295 -17.351986 4.9935861 11.37487
-132.62497 -17.084501 5.0099058 11.217776
-132.4391 -16.694935 5.1128311 10
-132.65569 -15.754234 5.0986934 9
-132.6021 -10.157586 5.0156145 11.60275
-132.60007 -17.329927 5.2009583 14.094
-132.61848 -16.97385 5.4669447 11.363141
-132.51321 -16.652977 5.5530286 10.030334
-132.50822 -16.330753 5.5250182 9
-132.67299 -15.818227 5.5009203 12.092166
-132.54202 -14.76075 5.5102024 11.589251
-132.78107 -13.9942 5.511632 12.0885
-132.62857 -9.8401766 5.3531032 12.10225
-132.72328 -17.662533 5.9667907 10.079
-132.71999 -17.288502 5.8247743 10.2
-132.62126 -16.964937 5.7814584 11.920434
-132.55963 -16.703022 5.7247267 11.6355
-132.53271 -15.757602 5.6200352 13.0885
-132.77005 -12.400003 5.8304553 12.0885
-132.71812 -9.2140207 5.95577 12.158
-132.65436 -5.568934 5.9581318 11.1595
-132.69644 -17.740524 6.1235952 11.030167
-132.68617 -17.449335 6.1770015 12.559751
-132.56471 -17.039013 6.0886459 11.29525
-132.49014 -16.744514 6.0931649 13.09
-132.44034 -16.263374 6.3284736 10
-132.62502 -15.852695 6.362031 10.078
-132.57997 -12.887818 6.1817365 13.1635
-132.64397 -17.130289 6.6659789 10
-132.7718 -16.567114 6.6378069 12.389333
-132.5417 -16.138437 6.5984874 11.030033
-132.54916 -15.839256 6.6563773 12.20975
-132.73898 -17.259043 6.9369531 11
-132.57619 -17.082619 7.093451 12.3635
-132.62257 -16.469849 7.0867972 10
-132.61127 -16.157757 7.0488305 12.222932
-132.5797 -15.905693 6.9614792 13.067375
-132.47701 -17.200665 7.2410612 11
-132.5446 -16.936375 7.4348516 12.8451
-132.65619 -16.546656 7.407753 11.02125
-132.69319 -16.280142 7.3418398 12.834101
-132.52423 -15.893773 7.4829788 13.5445
-132.41644 -15.585274 7.392139 13
-132.54381 -16.93285 7.6746092 11.6
-132.63434 -16.562569 7.8733168 13.39775
-132.65866 -16.334066 7.7075558 13.3635
-132.70003 -17.096413 8.2379618 11
-132.53531 -16.50139 8.2384243 12.015208
-132.65753 -16.304052 8.2344341 13.834
-132.74338 -15.831928 8.3215084 12.08
-132.65091 -16.954676 8.5658894 13.037642
-132.63159 -16.555645 8.7226849 13.4
-132.64285 -16.285751 8.5311756 13.233999
-132.53825 -15.84576 8.5372133 13
-132.64648 -16.932423 9.0042171 12.4312
-132.53061 -16.641548 9.0000706 13.5655
-132.59137 -12.001244 8.8149624 15.1685
-132.54436 -16.630026 9.3285055 12.666667
