# .PCD v0.7 - Point Cloud Data file format
VERSION 0.7
FIELDS x y z intensity
SIZE 4 4 4 4
TYPE F F F F
COUNT 1 1 1 1
WIDTH 1268
HEIGHT 1
VIEWPOINT 0 0 0 1 0 0 0
POINTS 1268
DATA ascii
-70.073448 150.65981 6.2590137 12.754166
-70.075386 150.88138 6.2474294 12.5
-70.142464 150.02844 6.6385212 15.178
-70.053154 151.07788 6.8151779 13
-69.680481 174.59357 -5.6737604 7
-69.803757 175.15501 -5.6314516 7
-69.899643 164.66461 -5.2080784 5
-69.728142 170.75475 -5.5603757 7
-69.89798 174.17038 -5.5907893 7
-69.88327 178.55605 -5.2012715 6
-69.692741 179.05492 -5.2032423 6
-69.634079 150.2626 -5.0795035 7
-69.836685 150.40895 -4.9338131 7
-69.765182 151.00185 -4.891398 7
-69.662308 151.36624 -4.9821053 7
-69.734177 151.8185 -4.9181643 7
-69.716393 152.58238 -4.8393564 4.3333335
-69.808434 152.95543 -4.8955693 4.1999998
-69.840614 153.2916 -4.9379754 4
-69.918602 153.75267 -4.9286046 3.6666667
-69.727913 154.19997 -4.8648653 3.2857144
-69.765244 154.64656 -4.968132 4.3333335
-69.680771 155.08842 -4.9489961 6
-69.71476 155.41534 -5.0175076 4
-69.813858 155.81314 -4.9715757 4.4000001
-69.815804 156.19807 -4.9942117 4.3333335
-69.719475 156.67279 -5.0523229 4
-69.861595 157.00374 -4.9023471 4.5999999
-69.856445 157.43318 -4.8601222 4.1666665
-69.780991 157.78853 -4.8754687 4.3333335
-69.758751 158.1925 -4.8962364 4.625
-69.80719 158.47563 -4.9027057 4.5
-69.82103 158.98387 -4.9215369 4.3333335
-69.80452 159.43571 -4.9193454 4.3333335
-69.795593 159.84627 -4.9237218 5
-69.782204 160.56503 -5.0729198 6
-69.937431 160.94374 -5.0071497 5
-69.761116 161.51251 -4.940599 5.25
-69.669525 161.87894 -5.0285869 5
-69.874069 162.19138 -5.0195861 5
-69.641518 162.90138 -5.0080733 5
-69.612289 163.78654 -5.0950942 5
-69.892906 164.6355 -5.0520234 5
-69.817085 165.09502 -5.0289049 5
-69.851349 165.44554 -4.9930015 5
-69.788391 165.83226 -5.1213512 5
-69.693039 166.6362 -4.9553108 5
-69.690514 166.82317 -4.9870768 5
-69.817818 169.59845 -4.9029889 6
-69.731186 169.62558 -5.0940413 6
-69.939804 170.52643 -4.9532995 6
-69.841454 170.96953 -4.9090023 6
-69.63929 171.3667 -5.0087862 6
-69.901779 171.78531 -4.9597197 6
-69.711609 172.21898 -4.9225125 6
-69.72197 172.68105 -4.9852042 6
-69.708916 173.02902 -4.8569388 6
-69.883362 174.30617 -5.0827789 6
-69.902519 174.79517 -5.0012884 6
-69.688217 174.92931 -4.9727502 6
-69.671524 175.30153 -4.9471545 6
-69.933823 175.77145 -4.8445435 6
-69.803879 176.091 -4.9818664 6
-69.744659 176.51857 -4.9182849 6
-69.773247 177.47612 -4.9000916 6
-69.660492 177.74664 -4.9098716 6
-69.943336 178.20653 -5.1594362 6
-69.759354 178.4146 -5.0810304 6
-69.966728 179.92822 -5.1312828 6
-69.759773 150.15073 -4.5013499 3.4000001
-69.756012 150.6109 -4.6267571 5.7272725
-69.685997 151.06271 -4.5539527 4.1666665
-69.815819 151.43956 -4.5582271 4.6666665
-69.812378 151.83742 -4.5399518 4.0666666
-69.713234 152.20332 -4.6945972 5.5555553
-69.830086 152.56444 -4.6704702 4.1111112
-69.805405 152.92148 -4.6835365 3.7777777
-69.700478 153.40555 -4.7572207 3.75
-69.903481 153.86176 -4.7716465 3.4000001
-69.838928 154.13889 -4.7474589 3.5714285
-69.738464 154.60287 -4.7527876 3.5
-69.792892 154.91475 -4.7242947 4
-69.846283 156.77902 -4.66643 5
-69.92691 156.95673 -4.7168994 5
-69.827278 157.55363 -4.6168289 5
-69.988861 157.77908 -4.4941278 5
-69.76339 158.10942 -4.7169294 5
-69.994583 158.49002 -4.7131615 5
-69.694115 159.66074 -4.7509599 5
-69.847069 162.12019 -4.7961793 5
-69.71006 162.62398 -4.7237902 5
-69.939697 163.28407 -4.7602491 5
-69.680962 170.27567 -4.703887 6
-69.989326 172.2549 -4.7913361 6
-69.962593 172.94394 -4.7443275 6
-69.831932 173.92154 -4.5585933 7
-69.84285 174.25032 -4.5213895 7
-69.837914 174.58356 -4.5252833 7
-69.845993 174.90009 -4.4868298 7
-69.912827 175.30855 -4.7757702 6
-69.775833 175.80733 -4.7708817 6
-69.819481 176.00652 -4.7795053 6
-69.78994 178.98553 -4.6236415 7
-69.702065 179.38504 -4.5056958 7
-69.778732 179.70934 -4.6498275 7
-69.796944 150.22256 -4.3023882 3.1666667
-69.935822 150.42123 -4.3043137 3.5
-69.943954 151.4541 -4.3856397 3
-69.88488 157.84897 -4.2645969 5.5
-69.873405 158.48508 -4.1834464 6
-69.895737 173.84962 -4.1409588 7
-69.817284 174.3228 -4.2949071 7
-69.864632 174.55399 -4.1696668 7
-69.888023 174.8506 -4.1823301 7
-69.949493 179.50722 -4.1497355 7
-69.854073 179.65652 -4.3064542 7
-69.853928 157.46895 -3.8585382 6
-69.910179 157.95543 -3.805337 6
-69.932487 158.08975 -3.7971015 6
-69.92588 158.5444 -3.6703558 7
-69.838661 173.91631 -3.8019702 7
-69.947815 174.11432 -3.8373809 7
-69.792351 174.52536 -3.9908333 7
-69.886314 175.15524 -3.9479861 7
-69.817688 151.95427 -3.4137671 7
-69.671631 153.54507 -3.2297318 7
-69.83345 174.70807 -3.5281787 8.0634995
-69.806343 150.71545 -2.8957241 8.0368004
-69.797661 150.97437 -2.912936 8.019949
-69.763268 151.36586 -2.9222772 8.0213337
-69.857948 151.85342 -2.9294617 7.9752641
-69.812012 152.22134 -2.9149446 8.0248728
-69.836494 152.50098 -2.9423881 7.969708
-69.804718 152.99129 -2.944844 8.0558567
-69.705025 153.34653 -2.9421229 8.0446072
-69.866737 150.20447 -2.7819092 8
-69.879471 150.66351 -2.5063856 8.7116184
-69.775627 151.00775 -2.5224967 8.3844633
-69.823135 151.37346 -2.50911 8.6060801
-69.870071 151.85744 -2.5644021 8.4197664
-69.827263 152.17957 -2.562665 8.5250263
-69.78022 152.56305 -2.4864113 8.5397148
-69.729774 152.98239 -2.5754981 8.6510801
-69.841331 150.29333 -2.329505 9.0230007
-69.834885 150.657 -2.1791043 9.2221508
-69.792267 150.99922 -2.2301934 8.7455692
-69.804939 151.35631 -2.1733084 8.7294235
-69.84938 151.81461 -2.2309854 8.7501373
-69.826912 152.20421 -2.168421 9.2510042
-69.846184 152.64903 -2.1352615 9.2024946
-69.764793 152.92737 -2.2380137 8.9038048
-69.919014 150.21722 -1.9795207 9.0924997
-69.792374 150.67403 -1.9097625 9.8428631
-69.726616 151.05244 -1.8427076 9.401906
-69.80423 151.44763 -1.8550549 9.3331375
-69.835075 151.77567 -1.8547554 9.3413057
-69.825233 152.18048 -1.8725893 9.3011198
-69.874222 152.64864 -1.8037273 9.4588146
-69.723991 152.90297 -1.7817011 9.683156
-69.974152 165.77222 -1.7689666 10.0295
-69.950851 166.16574 -1.6612507 9.0375004
-69.792931 151.0648 -1.4466155 11.022523
-69.795212 151.43819 -1.4357663 11.179821
-69.914467 151.87888 -1.3782096 10.874432
-69.886795 152.18718 -1.46302 10.960529
-69.811188 152.58727 -1.5556933 10.845
-69.691933 152.89725 -1.5575187 11.04125
-69.83667 165.84816 -1.4183903 10.061885
-69.695122 166.26353 -1.3915355 10.309375
-69.795166 166.66257 -1.3691927 11.06
-69.678848 150.71777 -1.0971431 9
-69.889397 151.10721 -0.95593899 10.898129
-69.850441 151.37238 -0.93566555 10.40482
-69.871033 151.84621 -1.0584539 9.9804811
-69.779594 152.12521 -1.0197443 11.04724
-69.755547 152.5851 -1.00811 11
-69.800652 165.78137 -1.0400076 10.727501
-69.953308 166.12534 -1.0569375 11.0595
-69.749214 150.7243 -0.52955133 10.697333
-69.805534 151.04832 -0.58182496 11.455731
-69.839302 151.34897 -0.60034841 12.427974
-69.836212 151.79784 -0.58615375 11.148026
-69.902779 152.16965 -0.63946593 11.0184
-69.982368 165.31683 -0.51006722 10
-69.8312 165.6506 -0.50089365 12
-69.893791 150.61647 -0.20810865 13
-69.786728 151.01039 -0.2079464 12.867946
-69.808205 151.35567 -0.27982146 13.692353
-69.788246 151.82704 -0.20471945 11.45457
-69.789803 152.05785 -0.11815944 11.445065
-69.819984 152.47574 -0.060334612 13
-69.965538 165.09007 -0.091130011 10.946428
-69.900177 165.37299 -0.21467698 11.179857
-69.935349 150.67552 0.17923288 13.837916
-69.842758 151.01076 0.21394621 12.6725
-69.834389 151.33893 0.21489455 11.9415
-69.781975 151.77548 0.24045955 12.299517
-69.782738 152.11717 0.2440253 12.507
-69.626167 152.59917 0.32467172 10
-69.951248 164.75893 0.30711639 12.000667
-69.842346 165.043 0.27224576 11.964842
-69.807312 165.37741 0.15232074 12.01275
-69.897041 165.79738 0.30193758 11.676499
-69.681938 166.07158 0.37810028 10.122
-69.829399 167.12242 0.04681867 11.0345
-69.871262 167.53885 0.039548758 13.0545
-69.883423 168.01091 0.14721476 11.0815
-69.958755 150.69464 0.64103633 14.5
-69.92057 151.00261 0.65960026 11.027056
-69.818649 151.44881 0.60245109 11.443459
-69.762276 151.76886 0.67738444 11.488676
-69.786568 152.16525 0.64205742 11.2
-69.857483 152.47729 0.54151613 10
-69.681885 152.82611 0.44911444 10
-69.773079 164.34702 0.71189809 12
-69.812691 164.65501 0.61441052 11.736097
-69.782166 164.99184 0.51566184 12.198543
-69.825539 165.48143 0.5974524 11.94008
-69.767273 165.79008 0.51583105 11.977712
-69.964584 167.83009 0.43887496 12.04
-69.715485 168.22456 0.45300007 12.061
-69.937279 150.62622 1.0031437 13.5
-69.872208 151.01834 0.9978959 11.237082
-69.842735 151.37943 1.0056782 12.19275
-69.779869 151.74376 0.9636184 11.379358
-69.808937 152.23853 1.0420105 12.6245
-69.936668 152.61729 1.0552399 10.049101
-69.835426 164.26468 1.0844498 12.667167
-69.808929 164.58643 0.96942407 13.051317
-69.747429 165.36967 0.92564756 12.8713
-69.730324 150.17062 1.3461565 10.4192
-69.78846 150.60686 1.4449034 10.719762
-69.874451 150.97026 1.4253361 11.731174
-69.778435 151.44496 1.4659836 11.164
-69.807884 151.77617 1.392134 11.570157
-69.77211 152.19168 1.4176407 11.718
-69.795227 152.54582 1.4081155 11.915126
-69.716438 152.91063 1.45275 9.8062496
-69.793617 164.23265 1.4456319 14.227275
-69.757019 164.4837 1.2981362 13.443357
-69.747757 150.24648 1.8468015 11.365167
-69.821266 150.63255 1.778357 12.277999
-69.804276 151.02036 1.7555604 11.564269
-69.826111 151.38216 1.7629699 12.033
-69.787071 151.76524 1.7559983 12.564711
-69.834373 152.18372 1.7155349 12.192944
-69.803276 152.49141 1.7859617 12.454834
-69.747032 152.95461 1.7571919 12.457449
-69.679436 164.26906 1.6878632 14.258875
-69.674202 164.48705 1.6861812 15
-69.845619 150.36591 2.2812142 10
-69.744766 150.55339 2.176012 11.761937
-69.721832 151.04552 2.0733678 12.0207
-69.858047 151.44551 2.2003427 13.09425
-69.871239 152.23448 2.3965111 15.09
-69.717545 152.79637 2.0440795 12.0115
-69.794518 152.97859 2.1274333 12.423167
-69.738167 150.30424 2.6736944 13.503099
-69.753151 150.58554 2.5451796 12.348267
-69.782303 150.9133 2.5891485 11.52975
-69.666786 151.40732 2.6230032 13.175
-69.852859 151.63004 2.5688579 11
-69.813377 152.16194 2.4833732 12.455771
-69.747841 152.46765 2.5543916 11.586875
-69.823326 152.89798 2.6513481 13.095
-69.81266 150.25902 2.9803936 13.675148
-69.834381 150.5764 2.9984417 12.027928
-69.786476 150.99104 2.9622276 13.473033
-69.932541 151.43236 2.9174736 14.098501
-69.770416 151.78745 3.0589428 13.757
-69.735237 152.24509 3.0285428 12.939286
-69.715401 152.5688 2.9850986 12.339722
-69.686661 152.91162 2.9678211 13.391376
-69.893631 150.28976 3.3763773 11.754
-69.749138 150.63492 3.4897017 11.19825
-69.784164 151.01462 3.4448366 11.005906
-69.787392 151.27861 3.4305139 11
-69.752625 151.66461 3.4664435 11.052
-69.726685 152.24487 3.4637742 12.375343
-69.727119 152.51186 3.3902416 11.208375
-69.858459 153.03276 3.4181283 11.070999
-69.71283 150.29187 3.9522755 12.956809
-69.788338 150.59058 3.8093896 11.599455
-69.736115 150.98334 3.791959 12.633885
-69.730812 151.3054 3.6609912 11.030251
-69.720695 152.31085 3.8222623 13.004
-69.7817 152.53102 3.7729146 14.397766
-69.834953 152.9238 3.8017366 13.939761
-69.746048 150.20146 4.1803346 12.160593
-69.821884 150.55861 4.1184616 13.314173
-69.687531 151.03288 4.3112979 12.392427
-69.72673 151.36964 4.3432631 12.4193
-69.698296 151.78357 4.1542554 13.063749
-69.76561 152.76834 4.0410991 13.705167
-69.838432 153.02184 4.0425806 14.095
-69.864273 150.31577 4.5285478 12.54825
-69.784554 150.58015 4.5860806 12.167999
-69.814362 150.95154 4.4887938 12.112
-69.687904 151.27422 4.6112218 12
-69.796051 150.34688 5.022809 12.53425
-69.815475 150.63416 4.9969039 12.768167
-69.767029 151.01025 5.0614572 12.790655
-69.735207 151.31905 5.1003122 12.442357
-69.784256 150.30095 5.4191136 12.805125
-69.785248 150.61697 5.4241304 12.501616
-69.793922 150.96919 5.4154224 12.141056
-69.768402 151.38249 5.4187956 12.119092
-69.73745 151.79718 5.453393 12
-69.748375 152.2337 5.5266581 12
-69.819283 152.40614 5.4801774 12
-69.769524 150.16544 5.749126 12.908731
-69.772865 150.61505 5.7511783 12.63627
-69.748398 151.02121 5.7401357 12.408826
-69.668945 151.41505 5.7222853 12.943531
-69.703445 151.71886 5.7612967 13.021875
-69.768799 150.16792 6.0901527 12.39375
-69.734566 150.61974 6.2355127 12.84375
-69.743469 151.02138 6.1697245 12.615846
-69.854347 151.2115 6.2837563 12.25
-69.66993 151.72989 6.0521321 12
-69.792664 152.1657 6.2022409 13.1325
-69.871193 150.28009 6.5887709 11.0965
-69.764732 150.54146 6.5885668 12.833333
-69.690231 150.98442 6.5926256 13.362834
-69.662712 150.78242 7.0896554 13
-69.84565 150.95592 7.0591731 13
-69.693428 152.10789 6.8465114 13.012
-69.688957 150.67229 7.3989172 13
-69.747597 150.94633 7.3388953 13.001625
-69.625023 151.49597 7.5665727 13
-69.746124 151.06516 7.7931476 13.00325
-69.687012 151.29439 7.9027286 13.0605
-69.352676 173.27061 -5.6167994 7
-69.442169 174.55667 -5.631772 7
-69.327576 175.98492 -5.6541481 7
-69.542496 165.00101 -5.2118187 5
-69.377258 178.87538 -5.2071705 6
-69.574608 150.16241 -4.9468083 7
-69.490005 150.63348 -5.0702586 7
-69.393005 151.88242 -4.9771805 5.5
-69.451965 152.23531 -4.8542881 4.375
-69.469292 152.5631 -4.8657489 4.1999998
-69.4646 153.08464 -4.9054666 4.5
-69.419617 153.41765 -4.8628426 4.25
-69.356857 153.89677 -4.8561749 3
-69.531883 154.33182 -4.8207741 3
-69.354446 154.56255 -4.8818736 3.5555556
-69.428024 155.061 -4.9875226 4.25
-69.416222 155.24701 -4.9792199 4.5
-69.345566 155.75958 -5.0148773 4
-69.421227 156.18771 -5.0358734 5
-69.361649 156.75787 -4.9202023 4
-69.409004 157.0667 -5.0092983 4.6666665
-69.314339 157.44902 -4.9702716 4.3333335
-69.381226 157.72411 -4.8178248 4
-69.497368 158.21339 -4.8815651 4
-69.435944 158.63139 -4.8999577 4.1428571
-69.499557 159.01859 -4.9316988 4.6666665
-69.415833 159.45421 -4.9274831 4.3333335
-69.287399 159.7645 -4.9332986 4.3333335
-69.427406 160.2059 -4.9537053 5
-69.420609 162.19664 -5.0243421 5
-69.323364 162.58124 -5.0088282 5.25
-69.316711 162.89043 -4.9906869 5
-69.524597 164.72238 -4.9215713 5
-69.459938 164.96906 -4.986979 5
-69.339668 165.21118 -4.9471827 5
-69.431778 165.8374 -4.9376531 5
-69.477646 166.26631 -5.0075078 5
-69.448952 166.62512 -5.0390711 5.9166665
-69.301613 166.9491 -5.0900736 5.9444447
-69.376617 167.44778 -5.0689497 6
-69.532883 168.37167 -5.098166 6
-69.408409 169.89644 -4.9803195 6
-69.425392 170.22612 -4.9208722 6
-69.445129 171.69218 -4.8886843 6
-69.35656 172.47224 -4.9814415 6
-69.311813 173.01326 -5.0038371 6
-69.45153 173.46379 -4.8424983 6
-69.264709 174.21652 -5.0778184 6
-69.430763 174.65689 -5.064712 6
-69.343414 175.83121 -4.9991775 6
-69.492012 176.21986 -4.8706312 6
-69.320824 176.60188 -4.9080296 6
-69.504471 177.07874 -4.9386849 6
-69.363411 177.52771 -5.0977488 6
-69.358307 177.81985 -5.0773096 6
-69.278908 178.32961 -4.9408121 6
-69.223457 178.80214 -5.1039276 6
-69.385277 179.87918 -4.9132943 7
-69.399345 150.2569 -4.6367846 4.1666665
-69.368721 150.57452 -4.6117845 3.9166667
-69.322906 150.99989 -4.6529355 5.3939395
-69.320534 151.41301 -4.6655045 5.0882354
-69.410133 151.76344 -4.6574311 4.6999998
-69.451363 152.11115 -4.6241379 4.2727275
-69.403374 152.51378 -4.6459904 3.7
-69.434525 152.97961 -4.7119479 4
-69.595535 153.38783 -4.7267447 3
-69.36821 153.72156 -4.7724948 3
-69.376816 154.16058 -4.7897253 3
-69.369186 154.61694 -4.4389529 5
-69.508705 158.53317 -4.73035 5
-69.585609 158.83711 -4.7482848 5
-69.250183 159.3694 -4.7398362 5
-69.429123 161.06625 -4.7916589 5
-69.318977 162.59789 -4.750042 5
-69.270157 163.09846 -4.7371659 5
-69.315956 170.7016 -4.7142382 6
-69.523689 174.58833 -4.6435003 7
-69.580566 174.85863 -4.4073429 7
-69.519203 179.41783 -4.5468583 7
-69.458916 179.78215 -4.5976815 7
-69.257645 154.31416 -4.122664 5.6666665
-69.244843 154.45566 -4.2238064 5
-69.474731 173.36185 -4.2948494 7
-69.369835 174.498 -4.1275654 7
-69.310471 175.01189 -4.1677365 7
-69.317596 153.82979 -3.85958 6
-69.286812 154.14325 -3.8845611 5.5999999
-69.413734 174.20419 -3.9155066 7
-69.526566 174.94601 -3.9652271 7
-69.378281 179.77722 -3.8242431 7.2628751
-69.523987 153.45177 -3.4665153 7
-69.380074 153.75253 -3.4054358 6.4000001
-69.363945 179.1248 -3.2701063 8.0579996
-69.438866 179.8465 -3.5596192 8.0510006
-69.564026 150.98544 -2.8582275 8.0094614
-69.513641 151.41353 -2.9302902 8
-69.574211 152.07622 -2.8856256 8.0102501
-69.593758 152.54716 -2.99861 8
-69.58847 153.03922 -3.0305092 8.1254997
-69.54451 153.44395 -3.0679204 7.6295996
-69.491577 150.61818 -2.6700487 8.3498335
-69.518646 151.00484 -2.4883482 8.8158045
-69.598274 151.25697 -2.7242832 8
-69.534241 151.90753 -2.5283651 8.7852497
-69.534599 152.0955 -2.5071435 9.050416
-69.551712 152.49147 -2.5750096 9.0509996
-69.566467 150.61501 -2.1250987 9.6986666
-69.495438 150.9971 -2.227562 9.4176311
-69.424927 151.34697 -2.1707158 9.6145716
-69.48053 151.73761 -2.190764 8.8260012
-69.483154 152.05663 -2.202342 9.5604162
-69.428825 150.74471 -1.7100894 9.0074997
-69.480499 151.04803 -1.7659754 10.122632
-69.533379 151.41553 -1.8232224 9.6309385
-69.462349 151.71024 -1.8686161 8.4002504
-69.539627 152.0076 -1.9724594 10.0405
-69.580185 152.7005 -1.7397763 8.5599995
-69.557098 152.80231 -1.8602575 8.1789999
-69.251129 166.4949 -1.6147113 9.1254997
-69.426247 151.03888 -1.460819 11.658698
-69.490143 151.54419 -1.3496538 10.52225
-69.209114 151.76086 -1.2100693 9
-69.344543 152.52135 -1.2429576 9.0515995
-69.543213 166.14545 -1.3586843 10.082502
-69.485565 166.63884 -1.4062785 10.0905
-69.295944 166.97865 -1.5097655 8.0200005
-69.214348 150.73807 -0.81539381 12.00975
-69.390938 151.10951 -0.95434481 9.6604633
-69.304352 151.44237 -0.97069681 9.5724058
-69.34391 151.75648 -1.0043216 9.5275946
-69.379372 152.16333 -1.0811124 9.1000004
-69.383362 152.52916 -1.1186793 9
-69.529747 165.94565 -0.96405727 10.059
-69.417198 166.20425 -0.94974291 10.3554
-69.30307 166.47029 -1.0001734 10.4679
-69.294838 166.91753 -1.1564499 11.0705
-69.504967 150.70032 -0.47567558 10.5055
-69.326111 151.07253 -0.5777778 11.236765
-69.326225 151.40221 -0.59961516 11.139027
-69.372444 151.73294 -0.62151235 11.029951
-69.329895 166.21945 -0.76571727 11.049251
-69.456039 150.70282 -0.15227404 11.637125
-69.380768 151.01596 -0.18540251 10.663301
-69.36969 151.46193 -0.17102182 11.924654
-69.439079 151.76601 -0.17063929 11.21608
-69.495537 152.0759 -0.097627282 12
-69.443558 150.38733 0.046285342 14.03
-69.40065 150.66458 0.15608568 11.051042
-69.306877 150.98285 0.18463905 11.888054
-69.400688 151.41887 0.17280143 12.103426
-69.438889 151.70544 0.19763304 11.979334
-69.467133 152.05487 0.10487477 13
-69.547691 165.09567 0.37316519 11.582
-69.404289 150.78493 0.49949145 12.00675
-69.362625 150.81334 0.51133567 14.690166
-69.463303 151.49583 0.56429595 12.194364
-69.488472 151.7986 0.59705943 11.86244
-69.518227 152.06732 0.70421571 12
-69.414139 164.70384 0.63700747 10.117
-69.489662 164.96452 0.59852308 12.146375
-69.475266 165.28587 0.61497295 13.345
-69.489517 165.7527 0.75454962 10.1675
-69.533234 150.04999 1.1115161 10
-69.46418 150.71631 0.91378993 10
-69.360802 150.87598 1.0507729 10.002
-69.468254 151.5175 0.98323238 12.333333
-69.512878 151.84077 1.03179 10.000182
-69.298355 152.31927 1.0110012 10.1225
-69.560799 152.76068 1.0909302 10
-69.487091 152.99388 1.0735053 10
-69.548286 164.22305 1.1402705 12
-69.499886 164.64362 1.0523378 12.772955
-69.416771 164.86987 0.99033111 13.6241
-69.487526 165.4895 1.0295185 12.441751
-69.411095 165.73146 0.98942924 12.218375
-69.459351 150.69279 1.3998804 11.146071
-69.464867 150.97443 1.3831908 10.64025
-69.372887 151.46004 1.4160572 10.304761
-69.371368 151.77165 1.4710124 11.457352
-69.384239 152.19241 1.4264177 11.253608
-69.464157 152.58054 1.5187122 12.02695
-69.369759 152.85072 1.5760238 13
-69.403244 164.2877 1.4101661 12.689437
-69.398361 164.52406 1.4132808 13.126332
-69.369469 165.52679 1.3685067 14.034
-69.336723 150.31364 1.9221054 12.578
-69.441071 150.60915 1.8765707 11.468266
-69.415497 151.01988 1.8343933 12.046562
-69.396133 151.41617 1.7443073 11.227778
-69.390472 151.84625 1.8021671 12.08725
-69.339104 152.15494 1.6950643 12.063334
-69.463669 152.58167 1.684327 12.499609
-69.461708 152.92856 1.7648098 11.961583
-69.347397 164.33231 1.7672747 14.017083
-69.417755 164.52513 1.6834199 14.35325
-69.447853 150.2814 2.1485107 12.318349
-69.34243 150.58093 2.1642203 12.344181
-69.413597 150.98894 2.2042298 12.240679
-69.37075 151.44687 2.1723533 12.131055
-69.355858 151.75148 2.2794881 13.644967
-69.485786 152.30376 2.1565504 12.050375
-69.379929 152.61343 2.2818255 13.81775
-69.364006 152.94179 2.0966725 10.012333
-69.25161 153.25719 2.0558276 14.174
-69.30439 164.56737 2.0191677 15.0725
-69.230659 150.16978 2.4666221 15.093
-69.41111 150.66808 2.6619391 11.639077
-69.317642 151.02538 2.5881121 11.234944
-69.379372 151.35184 2.5500069 11.808333
-69.428146 151.76669 2.5874329 12.169395
-69.43737 152.15331 2.5728009 11.955501
-69.415337 152.49033 2.446239 11
-69.30809 152.98466 2.4821534 13.886538
-69.490013 153.36235 2.5437658 12.109001
-69.571823 150.25726 2.9702654 13.668
-69.289162 150.69835 2.985455 11.94495
-69.319061 151.0318 3.019819 12.138352
-69.284546 151.38736 2.9995852 11.8849
-69.382126 151.81847 3.0524042 12.116327
-69.335274 152.12567 2.9729972 11.862591
-69.552124 152.61154 3.0366702 12.1498
-69.308769 150.34119 3.3519249 11.668584
-69.285172 150.65434 3.3634427 11.130435
-69.432884 150.98363 3.3885067 11.85325
-69.413605 151.45168 3.4166303 11.344772
-69.362122 151.80302 3.3722131 11.832629
-69.405754 152.155 3.3888452 12.1925
-69.448959 152.65152 3.4235144 12.875707
-69.466789 152.98788 3.2767253 11.169929
-69.46962 150.2294 3.8297091 10.398423
-69.522987 150.54764 3.8654404 11.020375
-69.50087 151.03008 3.8127007 11.679109
-69.432541 151.37613 3.7852125 11.786882
-69.311859 151.76404 3.7935541 11.6579
-69.308937 152.12105 3.726331 14.344234
-69.421928 152.57143 3.7411778 14.0955
-69.497574 150.26958 4.1559482 12.759199
-69.424988 150.62407 4.1688247 12.79909
-69.431717 150.96365 4.1935863 12.348024
-69.384583 151.42896 4.2165961 12.533023
-69.363548 151.8093 4.1824188 12.848031
-69.339798 152.15936 4.2505574 13.4698
-69.408623 152.72281 4.1035304 15.055
-69.46907 150.19841 4.49821 13.458857
-69.360062 150.68497 4.5339546 14.003577
-69.480843 151.00049 4.5342627 13.935849
-69.460678 151.46167 4.4287863 13.002666
-69.343506 151.79208 4.4768548 15
-69.495407 150.57603 5.0790029 13.336667
-69.513184 151.02567 5.0903773 15
-69.458618 150.33475 5.5141349 12
-69.395592 150.5605 5.4356785 12.794
-69.55574 151.02005 5.5245814 12.5
-69.536667 151.43916 5.4807472 12.334332
-69.543823 151.67899 5.3777738 12
-69.381485 150.24052 5.8192754 12.281579
-69.391983 150.58974 5.7484431 12.654794
-69.479881 151.03194 5.7127886 13.375
-69.50248 151.42668 5.8956327 12.333333
-69.399124 151.68674 5.8038816 14.63725
-69.346893 150.20499 6.1157293 12.581389
-69.589035 150.65103 6.2567754 12.5
-69.398705 151.01015 6.1654282 12.795612
-69.456467 151.40042 6.1587863 12.833333
-69.367424 151.69702 6.1297998 12.6315
-69.240952 152.28944 6.1075115 13
-69.524216 150.67717 6.4713306 14
-69.499687 150.91164 6.5523734 13.333333
-69.363228 151.20197 6.4905987 13
-69.460899 152.21127 6.6725187 13.123
-69.406586 150.68571 7.0560136 14.507
-69.46386 151.00403 7.0342898 13.090909
-69.28508 151.46783 7.0108747 12.625
-69.433838 151.73634 7.0822902 13.0502
-69.347862 152.15288 6.9211817 13.6884
-69.467369 150.33972 7.5929594 13
-69.406464 150.6859 7.5764885 13
-69.421906 150.98587 7.4633856 13.334445
-69.415604 151.35852 7.4330373 12.8256
-69.312065 151.75224 7.3537326 13.034858
-69.486328 150.71011 7.7239485 13
-69.416206 151.0652 7.7421756 13.001278
-69.55394 151.42352 7.7595005 13
-69.52108 151.79485 7.8112717 13.258167
-69.497116 152.19313 7.7797074 13
-69.375015 151.68083 8.0119267 15.0015
-69.31105 152.05911 8.056633 13.024
-68.922318 175.19472 -5.6457219 7
-69.096779 175.40051 -5.6941118 7
-69.199081 168.71899 -5.2600813 7
-69.047104 169.13196 -5.4012041 7
-68.862724 171.43019 -5.5674539 7
-68.882927 176.3157 -5.2141418 6
-68.9533 177.91182 -5.2171998 6
-69.192635 151.08406 -4.9795465 7
-69.013557 151.284 -4.811851 4
-69.136719 151.9332 -4.8354568 4
-69.126083 152.35759 -4.8797812 4
-68.855194 152.55345 -4.862 4
-69.055237 152.96558 -4.8976574 3.75
-68.995247 153.56152 -5.0168047 4
-68.927231 153.80756 -4.9841599 3.75
-69.050293 154.17575 -4.9032931 3.8333333
-68.974861 154.64143 -4.8661246 3.6363637
-68.955765 154.94568 -4.8954172 4.1999998
-68.897163 155.42892 -4.9070635 4
-69.039383 155.81209 -5.0003333 5.6666665
-68.998886 156.13853 -5.0296917 4.6666665
-69.059586 156.59846 -4.9720278 4.3333335
-68.978081 157.01294 -4.9629498 4
-69.046852 157.43918 -4.9761901 4.2857141
-68.983032 157.78149 -5.0039973 4.75
-68.934975 158.15971 -4.9752598 4
-69.102135 158.64891 -4.8626127 4
-69.125908 158.94177 -4.9189239 4.1999998
-69.044411 159.42741 -4.9648619 4.4000001
-68.997185 159.84674 -4.8936925 4.4000001
-69.000854 160.14586 -4.9384894 4.75
-68.926811 160.4364 -4.9474006 5
-69.188507 160.82642 -4.9204493 5
-69.117668 161.50281 -5.1318483 5
-69.106003 162.9702 -5.0384808 5
-69.102501 163.4501 -5.1556473 5
-68.934471 164.40695 -4.8803649 5
-68.932709 165.00299 -4.9254403 5
-68.943237 165.31818 -4.9260879 5
-68.882172 165.91029 -4.924191 5
-68.96962 166.33244 -5.0959945 5.5
-68.978172 166.59232 -5.0524096 5
-69.045349 166.98801 -5.0484376 5.8333335
-68.929001 168.7084 -5.1023874 6
-68.830429 168.93286 -4.9023542 6
-68.800613 170.62216 -4.9218345 6
-68.834373 172.79105 -5.0197067 6
-69.164131 173.46556 -5.023201 6
-69.01606 173.85197 -4.9108329 6
-69.058441 174.65611 -5.0891376 6
-68.877396 175.10268 -5.1164665 6
-69.010071 175.34537 -5.1752315 6
-69.12561 175.67337 -4.8536978 6
-69.040794 176.56828 -4.8452072 6
-69.027206 176.97842 -4.9729085 6
-69.079399 177.42705 -5.0545125 6
-69.091789 177.73442 -4.9126649 6
-68.93235 178.13596 -5.0112405 6
-69.017967 178.54654 -5.0670772 6
-69.005386 178.94629 -5.1804228 6
-69.13607 179.82761 -4.9250746 7
-69.041489 150.231 -4.6137562 3.3333333
-69.041504 150.63594 -4.6233535 3.1875
-69.035957 150.98578 -4.6363897 3.6111112
-68.977249 151.37242 -4.6277695 3.5454545
-69.053085 151.76178 -4.6852279 4.1428571
-69.001923 152.1665 -4.7400122 5
-68.967514 152.53951 -4.7700391 4.3333335
-69.169754 152.98624 -4.741993 4
-68.904579 153.83272 -4.7896805 3
-69.009048 154.3092 -4.690052 4
-69.113937 154.57693 -4.5862069 4.1999998
-68.880447 155.01401 -4.7138028 4.25
-69.03109 155.45956 -4.7292633 6
-68.906754 157.85889 -4.7525978 5
-68.81591 159.57364 -4.7105532 5
-68.979774 159.76813 -4.6930976 5
-68.896645 162.44603 -4.7532496 5
-69.033325 162.99977 -4.7562833 5
-69.103485 163.26875 -4.7763534 5
-68.861763 170.80034 -4.7019691 6
-69.164093 174.7662 -4.4359312 7
-69.168076 175.3719 -4.4157262 7
-69.079826 179.92575 -4.6340466 7
-69.089752 154.56599 -4.3787789 4.25
-69.164726 154.86305 -4.2304835 6
-69.074791 179.4241 -4.1564703 7
-69.078217 174.97169 -3.9793475 7
-69.041069 179.3485 -3.6141233 8.0722504
-69.187592 179.75183 -3.74247 7
-69.134354 179.27382 -3.4252815 8.0716667
-68.89679 150.90155 -2.9783773 7.6385002
-68.852058 151.89725 -3.0608537 7.3495002
-69.151985 150.94223 -2.5162158 8.6435995
-68.992699 151.74377 -2.6426959 8.2609444
-69.181664 150.94781 -2.3307662 9.2918758
-69.108124 151.65933 -2.3478298 9.0402498
-69.118797 151.3746 -1.3241264 11
-69.04847 151.64407 -1.2188789 11.2345
-69.152428 152.19252 -1.2309453 9
-69.168579 166.54509 -1.4316128 9.1142502
-68.860916 166.91208 -1.3591149 9.1160002
-69.120537 151.10658 -0.92694831 10.2
-69.107613 151.42021 -0.97169352 10.3183
-69.106247 151.72879 -1.0154873 10.625046
-69.062416 152.06821 -0.95149559 10.58825
-69.121284 166.33383 -0.8037129 10.037251
-68.835953 166.79492 -0.8478117 12.0455
-68.860512 166.99655 -0.99603468 11.054501
-69.111443 150.73425 -0.44444907 12.007
-69.123367 151.01526 -0.56644809 11.222776
-69.100014 151.42244 -0.5456475 10.687227
-69.086555 151.74939 -0.59738815 12.160581
-69.089523 166.34964 -0.46743402 12.0585
-68.961823 166.51166 -0.49708161 11.6509
-68.999138 150.73035 -0.21985146 13.006374
-69.004883 151.03548 -0.216012 12.006289
-69.030655 151.34082 -0.23580381 11.805202
-69.110016 151.63115 -0.15306991 11.666667
-69.080826 150.73866 0.15734729 13.2125
-69.04277 151.01508 0.18595298 13.013625
-68.993515 151.31956 0.13273272 12.578458
-69.137009 151.79158 0.23705739 12.726334
-68.909904 160.76001 0.1798822 14.054
-68.880211 160.97609 0.36425513 14.039
-68.988091 151.06374 0.47534913 12.564251
-68.994095 152.43213 0.64471656 10
-68.952286 161.04831 0.60253614 13.474286
-68.867096 161.28296 0.66607517 14.553
-69.156822 164.96454 0.67777389 9.5702496
-69.097855 151.46022 1.1777381 10
-68.983154 151.73576 1.1726551 15.009
-69.070099 152.17293 1.0404416 10.081668
-69.103836 152.59947 1.0700616 10
-69.134514 152.83232 1.0808917 10
-68.991577 160.75064 0.96370369 15.0625
-68.984772 161.04646 0.92580056 14.189357
-68.936028 161.25574 1.0154387 13.036
-68.934303 164.74028 1.0322238 9.7898331
-69.087769 164.90343 1.0559416 13.056
-69.184097 151.12566 1.3126187 10
-69.162865 151.46912 1.3307241 11.2515
-69.03418 151.87659 1.4408476 12.000166
-69.019508 152.08684 1.4557314 12.343028
-69.04525 164.35794 1.5275894 12.525312
-69.023903 164.58939 1.3739929 13.350139
-69.005699 164.80075 1.5173588 13.0365
-68.960068 150.60561 1.8735384 10.095
-69.089752 151.00012 1.8551297 10.508
-68.993065 151.47923 1.7972707 12.229909
-69.08503 151.78189 1.7841219 11.784364
-69.080307 152.1189 1.8527621 11.820206
-69.107414 152.43648 1.8919224 11.390125
-69.004433 152.89537 1.9451394 13.1735
-69.066322 164.34105 1.6947443 12.555333
-68.993057 164.51326 1.7820432 14.195084
-69.168129 164.82916 1.6094846 13.0375
-69.181351 150.39099 2.389025 13
-69.030357 150.70554 2.2221382 12.33945
-68.950829 150.99786 2.2176554 12.264643
-69.060669 151.40128 2.1738825 12.595273
-69.025314 151.81345 2.2172842 12.404705
-68.95076 152.18356 2.2368026 13.838264
-68.955711 152.56944 2.1786478 12.251562
-69.020355 152.89111 2.2258608 13.121915
-68.850647 153.24147 2.3063953 14.175
-69.023552 150.67319 2.6165648 13.315542
-69.055878 151.06384 2.5836861 12.366028
-68.974922 151.45935 2.6367831 12.636533
-69.030556 151.77132 2.5649488 12.0645
-68.967979 152.16388 2.5002766 13.168897
-69.024818 152.56158 2.479486 13.820734
-68.894592 153.01877 2.5232518 13.536456
-69.081139 150.62431 3.0461395 12.783731
-69.106079 150.994 3.0428281 12.390772
-68.966499 151.42223 3.0315835 13.128757
-69.125847 151.77141 3.06759 11.666667
-68.96386 152.6665 3.1236932 11.05
-68.902657 152.9066 3.0009408 14.712151
-68.810814 153.3544 2.9710171 15.097
-69.090584 150.364 3.4532409 12.003499
-69.128593 150.61678 3.3208659 12.861959
-69.153358 151.06917 3.3335738 14.0485
-69.002144 151.37302 3.3334329 12.075327
-69.142159 151.83592 3.4202111 13.038438
-69.120346 152.1544 3.3562841 11.284389
-69.054657 152.60266 3.3969326 13.04775
-68.803932 152.88083 3.2145324 11.0775
-69.133728 150.89761 3.6075263 15.012
-69.078186 151.4778 3.7249267 11.870928
-69.047714 151.75734 3.752162 13.487097
-69.134216 152.12381 3.7484467 13.695916
-69.137413 150.23694 4.1608353 14.009
-69.143257 150.55243 4.1590447 12
-69.157791 151.01204 4.113194 12
-69.155899 151.44411 4.0727601 14.5
-69.037682 151.7674 4.1492567 15
-69.146194 152.09573 4.1869922 13.342834
-69.064331 150.6244 5.7302084 13
-69.187225 151.50168 5.9099808 12
-69.10009 151.61031 5.9710779 13.1245
-69.024033 151.06007 6.124362 13.052999
-68.992279 151.35167 6.1611257 12.8
-69.064285 151.77657 6.1384172 12.993231
-69.197487 150.17676 6.443284 14.0025
-68.915924 151.05481 6.6339664 13.143214
-68.966942 151.4418 6.5367689 13.368723
-68.884277 150.72726 7.0458479 12.362584
-68.878967 151.06635 7.0354543 12.805899
-68.848915 151.36086 6.9583464 13.679459
-68.807381 151.7554 6.9974966 13.061501
-68.990166 150.79239 7.2029767 13
-68.889809 150.98584 7.3127956 13
-68.942032 151.33784 7.439507 13.109175
-69.129784 151.82124 7.3704796 13.0485
-69.000999 152.24271 7.4560099 13.006
-68.948593 152.59601 7.5468807 13
-69.100815 151.10513 7.7299829 12.502501
-69.110054 151.64445 7.7947226 13.012751
-68.922905 152.59007 7.6541767 13
-68.474419 158.11273 -5.4643321 7
-68.406006 169.85477 -5.4152727 7
-68.572899 178.52097 -5.227879 6
-68.471642 179.27255 -5.2069206 6
-68.728661 179.8231 -5.2263432 6
-68.599129 150.18896 -4.8108802 4
-68.587051 150.44299 -4.8056388 4
-68.530281 150.87445 -4.8180008 4
-68.582207 151.40434 -4.8383455 4
-68.644379 151.76956 -4.8764606 4
-68.681206 152.10233 -4.8786492 4
-68.715981 152.40253 -4.928916 4
-68.553589 153.08276 -4.923687 5.4000001
-68.613472 153.40457 -4.9520102 5
-68.552711 153.78709 -4.8819213 4.4285712
-68.634758 154.29926 -4.9025879 3.8571429
-68.628784 154.5686 -4.9089031 4.125
-68.641022 155.01137 -4.8781891 3.625
-68.590225 155.39653 -4.8971896 3.5999999
-68.557877 155.75835 -4.910141 3.8
-68.52153 156.19124 -4.9619174 4.5
-68.66172 156.69182 -4.9650416 4.3333335
-68.548599 157.02736 -4.9510422 5.4000001
-68.631546 157.54759 -4.8706007 5
-68.605232 157.81947 -4.9984021 4.5999999
-68.623901 158.0916 -4.9707484 4.7142859
-68.585663 158.53212 -5.015955 4
-68.605354 159.01437 -4.9485288 4
-68.63559 159.42824 -4.8950534 4.3333335
-68.788216 159.74326 -4.9756193 4.3333335
-68.621117 160.14543 -4.9339933 4.5714288
-68.42807 160.65363 -4.9124355 5
-68.700821 160.97572 -4.8289981 5
-68.785507 161.57755 -5.1477718 5
-68.534164 161.87073 -4.8562412 5
-68.504044 163.51018 -4.866261 5
-68.528198 163.74179 -4.8764219 5
-68.613663 164.28342 -4.8709645 5
-68.590462 165.19756 -4.9214597 5
-68.548393 165.45813 -4.919035 5
-68.400421 165.77771 -4.9056187 5
-68.489418 166.12242 -5.0254121 6
-68.741425 166.79416 -5.0184608 5
-68.588028 166.93694 -5.0169663 5
-68.507805 167.54066 -5.0068874 6
-68.760696 168.6321 -5.0770226 6
-68.745201 170.28198 -5.069438 6
-68.493622 171.0408 -5.0055718 6
-68.48378 171.33502 -4.9234447 6
-68.455238 171.89474 -4.8537459 6
-68.724388 172.37428 -4.8753638 6
-68.708313 172.66815 -4.9635968 6
-68.472519 173.03036 -4.9616508 6
-68.573303 175.46344 -5.0757308 6
-68.656631 175.85497 -5.0440831 6
-68.499237 176.21567 -4.8548737 6
-68.425629 176.7841 -5.099359 6
-68.75502 177.49042 -4.9263787 6
-68.643456 177.71474 -4.9751182 6
-68.49099 178.11742 -4.9503632 6
-68.600441 178.56831 -5.042551 6
-68.581459 178.9653 -5.1294403 6
-68.622047 150.24998 -4.6560864 3.6666667
-68.643387 150.60988 -4.5783167 3.8888888
-68.633751 151.02229 -4.6354513 2.75
-68.590927 151.38472 -4.6590929 3.125
-68.650932 151.75159 -4.6782918 2.5714285
-68.78183 152.04544 -4.720984 3
-68.403214 152.71553 -4.7132745 3
-68.711197 153.41342 -4.768167 3
-68.597076 153.78073 -4.6374364 4
-68.577209 154.19104 -4.6982727 6
-68.73774 154.63074 -4.7390165 4.6666665
-68.540878 159.86887 -4.67939 5
-68.697357 160.23546 -4.7308631 5.3333335
-68.471207 160.57542 -4.7573018 5
-68.429733 161.02145 -4.7042632 5
-68.570679 171.02742 -4.704308 6
-68.474945 150.7764 -3.6388006 6.5
-68.417183 151.73178 -3.6165037 6
-68.527405 152.03647 -3.7066641 6
-68.488457 150.77531 -3.3565376 6
-68.46302 150.82962 -3.3951416 6
-68.597252 151.86395 -3.3338337 6.75
-68.449211 152.01581 -3.5513568 6
-68.675789 150.86736 -3.0179062 7
-68.779213 151.58228 -3.0181866 7
-68.670349 151.90152 -3.1099265 7
-68.488586 167.06836 -1.3080295 9.1160002
-68.582596 166.97542 -0.85765189 9.1645002
-68.685173 166.54343 -0.50367433 12.0455
-68.511337 166.89178 -0.62929171 10.950189
-68.597992 151.04271 -0.17358717 10.534416
-68.721695 151.42537 -0.39254293 9.0054998
-68.555695 161.04839 -0.11475512 11.401
-68.460121 150.65749 0.18036675 13.0845
-68.618889 151.06326 0.18645017 13.521999
-68.695969 151.28545 0.016703231 14.405499
-68.622406 161.05371 0.19074374 13.227192
-68.505585 161.35114 0.21081574 12.832146
-68.589554 161.02319 0.46117759 13.8538
-68.596375 161.35034 0.60451341 13.952875
-68.520561 163.38493 0.49600875 12.06775
-68.714195 161.02042 0.88763112 14.387166
-68.559181 161.39049 0.84709471 14.037417
-68.630379 163.58453 0.83444476 12.034
-68.606812 163.70807 0.88005704 12.533
-68.58522 151.4426 1.8728358 10.0165
-68.718254 151.66693 1.8212547 10.4191
-68.765869 151.07956 2.2595954 12.589
-68.691879 151.3454 2.2105782 13.03185
-68.665092 151.70029 2.1824746 12.516393
-68.677971 152.24318 2.2122304 11.549875
-68.657364 152.44815 2.3449266 11.0665
-68.711624 152.91124 2.3570757 11.131001
-68.636978 153.39572 2.3505423 11.129999
-68.708595 151.04884 2.5137928 13.513501
-68.78804 151.49667 2.6713812 13.75
-68.569611 151.65753 2.4132257 13.499785
-68.714211 152.1749 2.6104348 13.768105
-68.733833 152.62077 2.5670805 13.523236
-68.724541 152.94023 2.5831337 11.974416
-68.611694 153.30893 2.6671436 13.140999
-68.720879 151.57086 3.0584931 11
-68.779793 151.61333 2.9304507 11
-68.62719 152.53346 2.8902228 13.61525
-68.622696 152.92267 2.9443648 12.859571
-68.653381 153.22519 2.9502773 13.651502
-68.631149 151.43217 3.3741002 15.029167
-68.741089 151.6133 3.5084062 12.0005
-68.471092 152.78427 3.218657 15
-68.675957 153.17491 3.2346957 15
-68.791153 151.77267 3.7368999 12.002
-68.692184 151.4697 6.3674216 13
-68.767448 151.66701 6.3790765 13
-68.762512 151.06235 6.7460604 13
-68.69416 151.40822 6.7064381 13
-68.695457 151.69048 6.6301322 13.225
-68.725517 151.07686 6.9654183 13
-68.72271 151.39606 7.0252848 13.386188
-68.45105 151.78406 6.9093475 14.0035
-68.715599 150.96791 7.374373 13
-68.7771 151.21503 7.2791362 13
-68.125183 176.16193 -5.2055292 6
-68.392036 176.68228 -5.2254319 6
-68.028763 177.31049 -5.2561035 6
-68.008263 178.70612 -5.2088003 6
-68.163727 178.95876 -5.2328129 6
-68.02076 179.5845 -5.2147784 6
-68.008789 150.27922 -4.848331 4
-68.027412 150.67726 -4.8045101 6
-68.358444 151.00259 -4.9585853 7
-68.281281 151.47717 -4.8193302 5
-68.151367 151.84714 -4.8904433 4.5
-68.241554 152.17117 -4.9307885 5.5
-68.098228 152.65424 -4.9559021 4.5999999
-68.132957 153.01027 -4.8583679 3.9166667
-68.168701 153.38771 -4.9145508 4.4285712
-68.226685 153.75557 -4.8529449 4.1538463
-68.302025 154.14217 -4.9751954 5.1666665
-68.260567 154.60939 -4.8710136 4.125
-68.290314 154.95572 -4.9107146 4
-68.182129 155.39474 -4.8841701 4.0625
-68.17662 155.81378 -4.9108062 4
-68.179146 156.21851 -4.8956718 4
-68.19223 156.54164 -4.9025412 4.625
-68.193275 156.9794 -4.9587169 4.6666665
-68.220833 157.39308 -4.9456201 4.6363635
-68.223564 157.7755 -5.0080919 5
-68.154243 158.19934 -4.9589829 4.7777777
-68.289406 158.67407 -4.9477763 4.6666665
-68.141449 158.9684 -5.010313 4
-68.262932 159.34839 -5.0154438 4
-68.189461 159.79593 -4.9726777 4.5555553
-68.24472 160.18188 -4.8851151 4.25
-68.173058 161.13551 -4.9256058 5.3333335
-68.230827 161.45853 -4.8656683 5
-68.199661 161.68019 -4.920752 5
-68.364235 162.83693 -4.8518219 5
-68.225006 164.29156 -4.8705845 5
-68.172646 164.43787 -4.875072 5
-68.195656 165.04543 -4.9166093 5
-68.192741 165.43056 -5.0815339 5
-68.199783 166.21161 -4.9214077 5
-68.338455 166.78561 -5.174387 5
-68.253937 167.09218 -5.0186391 5
-68.135757 167.35661 -4.9862194 5.1428571
-68.054352 168.35419 -5.0250311 6
-68.09774 168.86255 -5.0757742 6
-68.257912 171.0892 -4.928668 6
-68.236198 171.42017 -4.9565315 6
-68.194344 171.76184 -4.9368081 6
-68.367775 172.05826 -4.85431 6
-68.150345 173.52843 -4.9468412 6
-68.352097 173.93373 -4.9091625 6
-68.384956 174.16081 -4.9317865 6
-68.223846 175.45511 -5.0023446 6
-68.214996 175.68092 -5.0272789 6
-68.009521 176.09088 -5.129034 6
-68.293869 176.65138 -4.909008 6
-68.179047 176.97145 -4.8527894 6
-68.359482 177.88622 -4.9507437 6
-68.013359 178.17465 -5.0034308 6
-68.262321 178.67993 -4.9863391 6
-68.128433 178.87375 -4.9599247 6
-68.239586 179.36958 -5.1974988 6
-68.145119 150.18764 -4.6891365 3.2142856
-68.134209 150.6375 -4.6827521 3.4285715
-68.165825 150.97937 -4.7052951 3.25
-68.153259 151.38383 -4.6522474 3.1428571
-68.251953 151.76567 -4.6745372 2.8888888
-68.193321 152.24345 -4.6978097 2.4000001
-68.188202 152.60884 -4.7407451 3.2
-68.06282 152.98303 -4.7202291 4.25
-68.23864 153.40857 -4.6653042 3.5999999
-68.241302 153.71413 -4.740941 4
-68.359955 154.08788 -4.7324657 5
-68.346184 158.68338 -4.7717361 5
-68.2108 160.23816 -4.7195811 5
-68.106628 161.18742 -4.6853633 5
-68.20607 161.83945 -4.6698833 5
-68.214439 162.60394 -4.7807312 5
-68.347214 171.34396 -4.778563 6
-68.277748 172.08118 -4.7680302 6
-68.080818 150.46059 -4.1260366 6
-68.183273 152.17052 -4.1025715 5.5
-68.128799 150.72258 -3.883954 4.5714288
-68.213173 152.07507 -3.8815541 5
-68.287163 150.79439 -3.5930965 5
-68.375435 151.95831 -3.5240626 6
-68.396591 167.31642 -0.84818739 12.0445
-68.29287 160.79683 -0.47201803 13.0535
-68.176537 161.15553 -0.52556074 9.0404997
-68.146568 161.21063 -0.41383275 13.044
-68.147194 161.71255 -0.53710961 9.0701666
-68.210442 167.01183 -0.59190768 11.421
-68.204018 161.14606 -0.30889538 12.009501
-68.158028 161.41872 -0.17101449 12.051442
-68.085281 161.65157 -0.10201085 11.531292
-68.27758 162.60762 -0.21044175 12.72
-68.136467 162.98816 -0.17394716 12.4333
-68.159538 163.31859 -0.039638847 13.0265
-68.348251 161.09891 0.24942961 14.0615
-68.27285 161.44124 0.21364115 13.005716
-68.149223 161.68565 0.22387339 13.059476
-68.161934 163.43141 0.27875248 13.044666
-68.352928 161.54137 0.53033829 14.036125
-68.209511 161.73376 0.5734418 13.6444
-68.105125 163.11548 0.4413633 14.0625
-68.32653 163.51897 0.64746934 13.534
-68.279205 163.66174 0.42849112 14.03
-68.340759 163.63878 0.8034541 13.0325
-68.347427 152.61934 2.9696362 14.0965
-67.723228 176.88193 -5.723403 7
-67.678574 169.24048 -5.2349539 7
-67.840942 179.44739 -5.2378478 6
-67.743004 179.64314 -5.2481318 6
-67.770691 150.21951 -4.8716688 5
-67.856941 150.67352 -4.8646779 4.3333335
-67.94278 151.05865 -4.8845944 4
-67.788948 151.32079 -4.8617907 4.5
-67.689987 151.64764 -4.851223 5
-67.785164 152.17822 -4.8439999 4.2222223
-67.872688 152.55475 -4.850431 4
-67.852737 152.99059 -4.8765411 3.1111112
-67.87989 153.39003 -4.8943028 2.7777777
-67.810356 153.85484 -4.9001694 3.25
-67.996826 154.39619 -4.939559 6
-67.81218 154.55051 -4.9019613 3.4000001
-67.751556 154.99669 -4.90592 3.5
-67.76281 155.38222 -4.8785458 3.25
-67.892036 155.8591 -4.9197526 3.7777777
-67.780228 156.19923 -4.9785466 4
-67.775978 156.62193 -4.9459567 3.6666667
-67.780045 156.96095 -4.9549279 4.2857141
-67.844772 157.42393 -4.9808135 3.6666667
-67.895233 157.85658 -4.9640279 4.5
-67.789139 158.24385 -4.9407363 4.4285712
-67.870544 158.64133 -4.9456244 4.5714288
-67.772591 158.97824 -4.9300165 4.8000002
-67.829788 159.42606 -4.9690723 4.5
-67.797676 159.82787 -4.9725394 4.5
-67.807411 160.18176 -4.9086866 4.090909
-67.856407 160.63171 -4.8699937 4.25
-67.91243 160.99768 -4.9799929 5
-67.770737 161.38217 -4.9290056 5
-67.81691 161.77457 -4.9261961 5.5
-67.789474 162.24303 -4.9043961 5.5
-67.844551 164.28693 -4.8673573 5
-67.753357 165.06964 -4.9913421 5
-67.742325 165.44304 -5.0109386 5
-67.840172 165.77864 -5.1431141 5
-67.79554 166.60258 -4.930387 5
-67.892708 167.13437 -5.076623 5
-67.720901 167.41234 -5.0620565 5
-67.749039 167.68851 -4.987824 5.3333335
-67.881607 168.3618 -5.1163688 6
-67.846092 168.59821 -5.0475955 6
-67.731743 168.90027 -5.0944128 6
-67.72242 169.46252 -4.9851589 6
-67.915749 171.05496 -4.9248805 6
-67.763504 171.50748 -4.8526239 6
-67.85273 171.95265 -4.9762287 6
-67.73127 172.35052 -4.9950752 6
-67.676254 172.44817 -4.9769588 6
-67.755371 173.85292 -4.9677668 6
-67.805611 176.54309 -5.0091071 6
-67.887589 176.99039 -4.8961153 6
-67.783195 177.98537 -4.9270964 6
-67.896896 178.63167 -4.9621677 6
-67.887825 179.09438 -5.0035787 6
-67.791862 179.44037 -5.0168734 6
-67.864418 179.82257 -5.0049071 6
-67.850174 150.24039 -4.6564255 2.4705882
-67.760948 150.56303 -4.6331172 2.5
-67.678085 151.03741 -4.7035594 2.2
-67.769302 151.39871 -4.7153187 2.5
-67.767365 151.8288 -4.7359219 3.3
-67.730377 152.22981 -4.6938553 3.2105262
-67.895317 152.61057 -4.7138267 3.5
-67.799759 152.91241 -4.7695265 3
-67.828163 153.29225 -4.7759905 5
-67.656258 158.82858 -4.5794086 5
-67.987251 160.51173 -4.6814141 5
-67.948532 161.78232 -4.728354 5
-67.751587 162.10283 -4.7207022 5
-67.86174 171.9606 -4.7920384 6
-67.754852 172.31857 -4.7541828 6
-67.8871 150.62866 -4.2823005 3.5
-67.8937 152.18033 -4.3293629 3.75
-67.676651 161.57404 -1.2333481 9.118
-67.759407 162.36166 -1.3732808 10.1745
-67.603874 162.42596 -1.5980988 10.0095
-67.796097 161.25676 -0.8793608 11.00275
-67.74778 161.82909 -1.0576181 10.09825
-67.680138 162.65703 -0.90810531 11.094999
-67.766525 163.0184 -0.99163485 9.5732498
-67.836739 161.02808 -0.48789421 12.077
-67.784737 161.41837 -0.58887482 11.212379
-67.747276 161.76434 -0.55770856 11.075104
-67.652946 162.09506 -0.48588902 10.082
-67.738426 162.77243 -0.74482101 11.5355
-67.747314 163.0647 -0.57922459 11.458349
-67.987312 161.00594 -0.38581121 13.0615
-67.874886 161.36327 -0.3367123 12.756649
-67.846771 161.80646 -0.21850561 12.065498
-67.713318 162.15176 -0.1886832 12.533543
-67.813522 163.06596 -0.19665302 11.704999
-67.92527 163.27023 -0.18729553 12.065749
-67.87204 161.86403 0.21757375 12.208751
-67.789291 162.08427 0.026253363 13.0335
-67.815231 163.46284 0.16829327 11.863542
-67.9412 163.5629 0.49431688 13.032
-67.429245 176.79454 -5.6760488 7
-67.349724 171.9023 -5.5435376 7
-67.474945 177.58194 -5.2612877 6
-67.569046 179.22044 -5.229753 6
-67.368698 179.95352 -5.2580051 6
-67.394447 150.19836 -4.867249 4.3000002
-67.412735 150.62071 -4.8833919 4.1111112
-67.391823 151.01236 -4.8823538 4.1999998
-67.403427 151.4106 -4.8828182 3.7272727
-67.325912 151.79462 -4.8778782 2.125
-67.441109 152.17174 -4.9050937 3.6666667
-67.428764 152.59003 -4.8930221 3.375
-67.400368 153.06499 -4.9058342 3.1111112
-67.343246 153.42693 -4.9362087 3.6470587
-67.304695 153.79646 -4.9306703 3.3636363
-67.290146 154.18787 -4.973876 3.5999999
-67.363052 154.63062 -4.8715286 3.3333333
-67.442932 154.98708 -4.9020014 3.5
-67.34761 155.43709 -4.9560456 4.75
-67.408455 155.82439 -4.9265299 4.125
-67.457756 156.18614 -4.9109011 3.7272727
-67.363174 156.47682 -4.9782109 3.7142856
-67.368111 156.9678 -4.9895163 3.8888888
-67.409454 157.4258 -4.9611468 4.375
-67.359955 157.79953 -5.0186505 4.1999998
-67.381523 158.25067 -5.0459132 4.5
-67.465096 158.56958 -4.9326806 4
-67.359833 159.00629 -4.9706388 4.8571429
-67.420792 159.34822 -4.9269176 4.818182
-67.428917 159.82111 -4.9551358 4.2857141
-67.395447 160.18622 -4.9906163 4.4000001
-67.407402 160.57346 -4.9087081 4.1999998
-67.490303 160.87114 -4.8666167 4
-67.469803 161.38254 -4.9336205 5
-67.399849 161.83025 -4.8480039 5
-67.437134 162.5715 -4.9067435 5.5
-67.465942 164.23848 -4.8347545 5
-67.283264 164.41316 -4.8130937 5
-67.422615 165.49307 -5.0107236 5
-67.374985 165.86432 -5.0832357 5.1999998
-67.334091 166.26314 -4.906528 5
-67.31794 167.08249 -4.9133935 5.5
-67.408875 167.34425 -5.076406 5
-67.337074 167.71877 -5.0404949 5.1999998
-67.449181 169.17213 -5.1149783 6
-67.465752 169.52423 -5.0639834 6
-67.441154 171.453 -4.8476524 6
-67.549629 171.71634 -5.0613613 6
-67.592278 172.27704 -4.8074136 6
-67.317413 172.63872 -4.9697423 6
-67.433067 173.4913 -5.020081 6
-67.540848 175.00961 -4.8710999 6
-67.331917 175.43741 -4.8916345 6
-67.341995 176.90601 -5.0250034 6
-67.416512 178.98247 -4.9894066 6
-67.382256 179.40059 -5.0378976 6
-67.421303 150.16319 -4.7527833 2.1333334
-67.433243 150.63345 -4.7239385 3
-67.44352 151.03154 -4.7545171 2.5833333
-67.463417 151.40184 -4.75456 3.1818182
-67.48143 151.82146 -4.7379637 3.5714285
-67.559097 152.37909 -4.7623467 2
-67.325607 152.52258 -4.7837186 2
-67.241211 152.93658 -4.7885861 2.5
-67.476212 153.7986 -4.7949357 3
-67.587982 160.68018 -4.655601 5
-67.375053 160.88988 -4.6480699 5
-67.374023 161.42072 -4.6766844 5.5
-67.205238 161.91647 -4.7214565 5
-67.467239 162.08994 -4.7280316 5
-67.547386 162.47769 -4.7198853 5
-67.560356 171.57796 -4.6999197 6
-67.599083 172.38815 -4.7935767 6
-67.453873 172.53607 -4.7572103 6
-67.205811 162.17171 -2.0743558 9.1709995
