# .PCD v0.7 - Point Cloud Data file format
VERSION 0.7
FIELDS x y z intensity
SIZE 4 4 4 4
TYPE F F F F
COUNT 1 1 1 1
WIDTH 1221
HEIGHT 1
VIEWPOINT 0 0 0 1 0 0 0
POINTS 1221
DATA ascii
-22.14922 161.41464 2.6435664 12.856333
-22.163109 161.8503 2.5231214 11.98125
-22.203938 162.06656 2.5480204 13.089251
-22.027306 159.98045 3.1039777 14.1705
-22.13303 160.27832 2.9489129 12.7925
-22.240395 160.51407 2.9532073 12.346214
-22.067774 161.35881 2.9037898 13.3224
-22.170755 161.82283 2.9816344 14.08025
-22.138424 159.80865 3.4408822 10
-22.240059 160.30869 3.41137 13.264542
-22.225885 160.59055 3.3726935 12.797249
-22.187504 161.91768 3.219187 14
-22.274836 160.32025 3.7605054 13.318071
-22.35603 160.52017 3.821615 15.056
-21.95219 153.57635 -5.7077403 4
-21.920219 153.34038 -5.2478347 6
-21.70027 156.09721 -5.3065796 5
-21.955364 157.11098 -5.4955974 6
-21.849741 157.92068 -5.2127314 4.1999998
-21.696325 158.12427 -5.217598 4
-21.73255 158.68495 -5.2183833 4.3333335
-21.793615 159.36665 -5.2323418 4
-21.864538 159.81566 -5.2434511 5
-21.679382 160.30867 -5.37046 4.8571429
-21.736528 160.66502 -5.3308482 4.8333335
-21.776665 160.99403 -5.3074856 4.5999999
-21.741568 161.41959 -5.2823977 3.4000001
-21.77739 161.7426 -5.342751 4.1875
-21.75635 162.23395 -5.3136716 4.4166665
-21.833277 162.65973 -5.2799244 3.8
-21.864231 162.94098 -5.3262048 4.2857141
-21.774176 163.38928 -5.2624931 3.75
-21.876667 163.73283 -5.2313318 2.8
-21.861769 164.19023 -5.2495241 5
-21.733335 164.54057 -5.3203926 5.5
-21.71419 164.95175 -5.2329559 5
-21.788782 166.00894 -5.2545719 1
-21.790621 166.63382 -5.2410679 2
-21.740297 167.13718 -5.259614 2
-21.774765 167.36418 -5.283164 2.3333333
-21.986454 168.58551 -5.243463 4.5
-21.88438 169.13522 -5.2705479 5
-21.645555 170.27606 -5.2535524 4.5
-21.931395 171.02431 -5.3196793 5
-21.974924 173.89709 -5.2315836 5
-21.755943 176.05496 -5.2239604 6
-21.899662 178.17648 -5.3180017 6.5
-21.713129 179.85487 -5.4380021 6
-21.853201 150.24785 -4.9612522 3.0769231
-21.797167 150.54573 -4.9551044 3.9473684
-21.830143 151.01613 -4.9638333 2.55
-21.782705 151.39812 -4.9849362 2.2
-21.76515 151.7654 -4.966073 2.125
-21.774117 152.16957 -4.9831753 3.0666666
-21.823027 152.60126 -4.9993343 3.1500001
-21.839378 153.03754 -5.0134482 3
-21.812088 153.36708 -4.9306889 3.9242425
-21.740688 153.76888 -4.9674797 2.724138
-21.748713 154.17804 -4.9684949 3.5
-21.754301 154.59261 -4.9739137 3.4166667
-21.783272 154.98318 -4.9355721 3.7166665
-21.789816 155.377 -4.9895935 4.0333333
-21.746077 155.79311 -4.9943967 3.9534883
-21.785933 156.17216 -4.9877315 4.0731707
-21.807199 156.6051 -5.0052471 4.0192308
-21.814718 156.97794 -4.9803467 4.0434785
-21.826462 157.33984 -5.0383215 3.8333333
-21.767164 157.82727 -5.1464095 3.5999999
-21.810818 158.15508 -5.1421175 2.5555556
-21.722906 158.51364 -5.1659665 3.75
-21.700006 158.96127 -5.1184621 3
-21.811228 159.45723 -5.1472211 4
-21.749041 159.75137 -5.1500754 2
-21.847181 160.15608 -5.1592026 2.6666667
-21.820427 160.58789 -5.1729927 4
-21.806858 161.07686 -5.1847725 3
-21.939785 161.42244 -5.1895552 3
-21.775393 161.77515 -5.1946697 3.2
-21.637974 162.64265 -4.9684973 5.5
-21.64711 162.9702 -5.040534 5
-21.681763 163.40562 -5.007863 5
-21.694489 163.68192 -4.9371982 5
-21.717314 164.36098 -4.8873782 5
-21.735716 164.66147 -5.027091 5
-21.740654 164.94861 -4.9077363 5.5
-21.645006 165.29399 -4.9709921 6
-21.828236 166.1438 -5.1892834 0
-21.857279 167.51318 -5.1341286 3
-21.72344 168.19266 -5.1688209 3.4000001
-21.971266 168.56369 -5.178648 6
-21.873135 168.88443 -5.1674232 6
-21.884689 169.48993 -5.1419373 3.5
-21.741066 169.65294 -5.1609941 3
-21.797989 170.32584 -5.1728392 4
-21.961134 170.71758 -5.1685057 4
-21.695953 170.9382 -5.1633348 4
-21.641697 171.43875 -5.1556029 4
-21.635681 171.81866 -5.1370139 4
-21.927259 172.35239 -5.1478291 5
-21.698303 172.43065 -5.1536512 5
-21.611786 173.33252 -5.1544404 5.5
-21.678379 174.04782 -5.1660175 5
-21.751974 174.60974 -5.1603217 5.5
-21.87178 174.99939 -5.1780114 5
-21.808784 175.37363 -5.1811891 5
-21.732988 175.84204 -5.1745901 5
-21.833992 153.40912 -4.6774759 4.3333335
-21.840784 153.8067 -4.6451488 3.9166667
-21.786861 154.15114 -4.6507182 3.017544
-21.821074 154.60237 -4.6331539 4.135417
-21.824692 155.04753 -4.6195679 3.0185184
-21.848799 155.42474 -4.6122894 3.7
-21.876965 155.78435 -4.5882711 3.8333333
-21.655428 156.12791 -4.7735891 5
-21.796322 156.6857 -4.651526 4.8333335
-21.869211 156.98288 -4.6213078 4.6666665
-21.735788 157.2836 -4.7266297 4.1666665
-21.631021 163.26688 -4.5836387 6
-21.65951 163.66971 -4.5901971 6
-21.678667 164.00163 -4.592855 6
-21.710737 164.64955 -4.6350541 6
-21.69943 164.82204 -4.6237731 6
-21.729353 165.5195 -4.7014556 6
-21.690941 165.65703 -4.6580558 6
-21.89386 153.48421 -4.1986265 4.5131578
-21.8971 153.78973 -4.1837249 4.21875
-21.894686 154.19724 -4.1992927 3.8849208
-21.899303 154.63457 -4.162457 3.652174
-21.919491 155.04131 -4.1847806 3.3266668
-21.92243 155.40913 -4.2522058 4.3771935
-21.900005 155.7865 -4.2250023 3.7541666
-21.917706 156.2356 -4.2123504 4
-21.938583 156.61731 -4.2271309 4.4749999
-21.928984 156.96715 -4.2252097 4.5999999
-21.644228 163.01593 -4.3188686 3
-21.689905 163.47272 -4.2571988 3.8958333
-21.676617 163.61763 -4.3042436 6
-21.643137 164.33884 -4.2728343 6
-21.607704 165.16106 -4.2892942 6
-21.767307 161.90926 -3.2225537 9
-21.823181 163.83777 -3.2348771 7
-21.976767 166.82904 -3.4082348 7
-21.868494 179.44714 -3.2307515 9.0705004
-21.92709 179.99742 -3.373559 8.1014996
-21.996094 161.12924 -2.9482393 7
-21.705011 161.77434 -3.010325 10.176854
-21.800806 162.21082 -2.9719496 8.0509996
-21.832659 162.56432 -2.8713071 9.725666
-21.643948 162.93637 -3.0537846 8.0950003
-21.883545 164.98579 -3.0657241 8.1344995
-21.913242 166.71201 -2.8718541 8.0072498
-21.731682 166.95793 -2.9153254 8.0116253
-21.728577 178.0869 -2.8296428 8.0050001
-21.997835 179.4879 -3.1111181 9.0795002
-21.753223 160.74629 -2.5232654 8.9376011
-21.8032 160.8887 -2.4664383 9.6426916
-21.701788 161.50806 -2.5943203 8.0734997
-21.6887 161.7979 -2.6123259 11.507442
-21.843273 162.26602 -2.6044598 11.851682
-21.78322 162.51471 -2.5395477 11.468698
-21.765768 162.98486 -2.5029824 11.927571
-21.7071 163.44287 -2.5959098 11.574625
-21.612257 163.64583 -2.4549267 12.076
-21.795776 164.66673 -2.5328505 10.61214
-21.928698 164.89397 -2.5367224 11.691222
-21.644264 165.83261 -2.4773617 9.0314999
-21.719219 166.67426 -2.6440613 9.7219286
-21.799589 166.95314 -2.6369295 10.89239
-21.781431 179.11699 -2.4841523 9.5707493
-21.91153 179.33365 -2.5215981 9.367857
-21.658157 159.77763 -2.0031552 8.007
-21.824503 160.27832 -2.0237336 10.573788
-21.828377 160.65791 -2.1972651 10.076724
-21.810926 160.94112 -2.2192624 10.678472
-21.740326 161.41216 -2.2170432 10.347623
-21.812141 161.76834 -2.2824228 10.778225
-21.742453 162.22118 -2.216969 11.434166
-21.852894 162.55566 -2.2061219 11.847961
-21.86371 163.05321 -2.1996622 11.958726
-21.722349 163.47868 -2.2958889 12.363893
-21.791208 163.6756 -2.1132705 13.076584
-21.835388 164.62492 -2.1407363 12.749229
-21.903944 164.8885 -2.133491 14.446572
-21.870161 165.36832 -2.0682626 12.30275
-21.661957 165.785 -2.1699407 12.072
-21.918282 166.0614 -2.1305988 12.087749
-21.817406 166.65807 -2.2602293 11.721749
-21.776867 166.819 -2.2600622 11.577749
-21.846745 178.96989 -2.2838647 9.5662498
-21.922594 179.44745 -2.3051794 9.3287506
-21.729174 179.60233 -2.0741739 10.086
-21.738697 159.54443 -1.8148861 11.084
-21.711069 159.81686 -1.84225 10.188923
-21.738512 160.17667 -1.7736477 9.9478064
-21.813002 160.60759 -1.8637251 11.092598
-21.813637 160.95956 -1.793013 11.446632
-21.707956 161.36342 -1.8008984 11.4527
-21.778315 161.80225 -1.7643863 12.064375
-21.766573 162.174 -1.8384982 12.508965
-21.912405 162.57535 -1.8736939 11.405167
-21.952665 162.97975 -1.892045 12.06125
-21.759418 163.44974 -1.7678956 12.884583
-21.663073 163.67337 -1.8391414 12.5805
-21.747124 164.51607 -1.8410439 12.913285
-21.94347 164.95546 -1.9453422 11.666667
-21.835747 165.28743 -1.8944324 13.162149
-21.602961 165.62749 -1.8818063 14.06675
-21.85153 166.33159 -1.7824734 12.658708
-21.962036 166.40675 -1.914407 13.0685
-21.877693 166.9639 -1.7556537 13.5785
-21.912813 167.24214 -1.6574737 15.05225
-21.732933 168.69931 -1.7427725 12.318455
-21.6609 168.90245 -1.8591366 10.8269
-21.731981 177.38429 -1.7027897 11.0495
-21.82864 178.45955 -1.6624633 11.045
-21.975309 179.80832 -1.7105539 11.0705
-21.773666 159.0981 -1.2385216 8.814167
-21.814569 159.42235 -1.3167588 10.460917
-21.777147 159.76443 -1.3003398 10.849593
-21.769049 160.18062 -1.4139831 10.774644
-21.853123 160.46899 -1.3121926 10.587501
-21.78755 160.96883 -1.5491655 10.463834
-21.869577 161.34256 -1.4747193 10.679637
-21.728073 161.81633 -1.462458 12.424812
-21.776421 162.17627 -1.4121135 12.520182
-21.750769 162.85487 -1.4292312 13.421333
-21.918015 163.71793 -1.4171488 13.06925
-21.684246 164.33232 -1.3918946 12.048667
-21.784983 164.48093 -1.4739881 12.930063
-21.660833 165.12936 -1.299139 13.054001
-21.641584 165.53728 -1.2410898 13.078
-21.727356 166.25926 -1.5733473 14.0835
-21.76502 166.48203 -1.3101642 10.130501
-21.812111 166.95901 -1.3068274 11.0335
-21.920568 167.35542 -1.5623989 14.725417
-21.63899 168.53629 -1.5583533 14.0575
-21.84848 169.47206 -1.3260252 13.811937
-21.829805 170.35724 -1.5445099 13.072
-21.875347 170.54544 -1.2676932 13.56225
-21.894875 178.95776 -1.265313 11.0885
-21.816366 159.04929 -1.0320067 11.736949
-21.847855 159.39226 -1.0023917 11.943564
-21.804459 159.8302 -0.97427315 11.936733
-21.715338 160.15712 -1.0122074 11.800525
-21.761082 160.57616 -0.96117043 10.502901
-21.814642 161.01181 -0.89176399 10.16885
-21.773132 162.33408 -0.80317777 13.041
-21.607168 162.56325 -0.80456018 13.0405
-21.744083 163.08421 -1.1118664 13.0845
-21.698944 163.33122 -1.1667227 13.08375
-21.930359 163.75064 -1.1526707 12.039
-21.75864 164.384 -1.0824596 13.078751
-21.756176 164.47401 -0.83726186 14.0805
-21.958256 164.88493 -1.0700725 11.694167
-21.797718 169.4274 -1.121744 15.051
-21.655783 169.82033 -1.1225123 14.0615
-21.73778 170.18069 -1.0641544 14.55225
-21.868336 179.1633 -0.92131931 12.045
-21.989798 179.92302 -0.93323088 12.0705
-21.819176 159.17094 -0.79014158 12.0915
-21.924633 159.3688 -0.66966999 11.012968
-21.712626 159.78949 -0.54082555 11.653728
-21.835484 160.23619 -0.63518322 11.329632
-21.823973 160.58058 -0.59189945 10.162286
-21.814123 160.97083 -0.69639701 10.904235
-21.791195 161.26114 -0.70818454 10.5585
-21.710897 162.12585 -0.75890434 13.0795
-21.636433 162.44676 -0.6948607 13.0385
-21.601358 163.97618 -0.66037029 14.0825
-21.923426 166.24973 -0.64423048 13.0455
-21.969648 159.04456 -0.32398564 12.615499
-21.814144 159.52757 -0.11057527 10.367333
-21.771717 159.91345 -0.26444739 11.911259
-21.800322 160.17271 -0.22076696 11.777238
-21.906931 160.68562 -0.27440932 13.6989
-21.667292 160.8064 -0.35095268 11.161
-21.645449 162.3688 -0.16059662 11
-21.713301 162.60666 -0.20323549 10.5
-21.888828 163.00188 -0.10528935 11.4018
-21.800049 164.80974 -0.14528796 14.075
-21.829739 159.52359 0.26793927 11.379375
-21.800602 159.77699 0.20908399 12.719696
-21.765097 160.24438 0.00023729354 12
-21.657368 161.3261 0.014777149 8.0270004
-21.865854 162.26859 0.39536375 11.002
-21.823936 162.68724 0.27178231 10.667999
-21.830027 163.01868 0.15765154 10.841583
-21.827253 163.32478 0.1738047 10.060834
-21.830076 164.78146 0.067194924 13.083
-21.977959 169.32716 0.33326319 14.0415
-21.920677 158.77898 0.68816435 14.014
-21.879738 159.04218 0.68267423 11.793625
-21.780081 159.41476 0.5981136 12.605133
-21.843723 159.69525 0.46892276 12.656157
-21.866451 162.25984 0.6245774 12.941864
-21.808191 162.55759 0.64696753 12.606275
-21.906557 162.97977 0.53798866 12.004666
-21.746033 163.32858 0.57544112 11.380501
-21.784094 159.01552 0.92204458 12.284307
-21.731298 159.3167 0.91691804 13.42155
-21.863384 162.21255 1.0248693 11.927788
-21.786552 162.62866 0.93298453 12.253499
-21.810654 162.87607 1.0843771 12.08175
-21.646461 163.29311 0.87371206 12.161
-21.828789 159.34599 1.335494 11.724833
-21.955055 160.74438 1.4961921 13.441299
-21.830904 160.99364 1.4190702 10.419901
-21.88747 161.46585 1.3394063 11.037666
-21.882833 161.82283 1.3877419 13.538607
-21.815813 162.26643 1.3847319 12.672853
-21.725584 162.54314 1.4536264 13.080693
-21.636776 165.28665 1.3368206 10.004
-21.861673 160.74928 1.6853629 14.1295
-21.876774 161.79222 1.8872746 13.157749
-21.785019 162.21713 1.8034552 12.754156
-21.631727 162.42703 1.7151713 13.161
-21.677965 165.5426 1.7852339 11.0035
-21.852385 165.65439 1.9528115 12.003
-21.707954 161.54485 2.1426196 12.0035
-21.774414 161.80069 2.1987569 13.265121
-21.727743 162.15578 2.19771 14.082624
-21.889149 162.49557 2.2730088 12.25675
-21.686907 159.99203 2.7925954 15.0055
-21.80978 160.17558 2.730221 10.6881
-21.825535 160.61533 2.6721821 13.120999
-21.831306 161.16348 2.6619163 12.526625
-21.834917 161.43481 2.5884764 12.310527
-21.794739 161.79701 2.6092873 13.225783
-21.664675 162.09773 2.5499339 13.353583
-21.681442 162.45601 2.5965893 11.556
-21.853472 159.90186 2.9619033 15.094
-21.852173 160.16389 3.0175815 13.212821
-21.871258 161.09943 2.9074128 14.02725
-21.739357 161.45869 3.0169153 13.683167
-21.726904 161.74973 2.9836996 13.835908
-21.787237 162.18936 2.999799 13.721166
-21.842203 160.25995 3.3738763 11.604501
-21.861982 160.61661 3.3826258 10.507874
-21.891357 161.78384 3.2352166 14.14
-21.808258 162.2047 3.2439177 14.5
-21.77294 160.5715 3.6661401 11
-21.367874 156.24521 -5.2107568 5
-21.357594 156.59305 -5.2357392 6
-21.349751 157.01866 -5.2435079 6
-21.431093 157.84259 -5.2674031 6
-21.414272 158.23927 -5.2352648 4.3333335
-21.454769 158.6608 -5.2214632 4
-21.292618 159.01695 -5.2293367 3.5
-21.418774 159.3642 -5.2754784 4.5454545
-21.500704 159.80946 -5.3309603 5
-21.423847 160.12779 -5.3147869 4.7777777
-21.37488 160.57051 -5.3074698 4.7857141
-21.402023 160.99979 -5.2930193 4.6666665
-21.503256 161.38681 -5.337008 4.625
-21.316864 161.7516 -5.2623444 2
-21.419817 162.13266 -5.2791762 3.5999999
-21.377611 162.64403 -5.2708712 4.5714288
-21.426413 162.99199 -5.2524223 3.3636363
-21.399977 163.23405 -5.3835115 5
-21.363312 163.61398 -5.368279 5
-21.283495 164.7753 -5.4834194 6
-21.599461 165.33504 -5.2761359 0
-21.462564 166.14243 -5.3313718 3.5
-21.408386 167.12186 -5.257616 2.6666667
-21.480379 167.40468 -5.2966676 2
-21.294233 168.38065 -5.2410536 5
-21.49482 169.03214 -5.2768407 5
-21.44928 169.4713 -5.2847886 5
-21.458006 170.68375 -5.256815 4.5
-21.236738 171.19452 -5.3272405 5
-21.465912 173.8761 -5.2229609 5
-21.519369 176.33372 -5.2319803 6
-21.216051 177.17572 -5.2405577 6
-21.520975 177.29218 -5.2531414 6
-21.427977 177.93651 -5.4696202 7
-21.478546 178.0891 -5.2494206 6
-21.579849 178.71008 -5.2787604 6
-21.276474 179.78122 -5.4300876 7
-21.326954 150.24988 -4.9329944 3
-21.352825 150.60287 -4.9692945 4.181818
-21.445932 151.06978 -4.9824171 3.3333333
-21.362988 151.42184 -4.9769263 2.5555556
-21.329319 151.80406 -4.9853721 2.1428571
-21.367147 152.2222 -4.9831147 3.2083333
-21.312862 152.55742 -5.0013752 2.1538463
-21.398752 152.9556 -4.9801998 2.625
-21.485708 153.38634 -4.9714384 3.0555556
-21.49696 153.8231 -5.0024848 3.4375
-21.459764 154.25148 -4.9689116 3.4545455
-21.435366 154.61385 -5.02565 2.9285715
-21.415258 154.9303 -5.0206137 2.95
-21.371391 155.40211 -5.0647507 3.8571429
-21.385683 155.77138 -5.1255493 4.625
-21.401167 156.1796 -5.0488091 3.5
-21.454939 156.57994 -5.0868368 3.3076923
-21.454174 156.97551 -5.1406231 3.8181818
-21.419647 157.35204 -5.1464047 4.375
-21.38772 157.75197 -5.133038 3.1818182
-21.387201 158.26311 -5.1504307 3.3076923
-21.379139 158.6012 -5.1656184 3.375
-21.306078 158.99266 -5.1245894 2.2
-21.455095 159.43336 -5.1514864 2.8
-21.300192 159.79269 -5.1502361 1.875
-21.291517 160.23265 -5.1610413 2
-21.387581 160.54504 -5.1770124 1.8
-21.353943 160.97255 -5.1826892 1.5
-21.408649 161.28368 -5.1931434 2
-21.344069 161.88211 -5.1978335 3.5
-21.284782 162.22917 -5.0088773 5.0999999
-21.380821 162.54755 -4.995647 5.5714288
-21.310963 162.88132 -5.0162492 5.5
-21.35648 163.51065 -4.9745841 6
-21.493467 163.69354 -4.8998952 6
-21.351915 164.25262 -5.0492411 6
-21.515532 164.59354 -4.850378 5
-21.458687 165.01141 -4.9491768 5.3333335
-21.4813 165.62222 -4.879806 2
-21.230568 167.5919 -5.1866741 3
-21.537836 167.76328 -5.1572804 6
-21.418871 168.29881 -5.1677027 4
-21.442272 168.71873 -5.1665878 3
-21.406216 169.42325 -5.15974 4
-21.57419 169.6456 -5.1576567 3
-21.263336 170.29102 -5.1802697 4
-21.251215 170.77451 -5.0421252 4
-21.292307 171.15794 -5.1558938 4
-21.328476 171.87967 -5.1427493 4
-21.310963 173.50502 -5.1298904 6
-21.355011 174.15063 -5.1094837 5
-21.406416 174.64252 -5.1780729 6
-21.376713 175.08672 -5.1621847 5.5
-21.323282 175.35878 -5.1563406 5.25
-21.403873 175.83154 -5.1831069 5
-21.55234 153.38702 -4.6943555 4.8000002
-21.500078 153.71982 -4.7115922 4.4444447
-21.568203 154.26767 -4.7195845 4.3333335
-21.576122 154.74471 -4.7129278 6
-21.588629 154.97003 -4.74122 4.4000001
-21.564438 155.2451 -4.7248254 7
-21.567318 157.25238 -4.7732787 5
-21.269884 162.37253 -4.6123667 5
-21.336334 162.57057 -4.6941328 5.465909
-21.326496 163.01668 -4.5768762 6.2727275
-21.310574 163.43636 -4.674377 6
-21.431437 163.83051 -4.6774712 6
-21.408241 164.22603 -4.6008296 6.6666665
-21.35726 164.67348 -4.7109442 6
-21.440853 165.10889 -4.5740252 5.6666665
-21.49102 165.30626 -4.5799413 7
-21.587791 153.40956 -4.0624356 6
-21.347178 162.5881 -4.3886514 3
-21.315912 163.05202 -4.3089814 3.4848483
-21.387186 163.41603 -4.2455397 5.3076925
-21.331882 163.72052 -4.0453377 5.2857141
-21.341059 164.35147 -4.1837058 5.4444447
-21.369835 164.51981 -4.2541308 5.5294118
-21.472382 165.0614 -4.2015424 5
-21.39834 165.32635 -4.2079439 5.5454545
-21.345371 165.60054 -4.1364875 6
-21.217907 175.88437 -4.1109676 7
-21.408932 162.33864 -3.660795 7
-21.355213 163.79259 -3.9471841 5.6666665
-21.376541 164.16724 -3.9130249 6.5
-21.321711 164.44537 -3.9062846 6
-21.234213 164.80588 -3.8714485 6
-21.230446 165.32788 -3.9188054 6
-21.263956 175.39999 -3.8909147 7
-21.225977 175.75499 -3.9618733 7
-21.378893 161.89737 -3.269906 8.4978933
-21.282629 162.08749 -3.2836521 8.5351
-21.296574 175.09883 -3.4995418 8.0581665
-21.394236 175.2778 -3.5498586 8.0476999
-21.329365 175.78244 -3.3523924 8.0640001
-21.521252 179.85873 -3.2246478 9.0699997
-21.393724 161.83191 -3.001127 9.2563782
-21.280226 162.09106 -3.0207336 9.831604
-21.484665 166.91478 -2.8871706 8.3711662
-21.317404 175.0961 -2.9635017 8.2147007
-21.288414 175.40547 -2.9652143 8.355999
-21.351645 175.80862 -3.0530877 8.5507507
-21.343773 177.22443 -2.8349001 8.0074997
-21.454809 179.98055 -2.9036081 8.1669998
-21.520409 160.76695 -2.4679968 8.9143572
-21.482876 160.88605 -2.4539635 9.3089161
-21.224707 161.57617 -2.6535122 11.094749
-21.390902 161.84019 -2.6088898 10.473496
-21.355261 162.17896 -2.5852666 11.178489
-21.356331 162.4118 -2.5588894 9
-21.504364 162.97568 -2.472919 12.5655
-21.422403 163.47961 -2.5221124 11.167742
-21.428299 163.79547 -2.5129967 11.403054
-21.503302 164.57211 -2.6259174 9.0354996
-21.4498 166.65082 -2.5297074 10.27739
-21.449335 166.93608 -2.6366346 10.363711
-21.356657 176.69052 -2.5825074 9.0232506
-21.483128 176.86617 -2.6813037 7
-21.285158 177.44339 -2.4341834 9.1050005
-21.495253 178.752 -2.4014292 9.5445004
-21.439482 178.82877 -2.5867124 9.092
-21.464151 179.6758 -2.5159905 8.0015001
-21.336906 159.49881 -2.0973914 10.544188
-21.316011 159.80736 -2.0938778 10.131305
-21.417198 160.19424 -2.0575483 11.288144
-21.419006 160.58975 -2.1187189 9.4373531
-21.470139 160.94759 -2.2484775 9.8154907
-21.39324 161.39667 -2.1698651 10.230185
-21.399496 161.83496 -2.2872026 10.524678
-21.412901 162.15366 -2.1615074 11.084819
-21.42909 162.49216 -2.2399569 12.043812
-21.427921 163.52443 -2.2360041 11.843011
-21.393106 163.74449 -2.1912973 11.340104
-21.256523 164.20062 -2.146878 10.15025
-21.341814 164.54362 -2.1610711 12.385333
-21.205875 164.99678 -2.0485342 9.5217495
-21.225332 165.57362 -2.0083008 10.034
-21.531176 165.65254 -2.1023133 10.3825
-21.520096 166.38614 -2.3756039 13.0465
-21.450865 166.62553 -2.2729151 11.730866
-21.413916 166.9124 -2.2450466 10.686399
-21.210974 168.66278 -2.2512162 9.0200005
-21.241138 168.89062 -2.1416388 11.554501
-21.216942 169.92485 -2.1221271 12.048
-21.254328 177.4749 -2.0861542 9.0270004
-21.423717 177.83009 -2.2881241 10.0425
-21.408182 178.75146 -2.3986006 10
-21.429573 178.92137 -2.237834 9.5495005
-21.290693 179.5788 -2.3555667 10.0555
-21.479591 159.49815 -1.8568317 10.298707
-21.389486 159.79982 -1.8022716 10.793524
-21.387711 160.18735 -1.7733141 10.617662
-21.380577 160.57991 -1.7669815 11.276007
-21.397055 161.01175 -1.8344103 12.073338
-21.389446 161.41948 -1.8367218 12.466333
-21.466173 161.73985 -1.768416 12.221482
-21.367111 162.14902 -1.7537993 11.869364
-21.276003 162.6736 -1.6853367 11.294657
-21.355915 163.55006 -1.8550918 11.538667
-21.362522 163.78452 -1.8273981 12.320124
-21.278795 164.23834 -1.879988 11.519058
-21.297935 164.57349 -1.7884061 11.295416
-21.341904 165.04292 -1.6896085 12.056
-21.475817 165.36687 -1.820709 14.8135
-21.505312 165.68341 -1.8704319 13.072
-21.408142 166.50887 -1.7146797 12.332375
-21.307055 168.21283 -1.7389656 13.4485
-21.377731 168.65196 -1.761095 12.315075
-21.399273 168.99637 -1.7730594 12.077167
-21.240322 169.82693 -1.9048328 11.56725
-21.349342 170.40897 -1.6241248 13.0545
-21.408709 177.06709 -1.8335062 10.729249
-21.472813 177.349 -1.7661036 11.0445
-21.504488 178.43442 -1.6257752 11.079
-21.474108 179.10059 -1.6785655 11
-21.525215 179.35709 -1.872287 10.58025
-21.530767 159.13889 -1.3145436 8.0050001
-21.410831 159.49141 -1.4233747 10.861501
-21.464598 159.88506 -1.4803796 10.2404
-21.41806 160.26289 -1.4580002 10.521313
-21.412964 160.5547 -1.3543673 10.698343
-21.463112 160.96692 -1.3284495 10.816999
-21.37993 161.33182 -1.4765317 12.27635
-21.474264 161.8199 -1.4739614 12.586313
-21.363615 162.18867 -1.4245169 13.029187
-21.350683 162.5417 -1.5240146 12.948833
-21.24728 162.86838 -1.4168489 12.078
-21.318275 164.25635 -1.3942673 13.38085
-21.399208 164.65967 -1.4655159 12.560781
-21.269093 164.94659 -1.3848847 11.89325
-21.484814 165.38043 -1.398278 13.094375
-21.331274 165.70815 -1.5247514 12.380166
-21.365915 166.22137 -1.2920586 10.12575
-21.476814 166.99734 -1.4250479 14.57275
-21.290836 168.64488 -1.4677873 14.061801
-21.324499 168.82074 -1.4386331 14.550625
-21.460302 169.33534 -1.3364167 14.06325
-21.299812 169.82729 -1.5168884 12.06875
-21.389008 178.91048 -1.3617835 10.755166
-21.522406 159.03731 -0.99626124 11.1378
-21.409616 159.43558 -1.0461209 10.2435
-21.362116 159.84047 -0.97002953 11.860642
-21.381567 160.13492 -0.99567282 11.910664
-21.372866 160.50948 -1.1015239 12.088622
-21.405867 161.07462 -1.0076602 11.65345
-21.35071 161.32492 -1.0674962 13.064583
-21.394707 161.80063 -1.1462737 12.55125
-21.319847 162.07573 -0.8766253 13.051667
-21.496347 163.28905 -0.95873719 13.05
-21.377827 164.49686 -1.0588853 13.879
-21.234085 166.67879 -1.1789575 14.089
-21.360786 168.20828 -1.1292187 15.0715
-21.369694 168.54265 -1.1561571 12.0945
-21.243294 169.93875 -1.0545692 15.048
-21.442127 178.91771 -0.97639942 12.011625
-21.289103 159.53239 -0.63118637 10.896571
-21.451399 159.78296 -0.53581846 11.124112
-21.504511 160.16846 -0.51744831 12
-21.450615 160.63875 -0.56598824 10.609897
-21.439163 160.85985 -0.52582371 11.0285
-21.359131 161.87318 -0.63188571 11.750749
-21.36623 162.06816 -0.67196929 12.087875
-21.288292 162.59605 -0.65622288 13.6502
-21.207775 163.756 -0.55897993 14.065
-21.506744 166.48558 -0.72186834 13.0955
-21.314049 167.02173 -0.70357472 15.089
-21.234123 159.55832 -0.23385863 9.6693335
-21.377125 159.84624 -0.21598396 12.203837
-21.43969 160.11331 -0.22780445 12.050339
-21.449522 160.50739 -0.34708342 12.86915
-21.365824 161.35312 -0.25525466 8.0299997
-21.460403 162.21495 -0.14379685 11.697
-21.280426 158.88522 0.10403105 9.0050001
-21.436655 159.4438 0.25713933 11.945616
-21.496708 159.78752 0.22667401 12.542667
-21.333746 160.12254 0.019764004 14.063
-21.284807 161.19733 0.24648054 12.51075
-21.302124 161.28163 0.20564829 10.002
-21.378668 162.17583 0.076829314 10.770571
-21.393372 162.4903 0.22864419 10.5
-21.339176 163.21422 0.3122772 12.124
-21.516258 165.53018 0.095378302 14.036
-21.279167 158.77054 0.72512668 12.1675
-21.303371 159.04898 0.53619313 11.446167
-21.397209 159.39969 0.49152154 13.070587
-21.297338 161.13799 0.62964511 11.300356
-21.320057 161.25421 0.6547364 10.500071
-21.48695 162.55197 0.62066263 9.8013754
-21.430138 163.11409 0.68253899 11.03875
-21.477373 159.09998 1.0280821 12.899072
-21.511669 159.27563 1.0549872 13.537875
-21.323626 161.14163 0.92886686 12.58425
-21.29669 161.3266 0.91440767 11.803375
-21.476892 162.12526 1.1101083 11.004499
-21.52713 162.59378 0.95865363 12.4015
-21.582012 164.04193 0.99448889 10.0935
-21.591719 159.15283 1.3028109 14
-21.502878 159.44395 1.2847711 9
-21.472542 160.68413 1.3456495 9.0155001
-21.457932 160.97916 1.3309536 10
-21.598078 161.9946 1.584753 12
-21.485483 162.16888 1.3376584 12.36575
-21.500399 162.61938 1.4274644 11.002
-21.567013 162.98163 1.5040108 13
-21.457952 165.49211 1.4285274 10.003
-21.269564 159.60864 1.6357472 10.1745
-21.448988 161.86777 1.78552 13.381916
-21.504946 162.22997 1.7913985 12.627433
-21.42065 162.63646 1.7207953 12.871583
-21.403982 162.94066 1.8563991 9.5702496
-21.471548 165.28868 1.661073 10.004
-21.459431 161.53619 2.3816333 15.139
-21.476858 161.89014 2.2111254 13.094656
-21.504707 162.1714 2.1900854 13.18865
-21.352623 162.6452 2.2750766 12.945136
-21.353731 162.89621 2.1090536 14.12675
-21.568289 159.94209 2.7255557 12.004001
-21.59618 160.14961 2.78076 14.1115
-21.409555 161.89922 2.6216583 12.780856
-21.403734 162.19516 2.6250312 12.827
-21.32312 162.50604 2.5609522 11.986115
-21.420607 164.64929 2.7316883 10.152165
-21.514067 161.46782 3.1452792 13.167999
-21.376078 161.87404 3.047503 13.281635
-21.418982 162.17523 2.8850327 13.066449
-21.416729 162.47444 2.8892653 13.451
-21.300903 164.30246 3.1103878 10.166
-21.280844 164.59625 3.0935044 14.0925
-21.483728 160.38071 3.326045 14.1105
-21.54973 160.43204 3.4883974 10
-21.434589 161.56674 3.3228772 13.756667
-21.419937 161.79381 3.2500377 12.351749
-21.41958 162.22646 3.2956932 14.114333
-21.287296 164.34195 3.2312646 14.093
-20.810938 162.40228 -5.6685719 5
-20.948816 156.35434 -5.2173128 5
-21.103424 158.25577 -5.2276545 4.1999998
-20.979525 158.67279 -5.2506614 4.7647057
-20.979921 159.08595 -5.2166915 3.3333333
-21.064974 159.41603 -5.2297025 3
-20.972626 159.73262 -5.2638898 4.3636365
-20.957611 160.06926 -5.3026557 5
-20.957727 160.49947 -5.3101482 4.8461537
-20.983913 160.9382 -5.3052373 4.7222223
-21.008718 161.29707 -5.3318052 4.7857141
-21.035851 161.707 -5.3148856 4.1875
-20.979477 162.168 -5.3144765 4
-21.118389 162.51909 -5.323843 4.8125
-21.003714 162.99796 -5.2789512 4
-21.015762 163.21532 -5.3104482 4.3333335
-20.954777 163.659 -5.3658714 5
-20.922558 164.61443 -5.3774467 4.6666665
-20.993357 165.00108 -5.3564429 4
-21.032316 165.32288 -5.3621073 4
-20.907215 165.75203 -5.3731127 4
-21.015297 167.12691 -5.2428823 2
-20.899187 167.43056 -5.2401757 2
-20.942572 168.65897 -5.243484 4.3333335
-20.999907 169.24339 -5.2795877 5
-20.975887 169.73242 -5.2917194 5
-20.869804 170.67564 -5.2257724 4
-21.029741 170.82898 -5.3132658 5
-20.88497 172.02777 -5.2400537 7
-21.031895 173.77025 -5.2312922 5.6666665
-21.00878 174.43222 -5.285428 7
-20.944901 175.48212 -5.4516897 6
-20.974897 175.84227 -5.2155194 5
-20.999289 176.33089 -5.3002472 5.5
-20.815672 177.79404 -5.3045464 6
-21.157354 178.67526 -5.2951293 6
-20.980858 150.15622 -4.9326324 3.1818182
-21.010777 150.58228 -4.9627523 3.1666667
-20.960798 150.96141 -4.9579587 2.8421052
-21.044201 151.37158 -4.9780087 3.2941177
-21.041332 151.77409 -4.9807515 2.5384614
-20.990746 152.22069 -4.9781632 2.1333334
-21.01626 152.57007 -5.0061631 1.8888888
-20.927929 153.02528 -5.0088739 2
-21.067467 153.41164 -5.0171876 2.7142856
-20.985857 153.82484 -5.0332241 3
-20.999067 154.19763 -5.0197978 2.6923077
-21.016541 154.60757 -5.0735297 3.2
-20.959501 154.98854 -5.0632405 2.7272727
-21.026377 155.40913 -5.0962405 2.8666666
-20.972265 155.80508 -5.1083908 3.7
-21.072546 156.27899 -5.1088319 3.875
-21.049551 156.66614 -5.06071 2.75
-20.969843 156.93979 -5.0976748 3
-21.001236 157.3026 -5.1201515 4.3333335
-21.01041 157.78996 -5.1077385 3.4444444
-20.922194 158.09674 -5.1255393 3.1666667
-20.987755 158.55226 -5.1365981 2.9333334
-21.054285 159.07637 -5.1229696 2.4000001
-20.972727 159.35341 -5.1243839 2
-20.988905 159.79578 -5.1500564 3.5
-20.954435 160.23711 -5.1537924 2.5999999
-20.991693 160.6582 -5.1715159 3.25
-20.988554 161.06261 -5.1821861 2.4285715
-21.072571 161.42566 -5.1902251 2.5999999
-21.050493 161.81868 -5.1917148 4
-21.016954 162.29948 -4.9811759 3.9215684
-20.963873 162.45972 -4.9764948 5.6315789
-21.16925 162.8744 -4.8412008 5
-20.827757 167.6196 -5.1422453 3
-21.178089 168.40527 -5.152966 3
-21.139891 168.88159 -5.1689873 3
-20.965984 169.43719 -5.1755543 4
-21.06838 169.82118 -5.1970119 5
-21.098907 170.35385 -5.1736512 4
-20.866856 170.55661 -5.181169 4
-20.918472 171.30562 -5.1561737 4
-21.162905 171.60104 -5.157361 4
-20.967737 172.69934 -5.1802301 6
-21.128658 173.48422 -5.1645217 5.6666665
-20.860878 173.97391 -5.1775999 6
-21.129147 174.42569 -5.175128 5
-20.926321 175.3913 -5.097249 6
-20.990891 175.71359 -5.185174 5
-20.991791 176.06715 -5.1539335 5.5
-20.970552 162.33511 -4.6787372 4.2857141
-20.995754 162.53047 -4.6175618 5.5868053
-21.127621 162.90976 -4.4720931 6
-20.811047 164.39975 -4.4168792 3
-21.116074 164.42426 -4.4132938 3
-21.064619 165.16702 -4.5129108 2.25
-20.902132 175.73978 -4.6489372 7
-20.972937 162.66917 -4.3612528 4.5999999
-21.039135 163.03909 -4.2720065 4.5714288
-21.002134 163.25853 -4.3053041 5.1428571
-21.050293 163.72971 -4.1405282 6
-21.037716 164.55588 -4.2077694 4.8271608
-20.982975 165.23773 -4.2419801 4.8571429
-21.041355 165.67543 -4.2719288 5.8000002
-20.848642 175.38905 -4.0408802 7.3631668
-20.986908 175.85477 -4.0806661 7
-20.974205 176.07628 -4.1107912 7
-20.979136 163.85464 -3.8989594 5.9000001
-21.060949 164.14703 -3.8396747 5.875
-20.981224 164.54341 -3.905555 6
-20.825911 164.85049 -3.785742 6
-20.928139 175.13397 -3.6844144 8.0673752
-20.964457 175.34657 -3.7103353 7.9890418
-20.999292 175.69357 -3.7529933 7.843389
-21.086008 161.84262 -3.2438414 8.1677341
-20.982485 162.15483 -3.3366277 8.2827797
-20.950397 175.01492 -3.5049865 7.9333887
-20.971569 175.33786 -3.48557 8.1109734
-21.067345 175.64787 -3.3034725 8.2694998
-21.118376 179.32285 -3.4985149 8.1219997
-21.155664 160.95311 -2.9090395 8
-20.81518 161.54051 -2.8931825 8
-21.048164 161.90257 -3.009305 9.4069672
-21.023388 162.10558 -2.9884543 9.149395
-20.930872 162.48294 -3.0349159 9
-20.955118 175.11259 -2.9287186 8.6447001
-20.946182 175.3136 -3.0320289 8.623683
-20.840874 175.69955 -3.1197906 9.0504999
-20.939821 176.13028 -3.1737292 8.0174999
-21.016684 179.97119 -3.0289497 9.0620003
-20.984783 161.49187 -2.5312421 9.7487087
-21.002018 161.80585 -2.6155994 10.913862
-21.093122 162.11786 -2.5964997 10.871065
-21.112396 162.51292 -2.5687172 10
-21.166746 163.49734 -2.5624595 9.8892508
-21.09333 163.64534 -2.4725976 9.5539999
-21.142275 166.60074 -2.4431224 10.5295
-20.892756 168.88004 -2.4011197 8.0024996
-20.929707 175.12108 -2.5651379 9.3086071
-20.884081 175.28635 -2.5503016 9.5610828
-20.979084 176.60365 -2.5971782 9.4356661
-21.099724 177.33284 -2.5526929 10.064751
-21.019421 177.73653 -2.4800432 9.4256668
-21.197266 178.19585 -2.403141 8.0015001
-21.109581 178.9169 -2.5496578 9.0255003
-21.113413 159.56181 -2.1586678 11.436833
-21.077589 159.80927 -2.123296 10.075078
-21.097685 160.06117 -2.1541941 9.2564173
-21.072203 160.57559 -2.0896034 9.0390997
-21.000147 161.06923 -2.0810063 10.036344
-20.99774 161.44038 -2.2252698 10.634837
-20.987013 161.72502 -2.2124982 10.874937
-21.138729 162.0947 -2.3484201 10.047874
-21.183935 163.55963 -2.3165588 12.0915
-21.112299 163.78471 -2.2365663 10.390083
-21.116318 164.27844 -2.1537433 11.43525
-20.941969 164.57721 -2.1314268 11.476065
-20.87727 165.06236 -2.0483372 10.038334
-20.857071 165.40952 -2.0712202 11.0695
-21.110437 166.66783 -2.3505886 10.445834
-20.971233 168.60809 -2.107954 10.830327
-20.986364 168.94154 -2.2202911 10.1889
-21.017752 169.94814 -2.1777503 10.0275
-20.909086 170.02658 -2.0851336 11.689
-20.913462 175.03432 -2.3262286 10.021
-21.060129 177.48718 -2.0457377 10.091
-21.094315 177.67587 -2.2491224 9.0442495
-20.911177 159.49048 -1.6697431 11.585058
-21.008057 159.80858 -1.738223 10.400135
-21.084595 160.20657 -1.7800115 10.647125
-21.082251 160.61391 -1.7581116 11.42138
-20.96759 161.03091 -1.808251 11.264265
-20.958759 161.34546 -1.8017886 11.250902
-21.039167 161.70847 -1.9370203 13.05875
-21.06551 162.26715 -1.7918679 12.341001
-21.033169 162.62648 -1.6915866 11.194107
-20.990597 162.86591 -1.6647496 13.573
-20.90378 163.44914 -1.7247883 10.019167
-21.078806 163.80885 -1.7537441 13.066204
-20.952145 164.20081 -1.8493553 11.657273
-20.985174 164.55408 -1.8280095 11.824583
-20.921064 164.95409 -1.8026822 11.567719
-20.906391 165.39227 -1.8067583 12.110093
-21.061956 165.80034 -1.7717555 12.842738
-20.844233 166.29503 -1.8375778 10.03
-21.008595 166.7471 -1.8176664 13.790999
-20.892796 166.90559 -1.8532639 12.0725
-21.104954 168.15848 -1.718946 13.5625
-20.9793 168.68045 -1.830902 12.253933
-20.964674 168.90741 -1.86883 11.92043
-21.048296 169.93324 -1.9727097 11.069167
-20.873913 170.15128 -1.8172754 11.62995
-20.965591 170.51981 -1.893321 9.7718754
-21.012981 177.03256 -1.734477 11.0785
-20.985247 177.40579 -1.7980864 10.665899
-21.02499 177.74588 -1.6873274 10.807375
-21.154957 178.39487 -1.8104975 11.0695
-21.046333 178.52414 -1.8604953 10.092
-20.924284 159.48994 -1.5330955 11.721001
-20.921165 159.81049 -1.5055748 10.770681
-20.964691 160.23216 -1.4281406 11.062035
-20.999306 160.59666 -1.3837764 10.928589
-20.946205 161.03362 -1.3610393 11.881495
-20.945414 161.39346 -1.3658739 12.46157
-20.857338 161.72041 -1.3195785 12.877917
-21.030748 162.30029 -1.4159591 13.037625
-20.984901 162.62625 -1.4410205 12.929197
-21.134914 162.9202 -1.5478067 11.373
-20.874914 163.39781 -1.4232751 11.84065
-20.839943 163.73076 -1.4267851 12.0415
-20.900454 164.26727 -1.4472311 11.825212
-20.97402 164.66451 -1.457082 11.839252
-20.908289 164.97931 -1.389207 12.06725
-21.021029 165.4286 -1.3964714 11.6422
-21.056829 165.81506 -1.4450799 13.054937
-20.837751 166.16954 -1.4352072 14.56925
-21.079035 166.55122 -1.3848897 12.85365
-21.057571 166.95938 -1.5540257 15.048
-20.812988 167.48729 -1.2200168 14.069
-21.138462 168.3429 -1.3988236 15.0525
-20.983074 168.53745 -1.5258144 14.039666
-21.16506 168.80145 -1.5097457 14.385501
-21.172621 169.27373 -1.4614106 14.05525
-20.840883 169.67816 -1.4567668 13.05725
-20.958014 170.12428 -1.4322456 12.466558
-20.959415 170.60463 -1.5165784 12.238417
-20.90477 177.44772 -1.3930423 11.0875
-21.026619 159.47356 -0.87174046 9.673667
-21.01972 159.78145 -0.93118978 11.211285
-20.966316 160.21715 -0.98870677 12.603483
-21.013 160.58232 -1.0238314 12.150282
-20.997555 160.99232 -1.1194364 11.907375
-20.995543 161.34904 -1.1406124 12.380333
-20.936569 161.76559 -1.1414392 12.589136
-20.924656 162.20631 -0.92978644 12.544624
-21.105898 162.79543 -1.1270354 13.0855
-20.914785 163.24323 -1.0554826 13.0495
-20.849068 164.15811 -1.0352601 13.050501
-21.04845 164.55966 -1.0237253 12.51675
-20.854435 165.09839 -0.98274779 12.034
-20.857054 165.55367 -0.8797977 12.0335
-20.917233 165.66769 -0.99485075 12.703
-20.862829 166.1149 -0.92302179 12.297501
-20.834915 166.59686 -0.96047729 15.071
-20.996077 169.4856 -1.1564177 15.04925
-21.054873 170.15392 -1.1964284 12.0925
-20.858219 177.11285 -1.146924 12.0435
-21.163681 177.84244 -1.0804986 12.046
-21.177008 178.55598 -1.1045829 12.06
-20.926676 159.44682 -0.57992429 11.876337
-20.968502 159.77998 -0.66646332 12.741023
-20.942038 160.15575 -0.65125817 12.942266
-20.932714 160.5808 -0.63165301 12.560666
-20.96916 160.9357 -0.63257957 13.299063
-20.929079 161.82774 -0.63744974 12.561749
-21.088593 162.25424 -0.41150716 14.0755
-20.874846 163.35321 -0.63612556 14.0555
-20.935278 163.89763 -0.67227679 14.400001
-21.135496 164.50473 -0.70716625 14
-21.016521 165.78134 -0.66321695 13.043751
-21.161556 169.23541 -0.75222981 11.025
-20.944727 159.12926 -0.2828238 13.376834
-20.949961 159.40701 -0.20411104 12.879251
-21.024639 159.78398 -0.24482486 11.92863
-20.932852 160.27103 -0.30046609 13.022573
-21.105635 160.70403 -0.3369332 15.09
-20.924692 160.98865 -0.062085927 10
-21.114328 161.22601 -0.18291169 10.003
-21.013977 162.54057 -0.37188786 14.0385
-20.985985 162.96713 -0.37441483 15.0845
-20.908352 164.23915 -0.34822538 15.0815
-20.848394 165.47005 -0.35659978 14.0455
-20.838449 165.64682 -0.20294447 14.0385
-20.945656 159.02396 0.17510116 11.178111
-20.914053 159.30756 0.18324076 10.921347
-21.064087 159.83305 0.1060251 12.727168
-20.904915 160.13553 0.18263385 10.128
-21.108931 161.1411 0.2856738 10.05125
-20.941078 161.34402 0.037371434 10
-20.856077 161.86972 0.11450937 9.0010004
-21.081091 162.172 0.21779178 12.1375
-20.806368 165.11382 0.25289354 15.074
-21.100807 165.47961 0.089170888 14.0345
-21.075752 158.75684 0.79403567 10.0015
-20.946459 158.98845 0.58855063 12.347178
-20.962084 159.28893 0.56363213 12.921166
-20.927462 160.24355 0.66206098 10.447333
-20.810778 160.46404 0.48705503 9.1199999
-21.036137 161.3519 0.53081447 9.4304371
-21.014746 162.15527 0.43192416 12.153
-20.804697 159.40198 1.1949636 13.16
-21.027418 159.80501 1.0640411 12
-20.80172 160.18982 1.0281435 11.1775
-21.060251 160.52779 0.83957601 11
-20.945112 161.07152 1.0387218 11.494773
-21.022648 161.26929 1.0274811 11.931156
-20.829748 162.67767 1.1884371 9.0200005
-20.984007 162.8847 1.0319945 13.133
-20.876003 159.16974 1.3516555 13.1625
-20.810211 160.67639 1.4967659 10.1015
-21.037971 161.0977 1.3456233 12.846051
-21.032125 161.28961 1.2654922 13.081
-20.996634 161.83205 1.5137299 14.0095
-20.941454 162.48697 1.4181869 11.190125
-20.963156 162.82146 1.395484 9.5117502
-20.844254 163.77971 1.5954838 13.153
-21.069483 160.27357 1.7367415 13.165
-20.858349 161.58923 1.873996 11.0035
-20.980747 161.82089 1.7700614 13.325584
-21.034018 162.06198 1.7594378 12.861376
-21.088062 162.61905 1.915369 10.5005
-20.938028 162.89421 1.9106284 14.137
-20.956656 161.76727 2.1140773 12.6842
-20.92028 162.20242 2.2705431 13.032001
-20.989437 162.63586 2.2160461 12.403999
-20.945892 163.75832 2.2639666 11.758832
-20.965923 164.24634 2.1898241 13.093
-21.047924 162.31395 2.6381798 12.208571
-21.017622 162.51509 2.6154592 12.796269
-20.803091 163.55646 2.4079349 11.102
-20.917852 163.73167 2.5729182 13.207999
-20.990234 164.20427 2.5962713 13.032833
-21.183865 164.48076 2.7452478 14.005
-21.145002 161.50899 3.0713727 10.011
-21.125002 161.91519 3.0477827 12.516833
-21.103409 162.18085 2.9572918 11.538
-20.998938 162.47023 2.9953537 13.9815
-20.930811 163.86133 3.0228198 12.3184
-20.962618 164.23969 2.9352891 13.025625
-21.138279 164.48199 2.9445012 12.873214
-20.907404 163.6611 3.3025205 14.048
-20.575678 162.44795 -5.6069074 6
-20.50765 156.14928 -5.2012582 5
-20.525475 156.42712 -5.2178307 5
-20.758625 157.87767 -5.2478166 5
-20.677942 158.26572 -5.2453008 5
-20.563202 158.57578 -5.2369552 4.3333335
-20.535942 159.04245 -5.2357044 3.8333333
-20.614628 159.45866 -5.2209473 3.3333333
-20.541712 159.78091 -5.2356691 3.3333333
-20.679882 160.15536 -5.2482266 3.3333333
-20.521505 160.53351 -5.2724905 3.2857144
-20.550549 161.02567 -5.2790174 5
-20.618118 161.52811 -5.3476014 5
-20.620331 161.85603 -5.2686825 4
-20.658503 162.14369 -5.21066 4.3333335
-20.576309 162.57188 -5.2545867 3
-20.576366 163.07042 -5.3253145 4.4000001
-20.578136 163.32648 -5.2587938 4
-20.56237 163.84058 -5.2985544 4.5
-20.551374 164.37296 -5.3359399 4
-20.655031 164.96574 -5.3594084 4
-20.550882 165.35936 -5.3652458 4
-20.507776 166.10457 -5.3751969 4
-20.534231 166.59512 -5.2608061 1.6666666
-20.633331 167.46802 -5.2567782 2
-20.635817 167.69354 -5.3057609 4.8000002
-20.577007 168.53685 -5.2816019 5
-20.510929 169.47723 -5.2857795 5
-20.526119 169.80225 -5.2892323 6
-20.457985 170.7718 -5.4270573 6
-20.573627 170.87175 -5.3194485 5.6666665
-20.428638 171.37944 -5.3940287 6
-20.777214 171.82071 -5.3171344 6.5
-20.543789 172.05414 -5.3441181 6
-20.545885 172.71346 -5.317481 6
-20.553698 172.95798 -5.3147812 6
-20.546274 174.16225 -5.2894225 6.3333335
-20.712734 174.43446 -5.2563577 7
-20.56003 175.47641 -5.3119836 6.5
-20.615351 175.6627 -5.2017493 6
-20.540564 177.07492 -5.2058988 6
-20.641033 177.98123 -5.4135933 6
-20.601017 178.46805 -5.5538716 6
-20.532059 150.30389 -4.9419971 4
-20.628704 150.58069 -4.9516559 2.6363637
-20.620569 150.97318 -4.9465404 3.375
-20.614149 151.37749 -4.9755535 3.3333333
-20.616013 151.78151 -4.9692287 3.1875
-20.581295 152.17271 -4.9962106 2.9000001
-20.643044 152.57681 -5.0033231 3.0625
-20.563602 152.98271 -5.0078621 1.8666667
-20.624462 153.40781 -5.0259819 2.0526316
-20.622496 153.7809 -5.022696 2.6428571
-20.605928 154.1884 -5.0774651 2.75
-20.623041 154.58614 -5.0579615 2.75
-20.543753 155.02159 -5.0596499 2.8
-20.620663 155.42517 -5.0985985 3
-20.626995 155.82591 -5.1035109 3.0555556
-20.59691 156.21022 -5.1213193 3.3846154
-20.563704 156.59586 -5.1067257 3.4000001
-20.621412 157.00459 -5.0954061 2.8181818
-20.603546 157.32608 -5.1383343 3.625
-20.615778 157.81645 -5.1287403 3.7272727
-20.523926 158.24153 -5.1583643 3.6666667
-20.60239 158.58334 -5.1414728 3.6666667
-20.587648 159.02452 -5.1637821 3.3333333
-20.588644 159.39069 -5.1237574 3
-20.620251 159.82095 -5.1486387 3
-20.630409 160.23288 -5.1658516 2.8
-20.627325 160.57863 -5.1645923 3.5
-20.598633 160.96396 -5.173511 1
-20.644405 161.43394 -5.1863785 2.6666667
-20.51116 161.78641 -5.1905856 3.5
-20.586096 162.28398 -4.9894633 3.9166663
-20.583178 162.51256 -5.0266376 5.318182
-20.54747 167.6709 -5.1190739 2
-20.74851 168.73262 -5.1627059 3
-20.731171 169.06554 -5.1692982 3
-20.540102 169.32288 -5.1731858 4.4000001
-20.488394 170.66138 -5.1732941 4.5
-20.566135 171.45279 -5.1723595 4.3333335
-20.62896 171.76874 -5.1606069 4
-20.578857 172.1693 -5.1879463 6
-20.567913 172.57849 -5.1608682 6
-20.712685 173.64478 -5.1774259 6
-20.481848 174.03455 -5.1755886 6
-20.513052 175.52196 -5.1011362 5.6666665
-20.453421 175.60385 -5.1620588 6
-20.739916 176.28554 -5.1508203 6
-20.64641 162.33099 -4.6533055 5.0714288
-20.583546 162.58244 -4.593688 5.5318179
-20.517023 162.9166 -4.4319129 6.25
-20.644661 163.61942 -4.5896878 6
-20.429953 164.39122 -4.4587717 6
-20.494246 164.43723 -4.4352365 3
-20.423742 165.08101 -4.5599165 3
-20.522341 175.07182 -4.5579762 6.5
-20.53021 175.44348 -4.585722 6.8000002
-20.626621 175.71854 -4.4667106 7
-20.641674 162.57593 -4.3576608 4.1428571
-20.555666 163.03513 -4.2944875 4.4444447
-20.540052 163.29224 -4.3103662 5.375
-20.748379 163.83557 -4.0937142 5.5
-20.63117 164.37447 -4.2665935 5.3333335
-20.519106 164.48291 -4.2238841 4.6785712
-20.617189 165.15372 -4.3137636 5.25
-20.615593 165.37198 -4.2607775 5.8000002
-20.678902 165.6528 -4.2186799 5.25
-20.540586 175.09464 -4.0888934 7.2352228
-20.511343 175.43106 -4.2281928 7
-20.675308 175.7606 -4.2648239 7.0990906
-20.65045 163.86238 -3.901418 6
-20.549015 164.08842 -3.8188007 5.75
-20.570812 164.56702 -3.8010309 6.4000001
-20.52676 164.99216 -3.7940035 6
-20.401541 174.74388 -3.8180177 7
-20.565229 175.03835 -3.6665215 8.0560961
-20.52306 175.35794 -3.7578118 7.7544999
-20.645365 175.71161 -3.9224839 7.5
-20.589987 161.89754 -3.3459816 8
-20.703344 162.1313 -3.3690419 8.1376257
-20.752132 162.43881 -3.5388401 8
-20.539547 175.03622 -3.4905891 8.0593758
-20.587429 175.39224 -3.4228392 8.1216717
-20.604679 175.73531 -3.404614 8.3016253
-20.71644 177.03368 -3.2133722 8.0194998
-20.681 161.5338 -2.8940704 8.0338335
-20.678545 161.7644 -3.0226369 8.3789997
-20.660246 162.08289 -2.9796815 8.1195002
-20.562706 174.77687 -3.0281992 9.0430002
-20.59539 175.06282 -3.0056031 8.5978889
-20.607561 175.33778 -2.9797537 8.8549995
-20.657362 175.79251 -3.1380565 8.0134277
-20.487686 176.17117 -3.0946388 8.0038328
-20.692572 176.9817 -3.1498272 8.192749
-20.781635 179.9072 -3.0635934 9.0509996
-20.671568 161.53653 -2.5920064 9.5164833
-20.699327 161.72345 -2.5649092 10.663561
-20.76827 162.1633 -2.5238178 9.0927505
-20.771652 164.73618 -2.4078484 9.0845003
-20.520514 174.76724 -2.5023615 10.049
-20.541704 175.02219 -2.5485604 9.8251324
-20.568401 175.30446 -2.5729611 9.5006819
-20.785673 159.68246 -2.2807462 8.0035
-20.772045 160.23582 -2.0422964 9.1134996
-20.652542 161.0889 -2.044728 8.0026245
-20.690426 161.46729 -2.1876688 11.058437
-20.67944 161.72398 -2.2816076 10.592619
-20.6353 164.62244 -2.1724763 11.057076
-20.686142 165.06799 -2.0795903 10.046715
-20.664808 165.45872 -2.0779219 10.549425
-20.682364 165.70889 -2.0693438 10.134375
-20.459105 166.32762 -2.0556784 14.0365
-20.710573 168.45149 -2.0098176 12.0795
-20.67071 168.96272 -2.1900377 9.1341248
-20.593945 169.94392 -2.0811865 10.850938
-20.720695 170.10378 -2.1170013 10.2335
-20.693937 170.5759 -2.0879915 9.0927505
-20.657923 175.0843 -2.3051119 9.1759996
-20.430853 175.23599 -2.271471 10
-20.452715 176.92661 -2.3576217 10.054001
-20.590408 159.42487 -1.7052978 9.2788992
-20.622118 159.89037 -1.707159 10.440306
-20.630575 160.07877 -1.684235 10.492454
-20.695343 160.54025 -1.6941676 10.666667
-20.657845 161.00145 -1.7739675 11.296026
-20.700541 161.3383 -1.8143412 11.485589
-20.707121 161.81406 -1.6320716 12
-20.542883 162.32524 -1.63537 10.013
-20.650755 162.44408 -1.6690109 10.091
-20.707863 163.52721 -1.7031841 10.09025
-20.712175 164.19417 -1.7817177 10.914749
-20.655069 164.65382 -1.8400753 11.261108
-20.611784 164.99756 -1.8346236 10.792501
-20.616808 165.41734 -1.8526987 10.834939
-20.612278 165.72673 -1.8542786 11.698678
-20.471312 166.27367 -1.8704332 11.407812
-20.632652 166.54037 -1.7782985 11.349432
-20.79644 166.92651 -1.7440096 11.094
-20.689825 168.78473 -1.7754357 13.0695
-20.716934 169.04361 -1.9067307 11.823313
-20.709526 169.92586 -1.7075113 12.706666
-20.58219 170.2395 -1.756888 10.707477
-20.658527 170.56578 -1.8213103 10.5585
-20.556587 175.5518 -1.8450909 11.056
-20.552423 175.71126 -1.9113175 11.043
-20.783796 177.89235 -1.8443407 11.069
-20.674761 159.40999 -1.5520344 10.615999
-20.617634 159.83669 -1.4752288 11.317271
-20.605568 160.164 -1.4642699 10.990199
-20.620245 160.56383 -1.3052099 11.096288
-20.635654 161.01855 -1.3330425 12.007539
-20.68549 161.43787 -1.3827174 12.0373
-20.662302 161.82304 -1.363519 11.449806
-20.586205 162.27916 -1.389987 11.816583
-20.579878 162.47336 -1.414764 11.939843
-20.667328 163.43776 -1.3420514 12.400116
-20.576059 163.60417 -1.3231623 13.095
-20.610355 164.25897 -1.3225883 11.777392
-20.560833 164.62308 -1.4611784 11.872484
-20.635338 164.96153 -1.4187852 10.918143
-20.707388 165.55704 -1.2801385 14.0905
-20.584311 165.77316 -1.3733807 12.060639
-20.589167 166.23828 -1.3598311 11.416599
-20.616623 166.63017 -1.5504401 11.634854
-20.578733 168.96519 -1.3327433 14.649899
-20.521711 169.31715 -1.5100819 12.240166
-20.629688 169.77385 -1.4913263 13.356167
-20.636381 170.22699 -1.4398882 12.652626
-20.622854 170.51813 -1.3633589 13.635396
-20.499495 176.92683 -1.2095519 12.046666
-20.685034 159.50067 -0.90970236 12.508214
-20.589048 159.76967 -0.93924105 11.496912
-20.662964 160.24945 -0.97848469 12.488589
-20.5846 160.5602 -1.0253428 12.47457
-20.578918 160.93695 -0.98478502 12.957799
-20.691965 161.5331 -1.0148716 12.4479
-20.735811 161.90804 -1.1765765 12.070666
-20.556391 162.20078 -1.0747105 12.311704
-20.570343 162.46175 -1.0066278 12.3685
-20.748682 163.07431 -0.9034856 13.058001
-20.589869 163.41342 -1.0469179 12.68775
-20.571634 164.27109 -1.086309 13.245625
