# .PCD v0.7 - Point Cloud Data file format
VERSION 0.7
FIELDS x y z intensity
SIZE 4 4 4 4
TYPE F F F F
COUNT 1 1 1 1
WIDTH 121
HEIGHT 1
VIEWPOINT 0 0 0 1 0 0 0
POINTS 121
DATA ascii
-149.79913 188.04378 -1.9362768 8.0640001
-148.96681 187.34952 -3.4091625 7
-148.12308 202.08827 -4.2833767 7
-146.99762 184.84241 -1.7586796 8.0662498
-146.82901 184.94315 0.1384953 9.0600004
-146.45091 196.61168 -4.3662009 7
-146.71953 185.07281 -3.4308517 7
-146.55357 185.201 -3.3168447 7
-145.97121 202.92708 -4.0891604 7
-145.43051 203.18344 -4.2790303 7
-144.89288 197.37872 -4.3542585 7
-144.43532 203.40488 -4.1146059 7
-144.27084 186.11258 -3.5458677 7
-143.33411 186.47089 -3.4210639 7
-143.10292 186.5842 -3.5186346 7
-142.46715 182.30496 -0.15362917 9.0502501
-142.70612 182.47452 -0.16657859 9.0509996
-142.65477 180.53032 1.3087466 10.052
-142.23744 186.88954 -3.5487494 7
-141.76657 180.93002 -0.30361634 9.0459995
-141.5793 180.91278 -0.240426 9.0504999
-141.57292 181.41214 -0.25850385 9.0480003
-140.91295 186.08037 -4.067452 7
-141.18149 200.81766 -3.9843547 7
-139.53008 181.34961 -0.32369801 9.04
-137.43802 205.32825 -4.2010283 7
-137.38145 202.91115 -1.815076 8.0522499
-137.10324 183.73537 -1.8983421 8.0644999
-136.98685 181.9507 5.2721567 12.062
-136.6418 192.2623 -3.6639125 7
-136.70215 183.66521 -1.90443 8.0625
-136.59416 184.8391 -1.9201987 8.0574999
-136.00612 184.46552 -1.7946483 8.0544996
-136.19365 180.2816 4.9782557 12.0615
-135.54355 185.33925 -1.8278289 8.0535002
-135.57675 191.11942 -1.7629051 8.0500002
-134.8084 192.59837 -1.7731357 8.0480003
-135.04086 180.08102 6.5447731 12.5915
-134.49594 189.66365 -3.6831992 7
-134.57932 189.51477 -3.5207534 7
-134.72762 203.13565 -1.6781415 8.0465002
-134.3884 201.45302 -3.8712122 7
-134.33319 189.6429 -3.5359147 7
-134.3763 192.6086 -1.8057657 8.0500002
-134.16556 182.69234 4.7656178 12.0585
-133.90695 182.86874 4.7024126 12.05525
-133.9724 183.17241 4.8164539 12.0565
-133.43042 189.98195 -3.5741141 7
-133.03973 195.83963 -1.6757541 8.0457497
-133.12808 180.37602 4.289588 12.054
-133.07521 180.48131 4.4042606 12.058
-132.6707 190.32262 -3.5296757 7
-132.4742 180.9821 0.72697157 9.1752501
-132.70297 181.52837 4.4285378 12.0535
-132.16911 190.70607 -3.8125498 7
-132.37975 190.50902 -3.570941 7
-132.38052 196.04504 -1.695817 8.0450001
-132.23592 196.77486 -1.710675 8.0454998
-132.30836 180.21484 4.1457753 12.053498
-132.20869 180.99113 4.3636265 12.0555
-131.8537 190.62454 -3.624121 7
-131.79202 190.76048 -3.5437739 7
-131.78923 193.52347 -1.7454523 8.0439997
-131.71739 180.72969 4.1924958 12.05175
-131.66747 181.04109 4.088861 12.0495
-131.24068 200.89626 0.22444707 9.0524998
-131.24272 184.19521 3.0286136 11.056
-131.48825 180.84332 4.2709394 12.054
-131.22197 181.91603 4.4131322 12.0525
-130.83128 181.21988 -1.8119479 8.0264997
-130.84959 180.72063 4.1118774 12.0485
-130.56561 194.92305 -3.7966447 7
-130.48428 180.62852 4.0611939 12.0505
-130.79535 180.97235 4.2765694 12.053
-130.32541 192.24716 -1.8181765 8.04
-130.26137 180.72835 4.0608206 12.051
-129.84924 193.38806 -3.7890911 7
-129.97845 192.2341 -1.7542139 8.0430002
-129.37724 194.86565 -1.7608781 8.0480003
-128.79301 183.50659 -4.5583677 6
-128.58318 192.84648 -3.9339814 7
-128.43643 193.26312 -3.8385475 7
-128.11978 183.43562 -3.4160011 7
-128.39568 194.36662 -1.7830467 8.0459995
-127.96079 192.94081 -3.9075775 7
-127.86009 195.80067 -3.9529476 7
-125.14141 194.89839 -1.9005014 8.0585003
-124.53362 195.60498 -1.8610777 8.0574999
-124.00832 196.4176 -1.9807643 8.0565004
-124.10389 197.18904 -1.8604873 8.0570002
-124.16254 195.4416 0.25156924 9.0579996
-124.39969 195.87221 0.18252292 9.0469999
-123.72746 195.1709 0.14621048 9.0585003
-123.98714 195.5528 0.32453126 9.059
-123.10918 196.4984 -4.2036281 7
-122.96079 180.41071 -3.2497141 8.0825005
-122.92745 194.89114 0.19881569 9.0574999
-122.73962 184.06436 -4.2445998 7
-122.49303 181.44662 -2.9909754 8.0740004
-122.53555 180.50803 -1.8818547 8.0552502
-122.4264 181.57248 -0.077673413 9.0635004
-122.48261 195.64386 0.10718055 9.0559998
-122.28968 196.07729 -2.1284196 8.0469999
-122.33678 197.03499 -1.8820016 8.0579996
-122.1406 196.3752 0.019686369 9.0550003
-122.13339 181.0148 0.88808626 10.0505
-122.05362 181.44243 0.95616722 10.049
-121.88069 196.07654 0.0046846867 9.0530005
-121.81229 184.63309 2.8959551 11.043
-121.32674 180.49516 -0.33865476 9.0605001
-121.24483 195.37204 -0.011172919 9.0535002
-121.2276 181.10187 1.0949527 10.0415
-121.27753 181.86737 1.0986712 10.0455
-121.11591 180.81061 -1.7752979 8.0375004
-121.17459 180.62656 -0.41669446 9.0459995
-121.19455 180.35263 -0.18063053 9.0629997
-121.17901 181.11241 1.0680119 10.046
-120.80154 182.12579 1.0754129 10.0445
-120.78767 180.95535 -0.15965895 9.0629997
-120.18826 181.05084 -0.42473054 9.0605001
-120.30333 180.21002 1.2515291 10.05975
