# .PCD v0.7 - Point Cloud Data file format
VERSION 0.7
FIELDS x y z intensity
SIZE 4 4 4 4
TYPE F F F F
COUNT 1 1 1 1
WIDTH 174
HEIGHT 1
VIEWPOINT 0 0 0 1 0 0 0
POINTS 174
DATA ascii
-29.923466 -123.75163 11.986252 9.0004997
-29.987764 -122.90701 12.657143 9.0004997
-29.929506 -124.65954 12.808083 9.0004997
-29.671478 -123.88406 13.1717 11.1205
-29.939711 -122.73866 12.927889 9.0024996
-29.847307 -133.32475 14.684282 10.1695
-29.796242 -133.88524 17.017014 11.1695
-29.969208 -137.17705 17.232542 11.1605
-29.931318 -136.7106 17.555798 11.1675
-29.28623 -134.33727 14.782174 11.1255
-29.396202 -133.55087 15.761935 10.574249
-29.494678 -136.06461 16.081825 10.1795
-29.588102 -134.4456 16.86495 11.163
-29.40234 -133.81419 16.855919 11.1655
-29.338011 -134.25751 17.749872 11.177
-29.075842 -132.86372 13.494685 9.0004997
-28.938862 -135.88931 14.764589 10.161
-29.001608 -132.59677 14.567532 10.168
-29.14764 -133.7348 14.966138 10.1745
-28.925758 -133.91165 15.479 10.179
-28.953154 -135.09763 16.51832 11.152
-28.864988 -134.79079 17.161579 11.168
-29.050577 -134.82449 17.233696 11.1715
-29.08325 -134.53101 17.327829 11.173
-29.075796 -134.33633 17.423391 11.1745
-28.972136 -134.46997 18.615341 13.128
-28.424782 -132.68793 14.478774 10.166
-28.710747 -134.24504 15.545097 11.147
-28.729601 -134.74203 16.671717 12.1305
-28.570789 -133.03819 16.573668 11.1635
-28.668447 -134.59695 17.134737 11.17
-28.64896 -134.25795 17.558249 11.176
-28.536842 -134.72549 17.650021 12.147
-28.04484 -133.79974 12.635426 9.1750002
-28.007584 -133.20535 16.368816 11.159
-28.300224 -134.78534 17.025631 11.166
-28.155704 -134.07019 17.697067 11.1775
-27.653318 -133.35028 12.659596 9.1765003
-27.90523 -135.43489 13.353428 9.0010004
-27.633097 -134.13029 14.770968 10.1705
-27.620415 -135.36908 15.721637 11.1475
-27.771286 -133.71298 16.39616 12.1285
-27.915031 -133.25958 16.134474 11.1525
-27.856699 -134.68771 17.156246 11.17025
-27.957705 -134.53342 17.309999 11.1735
-27.939756 -133.98703 17.339926 11.175
-27.797073 -134.10664 18.440031 13.129666
-27.398819 -132.32503 14.403773 10.1665
-27.593382 -134.00063 15.802415 11.149
-27.474415 -133.53084 16.361216 12.131
-27.453203 -136.31836 16.911343 12.129
-27.330748 -136.04837 17.883825 11.1765
-27.502975 -134.1088 18.436436 13.1325
-26.999775 -133.99855 14.407326 10.1595
-26.947668 -133.44377 14.78375 10.174
-26.987827 -133.18515 14.422285 10
-27.12159 -132.92334 15.07188 10.178
-27.185068 -134.04254 15.959494 11.151
-27.046255 -133.08347 16.354881 10.00125
-27.065914 -133.16339 16.462164 11
-26.895788 -133.5481 16.95612 11.1725
-26.821844 -134.36198 17.261082 11.174
-26.988571 -133.88696 17.64781 11.178
-26.948923 -134.25745 18.437391 13.129
-26.920439 -133.74835 18.667999 12
-26.42728 -135.67273 14.778584 11
-26.686926 -134.39117 14.567178 11.1315
-26.777327 -133.00198 14.410717 10.1575
-26.765347 -133.1501 16.454639 11
-26.510406 -133.97009 16.974226 11.17
-26.795355 -133.68114 17.833256 11.179
-26.532106 -134.03337 18.36738 13.133
-26.581718 -133.77022 18.311487 13.1315
-26.171896 -132.04515 10.77311 10.1105
-26.164917 -133.84132 13.674745 9.0019999
-26.327747 -135.8956 14.144608 9.0015001
-26.395912 -135.94321 14.443942 9.0035
-26.258003 -134.29785 16.465508 12
-26.259136 -134.75949 17.624279 11.177
-26.178818 -134.01324 17.962049 12.1515
-26.205355 -133.95306 18.336948 13
-25.840141 -135.47403 16.689663 12.1335
-25.916601 -134.46455 16.485607 12
-25.918922 -134.38776 16.564737 11.16
-25.954432 -134.1021 18.332434 13.06525
-25.679461 -134.53934 18.448994 13.1335
-25.554836 -134.82384 9.0140648 9.1379995
-25.202143 -134.40984 12.7448 9.1774998
-25.280146 -132.71638 14.434539 10.1675
-24.657389 -134.09592 14.73739 10.1735
-24.016655 -133.00452 12.340474 10.1255
-23.769999 -131.92047 14.116301 11.136
-23.395477 -134.91594 14.848497 10.1705
-22.91115 -132.15173 14.129855 11.1365
-22.421986 -133.84677 11.388483 10.101
-22.099487 -133.57021 11.446055 10.1355
-22.176044 -135.50572 11.882959 10.123
-21.818844 -133.62378 13.7259 11.1085
-21.452789 -134.64574 12.432838 10.1275
-21.580729 -133.46149 13.639984 11.112
-20.85162 -135.72276 11.728678 10.1395
-20.864937 -135.36438 11.913494 10.1235
-20.484463 -133.57816 11.227684 10.109
-20.770287 -135.29686 11.848751 10.1315
-20.519245 -134.26105 12.549329 10.1295
-20.760933 -132.98505 13.690228 11.109
-20.159407 -135.48875 11.661903 10.101999
-19.798874 -135.24593 11.744683 10.136
-19.764872 -134.86609 15.488008 11.1515
-19.423512 -133.61621 11.46541 10.103
-19.586868 -134.88216 11.84354 10.132
-19.593508 -134.41707 14.413338 11.1295
-19.193932 -132.47273 12.225824 10.1295
-19.191368 -135.10312 16.043341 11.155
-18.62023 -132.00398 15.452453 11.1555
-18.084961 -135.62881 11.862854 10.1365
-17.856876 -134.28957 15.368507 11.1525
-17.713778 -132.83031 16.361973 11.162
-17.358469 -133.00507 16.273949 11.1665
-17.176702 -133.79105 12.263906 10.1325
-16.484306 -135.04109 12.35833 10.122
-16.749912 -134.32631 15.060297 10.001
-16.67606 -133.45958 16.342773 11.1645
-16.596245 -133.21916 16.443609 11.1625
-16.118093 -134.18642 11.521037 10.1175
-16.238323 -133.50819 14.044804 11.133
-16.203651 -134.8468 14.744346 10.1735
-16.098488 -135.46902 14.999368 10.1785
-15.88588 -133.74147 11.779304 10.137501
-15.711535 -132.63132 12.246631 9.1789999
-15.782157 -134.91119 12.421343 10.136
-15.963599 -132.90041 12.445924 9.0015001
-15.63489 -133.66057 13.60262 9.0050001
-15.27715 -135.5378 12.269354 10.121
-15.55903 -134.2619 12.40764 10.1375
-15.420502 -133.99628 13.816854 9.0054998
-14.865124 -134.29442 12.32576 10.1365
-15.000938 -135.106 12.458017 10.132
-15.037451 -133.63704 14.030908 10.159
-15.02522 -133.28331 15.050844 10.003
-14.701531 -133.44479 12.926502 9.0059996
-14.605547 -132.82368 12.823318 9.0054998
-14.621865 -133.88246 14.487597 10.17
-14.046353 -135.05568 14.584139 11.1145
-13.761699 -136.7673 13.172635 9.0039997
-13.6733 -133.72134 15.31699 10.005
-13.7651 -133.51155 15.629207 10.006
-13.20203 -132.7765 13.500924 10.116
-13.584023 -133.54568 14.132008 11.1385
-13.274691 -133.63728 15.311157 10.0045
-12.911837 -134.59955 12.304316 10.134
-12.209102 -132.96896 14.090278 11.1425
-9.8397083 -133.36131 9.4024343 9.1494999
-9.9948788 -132.95651 9.8592653 9.151
-9.0993519 -132.55997 11.784748 10.134
-9.1146069 -131.54823 11.847525 10.112
-8.8280239 -134.12598 12.175413 10.147
-8.7083912 -131.38158 12.017437 10.1445
-7.875061 -131.94427 11.680064 10.126
-7.2652087 -133.04443 11.047117 9.1239996
-7.5811162 -132.20909 11.895125 10.137
-6.9624805 -131.87981 11.649402 10.1265
-6.1576223 -132.25917 11.696245 10.131001
-4.8059053 -133.51764 12.111563 10.138
-4.9798522 -133.39464 13.51277 9.0094995
-3.6447015 -135.47101 14.293519 11.1385
-3.7475219 -134.20584 14.017554 11.139
-2.913655 -134.24091 11.884995 10.1215
-3.1132472 -132.48341 11.801945 10.1195
-2.4461625 -122.59237 10.822171 10.148
-2.0978439 -122.63145 11.067176 10.1075
-1.6539885 -122.59914 10.288301 10.129
-1.8004026 -132.87108 11.774315 10.131
-1.7891959 -132.55093 13.54002 11.131
