# .PCD v0.7 - Point Cloud Data file format
VERSION 0.7
FIELDS x y z intensity
SIZE 4 4 4 4
TYPE F F F F
COUNT 1 1 1 1
WIDTH 1263
HEIGHT 1
VIEWPOINT 0 0 0 1 0 0 0
POINTS 1263
DATA ascii
-97.878784 -32.621765 4.652257 9.0040627
-97.880211 -32.360622 4.4322233 9.0305004
-97.792259 -39.019608 5.0120625 9.039834
-97.897995 -32.745323 4.8084879 9
-97.940132 -32.580158 7.1517639 12
-97.776665 -32.489544 7.3874836 13.02565
-97.777214 -32.572552 7.8141689 13.771625
-97.872421 -32.10957 7.9942193 15.032
-97.789886 -32.595585 8.2066622 13.691167
-97.804451 -32.323036 8.1929197 15.0305
-97.836189 -32.479492 8.5258484 13.015
-97.940254 -32.266911 8.6383095 13
-97.778831 -35.260681 8.9778185 13.022
-97.858391 -32.605797 8.841691 14
-97.697678 -52.50573 9.8105068 11
-97.849663 -52.194241 9.7608604 11
-97.763214 -51.852863 9.7181339 11
-97.763649 -52.036171 10.736698 12
-97.866508 -51.625645 10.644803 12
-97.875359 -51.966015 11.656361 12
-97.662712 -52.524742 12.26594 12
-97.904686 -51.867176 12.134995 12.771375
-97.969604 -51.305222 12.299307 12
-97.670418 -52.488323 12.500635 12
-97.778267 -52.174988 12.515397 11.777778
-97.824898 -51.807465 12.55152 11.230769
-97.894707 -51.860817 12.960916 12.333333
-97.761017 -51.443588 13.191951 12
-97.829575 -51.801155 13.442912 12.743833
-97.674248 -51.439331 13.28655 12
-97.957649 -51.713223 13.786407 11.5
-97.678719 -52.121078 14.112447 14.0485
-97.919899 -51.720592 14.196228 12.802834
-97.704361 -52.063419 14.736227 12.0135
-97.791405 -51.701557 14.605438 12.6027
-97.755547 -52.480995 15.111719 13
-97.797523 -52.195965 15.155768 13
-97.838585 -51.827152 15.014296 12.67
-97.851807 -51.537968 15.032896 13
-97.68943 -52.46172 15.301043 13
-97.810562 -52.180798 15.354499 13
-97.83683 -51.795948 15.376958 13.1515
-97.812492 -51.511147 15.416301 13.0095
-97.914719 -51.008453 15.421431 12
-97.847076 -51.781933 15.793308 13.5
-97.930214 -51.571548 15.976756 14.012
-97.826355 -51.092129 15.600677 14
-97.77298 -52.131023 16.260349 14.726666
-97.76281 -51.808361 16.175518 14.53575
-97.856056 -51.553921 16.147787 15.011499
-97.713142 -52.16721 16.529688 14
-97.872406 -51.767208 16.520302 12.726167
-97.813316 -51.489815 16.57345 13.6
-97.7314 -51.665699 16.971889 13.666667
-97.887299 -51.474533 17.001196 13.5
-97.755157 -51.611721 17.304241 14.007999
-97.843712 -51.498909 17.416912 14.287786
-97.823456 -52.152214 17.898455 14
-97.765892 -51.776333 17.911638 13.363636
-97.871368 -51.510929 17.965572 13
-97.64579 -52.512959 18.305958 14
-97.850426 -52.169319 18.32292 14
-97.7892 -51.777016 18.124903 13.906199
-97.83242 -51.514889 18.145758 13.753375
-97.735207 -51.871891 18.490736 14.333333
-97.768646 -51.517467 18.578413 14.666667
-97.694717 -51.738319 19.06949 13.089251
-97.775604 -51.400311 18.909168 13.666667
-97.886932 -50.471081 18.830925 13
-97.810524 -51.637249 19.295071 13
-97.861443 -51.359905 19.389677 15.004833
-97.757454 -51.700325 19.620836 14
-97.821518 -51.50658 19.681368 14
-97.799255 -51.626068 20.308125 14.5
-97.839447 -52.408051 20.528429 15
-97.939949 -52.200577 20.584341 15
-97.80587 -51.791325 20.645666 14.625
-97.77153 -51.518879 20.676601 14.4
-97.898529 -52.044628 20.978594 15.0155
-97.794891 -51.791557 20.887764 15.003375
-97.736702 -52.509674 21.310623 15
-97.917168 -52.142563 21.299789 15.01075
-97.895546 -51.894863 21.279539 15
-97.656494 -51.514679 21.447868 14
-97.656372 -52.372406 21.667225 13.151
-97.676979 -51.609303 22.178171 14
-97.763435 -51.388783 22.17762 15
-97.724266 -51.540276 22.881666 15
-97.745384 -51.425377 23.520792 15
-97.721924 -51.398376 23.775202 15
-97.754509 -51.399326 24.218668 15
-97.92791 -52.656307 24.706158 14
-97.849182 -52.388954 24.602001 14.151
-97.651665 -51.490875 25.114918 15
-97.905479 -52.301876 27.552475 15.151
-97.463585 -35.86747 1.8679886 6
-97.45369 -30.755791 4.7785792 11.0485
-97.596519 -40.532059 4.9335952 9.0450001
-97.350014 -39.115215 5.0124111 9.0402498
-97.564247 -30.008192 5.1036677 12.0485
-97.239891 -30.541368 5.2144136 12.049
-97.312782 -33.421333 8.7526026 12.0125
-97.317902 -52.99588 9.1021414 11
-97.466972 -52.71487 9.0962868 11
-97.488121 -35.705929 9.0223675 14.028749
-97.274086 -33.687424 8.8669052 11.004
-97.362625 -53.001591 9.3241463 11
-97.455978 -52.71339 9.3132467 11
-97.491364 -51.732086 9.5605593 11
-97.494408 -52.486645 9.7370186 11
-97.463486 -52.200108 9.7295103 11
-97.281136 -51.349606 10.707713 12
-97.319275 -53.004459 12.078712 12
-97.373779 -52.641541 12.146985 12
-97.380547 -52.127121 12.356201 12
-97.48188 -51.804893 12.380513 12
-97.487625 -52.561199 12.500636 12
-97.478645 -52.211117 12.516188 11.455909
-97.502472 -51.837578 12.475126 11.875
-97.344948 -51.321732 12.457826 11
-97.320229 -52.286713 13.005184 13.105
-97.502831 -51.665272 13.037392 13
-97.45343 -51.362396 13.067545 12.666667
-97.3946 -51.871017 13.220978 13
-97.54187 -51.723404 13.986047 13.666667
-97.527153 -51.558144 13.703176 14.062
-97.260323 -51.018349 13.932805 14
-97.576485 -51.983662 14.031009 14
-97.474525 -50.859673 14.00089 14
-97.259193 -52.401543 14.456752 13.014
-97.459053 -52.093456 14.637577 13.01225
-97.457237 -51.820984 14.597605 13
-97.256325 -50.889946 14.699231 13
-97.306175 -53.019913 15.085099 13
-97.389961 -52.677231 15.056826 13
-97.377853 -52.146992 15.043179 13.344334
-97.377037 -51.799419 15.110173 12.25
-97.444778 -51.391987 15.129538 12.333333
-97.505547 -52.666573 15.36654 13
-97.457047 -52.242229 15.334075 13.681499
-97.319916 -51.871254 15.440531 12.434928
-97.39769 -51.347469 15.228867 13.338666
-97.270203 -52.190453 15.831285 14.519751
-97.287109 -51.693142 15.674126 15.0255
-97.35051 -51.491535 15.827835 12.666667
-97.268936 -52.339539 16.151484 15.0235
-97.453201 -51.396587 16.191252 13.337833
-97.391869 -51.957672 17.199087 14
-97.306015 -52.198132 17.351522 14.0075
-97.558784 -51.701874 17.341354 14
-97.417625 -52.13913 17.707394 14.338333
-97.500206 -52.637123 18.262562 14
-97.561829 -51.847214 18.112068 13.666667
-97.374481 -52.071991 18.632063 13
-97.459465 -51.789085 18.603319 14.75675
-97.469276 -51.436462 18.686556 14.333333
-97.460983 -51.680126 18.890676 15
-97.380508 -51.239986 19.039503 14.5
-97.476151 -50.61058 18.925608 13
-97.305481 -51.174248 19.23711 15
-97.560143 -51.71899 20.114548 12.0185
-97.408905 -52.006119 20.578239 15.0145
-97.527328 -51.684803 20.663721 14
-97.309044 -51.372501 20.712175 14
-97.460144 -51.13736 20.701349 14
-97.500916 -51.859879 20.857775 15
-97.399597 -51.221008 20.913675 14
-97.376701 -52.89352 21.214285 15
-97.509537 -52.638599 21.296064 15
-97.342033 -52.132202 21.49692 14
-97.33049 -51.759789 21.478836 15.00675
-97.343193 -51.391098 21.36216 14.333333
-97.480118 -51.042107 21.353119 14
-97.452896 -51.543613 21.726835 15.0135
-97.528114 -51.704803 23.521749 15
-97.499756 -51.647839 23.964502 13.0185
-97.206085 -52.107948 24.376223 15
-97.568436 -51.82386 24.441359 15.089251
-97.442299 -51.490452 24.580172 15
-97.486244 -53.039963 27.089165 14.0655
-97.157974 -31.257761 2.1628482 6
-97.171326 -59.916092 2.6660719 8.0415001
-97.007011 -59.684441 3.9093137 9.0662498
-96.822006 -30.037981 4.7796216 9
-97.198456 -40.529617 4.9208403 9.0454998
-96.971756 -39.159309 4.985158 9.0415001
-97.166435 -30.512678 5.1927719 12.0505
-97.126335 -34.000431 8.773778 12.013
-96.847458 -34.893612 9.0106745 13.0205
-96.981422 -34.527824 8.9230394 12.012251
-97.072922 -34.137627 8.9039202 13.02
-97.192245 -51.629791 9.4739656 11.0645
-96.914932 -51.536896 9.5348082 11
-96.983688 -51.753952 9.6711464 11
-96.877914 -51.543991 9.6011314 11.063
-97.004601 -51.141296 13.135538 12
-97.1576 -50.940659 14.060605 14
-97.173988 -52.332542 15.401592 14.0165
-97.194489 -51.777905 15.285389 14.352166
-96.833397 -51.445053 15.268648 14
-97.181664 -52.491806 15.9246 11.151
-96.860085 -52.436646 16.168636 11.1555
-96.840599 -52.283264 16.287626 11
-97.050186 -50.811653 17.899509 13
-97.093826 -52.814327 18.201725 14
-97.181862 -52.264919 18.62956 13
-96.801117 -51.264309 18.403774 13
-96.974579 -52.204914 19.002768 13.507
-96.894333 -51.004906 18.91293 15
-96.827072 -51.688389 20.733793 15
-97.043045 -50.708725 20.563152 14
-96.866646 -52.112946 21.448467 13
-96.909515 -51.381111 21.534666 14.089251
-96.825897 -51.236767 21.712715 15
-97.052582 -51.152481 21.798752 14.577499
-96.804031 -52.151337 22.11429 13
-96.814827 -53.080009 23.567316 13
-96.826454 -52.140701 24.630007 14
-97.122833 -51.117794 24.809013 15.155
-97.034981 -52.207153 26.811337 14.0195
-96.885559 -52.047821 27.576918 15
-96.816124 -52.948982 27.620846 14
-96.853302 -52.899906 31.246065 15.0745
-96.801071 -52.662636 31.238743 15
-96.808502 -52.898029 31.612444 15
-96.536736 -30.312555 0.97059929 7
-96.706711 -30.119858 1.4852296 6
-96.622169 -30.27755 1.6960775 6.6666665
-96.63694 -30.417459 2.1914666 6
-96.680176 -59.665337 2.6312065 8.04175
-96.541641 -38.345814 2.682981 6
-96.682243 -30.135571 2.5862343 7
-96.562103 -30.407835 2.9514291 7
-96.546883 -30.293179 2.9193451 8.0384998
-96.520653 -38.326069 3.385632 7
-96.553909 -30.288544 3.4856179 8.019125
-96.779045 -59.604259 3.8305402 9.0644999
-96.462776 -59.506023 3.8368251 9.0637493
-96.504257 -56.960632 3.8865438 7
-96.569672 -30.285645 3.7096519 8.2799549
-96.476036 -38.31076 4.1282673 8
-96.558037 -30.32415 4.2136998 9.333333
-96.400795 -59.456184 4.5747662 10.059
-96.618057 -30.232615 4.6177559 9.5088749
-96.796059 -40.532104 4.9088483 9.0459995
-96.505592 -39.253502 4.9020581 9.0440006
-96.421677 -38.281055 4.8583264 9
-96.545082 -30.142355 5.0120268 10.945089
-96.462608 -35.821434 8.9523077 12.013125
-96.641335 -35.386253 8.9788857 12.6174
-96.760834 -35.081085 8.9192533 11.005
-96.756546 -34.709827 8.8749847 13.021
-96.493744 -51.307529 11.116359 13.0605
-96.541466 -53.438255 12.829149 10.0415
-96.639061 -51.288826 12.868143 11
-96.562057 -51.13295 12.988386 11.507
-96.639351 -52.372063 14.956897 15.032
-96.700104 -51.744415 15.064461 13
-96.606003 -52.286518 15.364915 15.028167
-96.644028 -51.20734 15.594339 12
-96.424339 -52.822533 15.957183 11
-96.512489 -52.637451 15.876261 11
-96.672173 -52.36573 15.9293 11
-96.544617 -51.108658 15.903381 15.022
-96.756157 -52.537464 16.244493 11.0765
-96.792915 -52.343285 16.252001 11
-96.606476 -51.015179 16.202497 14.340167
-96.707825 -52.362068 17.3407 12.1495
-96.507889 -51.79343 17.493643 14
-96.537872 -51.419605 17.739098 13.272727
-96.484673 -51.348896 18.152586 14.712166
-96.498772 -52.471302 18.682936 12
-96.702606 -52.245716 18.681944 12
-96.567947 -51.515373 18.655609 15
-96.559036 -51.133198 18.56752 13
-96.455307 -52.598721 18.89407 12
-96.72834 -52.235363 19.024443 12
-96.685455 -51.536415 18.983992 15
-96.704491 -50.931107 19.035614 15
-96.665192 -52.207489 19.865416 13.1495
-96.585991 -51.662376 20.768623 15
-96.451279 -51.466976 20.780476 15
-96.521553 -51.088612 20.50461 14
-96.429886 -52.49004 21.391853 13
-96.583817 -52.184673 21.48337 13
-96.716843 -52.110329 21.828886 13
-96.602722 -52.210491 22.181299 13.2916
-96.76693 -51.946533 22.03297 13
-96.508026 -53.358971 23.425539 13
-96.757622 -53.052589 23.395624 13
-96.59713 -51.034958 23.442648 15
-96.588432 -53.49028 23.638023 13.03625
-96.508568 -52.100342 24.370211 14
-96.797997 -51.382343 24.351677 15.1605
-96.479919 -52.042599 24.957991 14.051
-96.611183 -51.918377 24.900923 14
-96.615303 -53.258514 26.092022 14.0705
-96.71946 -52.974354 26.252748 14.0725
-96.529762 -52.9981 26.5035 14.0725
-96.466125 -52.078869 26.682415 15
-96.511101 -51.846935 26.991444 15.0302
-96.599907 -52.939377 27.338364 14
-96.685783 -52.695938 27.256889 14
-96.455887 -51.827301 27.874521 15.051
-96.639702 -52.966705 28.038181 14.0745
-96.462967 -51.924595 28.193266 15
-96.717361 -53.022675 29.450752 15.072
-96.57695 -53.148254 29.829882 15.0705
-96.702652 -52.999443 31.767395 15
-96.285912 -36.533897 1.8963667 5
-96.35524 -30.402504 2.3046041 6
-96.344833 -38.296856 2.610394 6.3333335
-96.178871 -38.224655 3.0196733 7
-96.33992 -30.372519 2.9836898 7
-96.21843 -38.405151 3.3799038 7
-96.269699 -38.280033 3.4036973 7
-96.376198 -30.345406 3.4291821 8.034874
-96.222252 -59.434315 3.8054738 9.0532141
-96.089485 -38.223557 3.8264406 8.0240002
-96.333664 -30.417133 3.7945292 9.0495005
-96.360954 -30.334131 3.6253178 8
-96.229691 -57.214203 4.309998 7
-96.277489 -38.306328 4.1594849 8.0178747
-96.341537 -30.311806 4.1115708 9
-96.206589 -59.413319 4.679822 10.041333
-96.153465 -38.249214 4.6129656 9.0120001
-96.358566 -30.441383 4.7299643 11
-96.204666 -30.329992 4.6888785 10.735546
-96.220177 -30.150902 5.0848103 11.264458
-96.350952 -30.108141 5.2303543 12.042875
-96.195633 -30.089832 5.8185148 8.1339998
-96.205681 -30.112307 6.2523022 8.1429996
-96.030754 -30.508705 6.7178311 8.1415005
-96.357544 -53.833405 7.1545548 8.1409998
-96.197716 -30.068939 6.8030839 8.1420002
-96.082748 -36.552036 8.9211674 11.006
-96.156784 -36.293934 8.9571781 13.021749
-96.247658 -35.834274 8.9848413 14.028
-96.233688 -31.059898 8.9658689 15.022
-96.16613 -50.958862 12.814194 11.017
-96.376411 -51.203354 13.780098 14.0585
-96.00518 -51.424637 15.333187 15.026
-96.338432 -52.839035 15.879838 11
-96.240074 -51.09404 15.790503 12.50725
-96.300926 -52.877052 16.025663 11
-96.282173 -50.907223 16.141483 13.5135
-96.187149 -53.585701 17.093878 11.0425
-96.146515 -51.460903 17.802267 14.338
-96.108536 -52.906132 18.760761 12
-96.230095 -52.649933 18.662693 12
-96.235504 -52.145561 18.499113 12
-96.224052 -50.905495 18.706547 14.50675
-96.159538 -50.810776 18.935757 13.1565
-96.098602 -50.687515 18.859112 14.514
-96.046188 -51.017578 19.332399 15.0855
-96.160545 -51.154175 20.331276 14
-96.243164 -50.822731 21.003942 14
-96.298981 -52.507824 21.517679 13
-96.382126 -52.320053 21.337696 13
-96.313187 -50.840343 21.947283 14.1565
-96.266991 -53.439537 23.343565 13
-96.023636 -52.174789 23.842337 14
-96.09584 -51.877075 23.908966 14
-96.006813 -52.581772 24.359913 14
-96.11631 -52.207233 24.196867 14
-96.074608 -51.824837 24.046177 14.164214
-96.198036 -52.212509 26.637325 15
-96.039726 -52.479362 27.175459 14
-96.284782 -52.044422 26.97731 15
-96.382927 -51.896629 26.951075 15
-96.257027 -53.299225 27.279261 14
-96.079674 -52.578358 27.365612 14.03625
-96.31575 -52.166702 27.261274 15
-96.085823 -51.723366 27.447943 15.152
-96.232803 -52.441917 30.305433 15.0725
-96.086502 -52.113014 30.142864 15.0695
-96.25914 -53.413383 31.983456 15.074
-95.939125 -38.217621 2.2660756 6
-95.960732 -38.151421 2.5597947 6
-95.906769 -59.351055 2.8764822 8.0372505
-95.880791 -38.163792 3.0496655 7.5317502
-95.727753 -31.509949 3.1299608 7
-95.93811 -59.301216 3.5521953 9.0515003
-95.683304 -38.718002 3.2480342 7
-95.684891 -38.174091 3.3764484 7
-95.859001 -59.300777 3.7824204 9.0466251
-95.619835 -59.182724 3.8178329 9.0644999
-95.831161 -38.112225 3.8933499 8.0306664
-95.767754 -30.100315 3.7009346 9.05375
-95.603889 -38.478722 4.1125574 8.0270004
-95.718132 -38.140514 4.1450443 8.2320004
-95.933342 -59.27647 4.5976758 10.035899
-95.67894 -59.170521 4.5762668 10.0405
-95.865753 -38.14296 4.6293392 9.0305834
-95.710571 -31.93815 4.6901951 10.0395
-95.77961 -30.213564 4.6918244 11.016818
-95.661743 -38.122055 4.8776298 9
-95.890511 -30.145823 4.9829812 11.03575
-95.814117 -38.156742 8.9902 13.530251
-95.852661 -37.365147 8.9846497 12.0155
-95.881493 -36.953415 8.9776926 13.023
-95.872688 -51.403522 9.4825802 11
-95.96032 -50.777512 12.913921 12.0145
-95.849136 -50.564499 13.728763 14.0595
-95.812233 -50.905163 14.607387 15.03
-95.826759 -51.085197 15.795124 14.014
-95.7257 -50.712791 15.92063 14.0135
-95.829964 -51.397839 16.029301 15.021
-95.977348 -50.791107 16.057692 12.0165
-95.849533 -53.776939 17.074274 11.0425
-95.725533 -50.727894 18.633888 14.0135
-95.961708 -51.135559 20.143253 12.0185
-95.712479 -51.216526 20.577522 15
-95.873047 -51.06881 20.664684 15.0135
-95.984711 -52.696117 21.516998 13
-95.843948 -51.777412 21.588766 13.152
-95.769913 -51.818497 21.744843 12.0185
-95.981377 -52.026138 24.139538 14
-95.997475 -52.629581 24.572004 14.152
-95.920448 -51.715908 24.467943 14.152
-95.895988 -53.435707 27.261286 14
-95.7761 -52.471039 27.454796 14.613001
-95.887993 -52.228275 32.873207 15.021749
-95.258202 -30.839985 1.0554276 7
-95.468262 -31.30694 1.583553 4
-95.267082 -31.11368 1.5899454 4
-95.46727 -31.291525 1.6399027 4
-95.401413 -31.284327 2.1019802 5
-95.270996 -31.157169 2.0772483 5
-95.560211 -59.29995 2.6242781 8.0410004
-95.281502 -31.120806 2.5438192 6
-95.532516 -59.228184 2.8433914 8
-95.596138 -38.855972 3.1817875 7
-95.296974 -31.1175 3.0379663 7
-95.25309 -59.062035 3.5176914 9.0535002
-95.468994 -38.664032 3.3257241 7
-95.284477 -31.089678 3.5273411 8
-95.266266 -30.486797 3.4125142 7
-95.555466 -59.213818 3.727622 9
-95.446388 -59.142899 3.7566619 9.0420828
-95.301811 -31.163223 3.9241912 9
-95.415535 -59.110527 4.3522606 10.0245
-95.460709 -38.545807 4.1497693 8.0331659
-95.272621 -31.088198 4.1035924 9.1999998
-95.303154 -30.494974 4.218339 7
-95.450417 -59.099861 4.6212463 10.031
-95.395218 -32.108719 4.662107 9.5287495
-95.595764 -31.77565 4.7304344 10.0355
-95.281563 -31.085651 4.517601 10
-95.304108 -30.503424 4.4749503 7
-95.456055 -30.075298 4.672195 11.020888
-95.339775 -39.46846 5.041728 9.0357504
-95.533531 -30.126167 4.8733964 11.038999
-95.257721 -31.083315 8.2022734 11.05725
-95.598541 -38.189293 8.7104387 13.028
-95.369019 -38.092442 8.9220753 14.0345
-95.332809 -30.575413 9.1547079 13.042999
-95.289467 -30.369116 9.127634 13.042
-95.384781 -30.356884 10.68709 13.344333
-95.236008 -30.629452 10.951616 12.605
-95.42588 -30.170759 10.992408 13.755375
-95.280426 -50.591064 12.983267 12.061667
-95.321404 -50.247696 13.160267 13
-95.58329 -50.981499 13.303837 13.1085
-95.438438 -50.663742 15.760977 12.1535
-95.247566 -49.567329 15.854809 12
-95.207253 -49.061768 15.749081 12
-95.504921 -54.001923 17.095737 11.0425
-95.291008 -49.342834 18.318211 13
-95.408058 -49.040264 18.300173 13
-95.426636 -50.65654 18.774738 15.015
-95.233704 -50.48193 18.825132 14
-95.25621 -49.120834 20.738588 14
-95.291962 -51.902397 21.06934 13
-95.394821 -48.920704 20.846344 14
-95.422035 -52.82711 23.133171 13
-95.450821 -52.722145 23.433277 13.0725
-95.343155 -48.957104 23.424841 15
-95.312157 -51.631104 23.799927 14
-95.274681 -51.588032 26.606993 15
-95.500275 -52.297203 27.064302 14.0725
-95.312561 -53.145462 30.120565 15.067
-95.059341 -59.041817 1.0528616 7
-94.980728 -31.042288 1.5426831 4.5
-94.96801 -33.269104 1.9112531 5
-94.995117 -31.078751 1.8013464 4.5714288
-95.198769 -30.716661 1.8574883 8.0710001
-95.027611 -34.26392 2.3051302 7
-94.942863 -32.653378 2.0046844 6
-95.087708 -31.241728 2.0953512 5
-94.968117 -31.078543 2.122699 5.1428571
-95.084106 -59.050026 2.5899363 8.0412502
-94.992119 -31.051552 2.5374343 6
-94.861618 -58.902256 2.8110156 8.0714998
-94.802429 -55.881645 2.8122833 6
-94.991249 -31.052835 3.0255327 7
-95.081566 -59.015965 3.5950563 9
-94.946167 -31.014383 3.4792204 8.0015001
-95.01152 -58.966728 3.7331252 9.0150766
-94.965256 -31.003349 3.8395123 8.8961115
-95.036911 -58.949028 4.3158331 10.026501
-94.982452 -31.055052 4.2274971 9.6066751
-95.007019 -58.92841 4.5473738 10
-95.01265 -32.446682 4.6244388 9.0179996
-94.973145 -31.013502 4.4821367 10
-95.148041 -30.41243 4.4985309 7
-94.874901 -39.630764 5.0363503 9.0384998
-95.107498 -39.504761 5.0152068 9.03825
-95.156166 -30.00593 4.9234328 11.035
-94.934479 -39.528164 6.3346438 11.0425
-94.827362 -30.73947 6.3083582 13.03
-94.963699 -30.942835 6.6810331 13.026501
-94.945358 -30.8755 6.8744025 14.7065
-94.938095 -30.898037 7.3845463 14.361
-94.801331 -30.787237 7.3437195 15.032
-94.926277 -30.869188 7.7530446 15.02775
-94.888733 -39.431255 8.1012144 11.0135
-94.936432 -39.120811 8.2586317 11.0105
-94.825554 -32.02282 8.247673 11.057
-94.869537 -39.486618 8.6019831 11.768125
-94.942421 -38.126484 8.4951267 13.029834
-94.818939 -50.665802 9.1675968 11
-94.900055 -39.603577 8.8687878 12.019
-94.969864 -39.153881 9.0096912 11.512751
-95.137642 -38.077976 8.8505964 13.027
-94.903969 -35.379303 9.1135759 15.031
-94.809105 -34.560478 9.045969 14.0245
-94.851143 -31.637161 9.188921 13.0395
-94.954285 -31.367016 9.1106129 13.043667
-94.985588 -31.183893 9.075284 13.0425
-95.167381 -30.64777 9.1583624 13.041
-94.961288 -50.296558 9.305069 11
-94.852188 -31.662256 9.2417755 13.049
-94.878349 -50.238701 9.9993753 12
-94.804039 -39.451527 9.6752586 13.022
-95.111977 -30.897478 10.673479 14.01
-95.138054 -30.638241 10.720276 13.50975
-94.872055 -31.6297 11.061087 13
-94.936722 -31.445707 11.009263 13.2585
-95.032051 -31.133759 11.029297 14.00725
-95.181168 -30.623514 10.992927 15.014
-94.854034 -50.193359 11.575471 12.5
-94.832581 -50.564171 11.955956 12
-95.053574 -50.222073 11.763573 12
-94.89537 -50.139904 12.314638 11
-95.028244 -49.934071 12.308517 11
-94.807335 -50.269272 12.783273 13
-94.898827 -50.086067 13.057004 13
-94.832489 -49.925484 13.177499 14
-94.872833 -49.314915 13.008807 11
-94.893349 -50.027924 13.568563 14
-94.911568 -50.280869 13.913642 13.5
-95.153938 -49.936787 14.215359 13
-94.838737 -50.56485 14.764036 13
-94.89402 -50.057724 14.788501 14
-94.863625 -50.025703 14.818363 12
-94.95417 -49.791363 14.801739 12
-94.951988 -49.699142 15.580294 12
-95.178329 -49.41029 15.577478 12
-94.835899 -50.126625 15.845959 12
-94.955048 -49.892139 15.719392 13.5
-95.036667 -48.806587 15.7224 12
-94.869881 -50.088955 16.517069 15
-95.13546 -49.914219 16.705467 14
-95.131836 -53.066071 16.903374 11.041
-95.177834 -50.601883 16.845869 15.105
-94.814529 -50.564308 17.534851 14
-94.879158 -49.809593 17.344656 13
-94.813194 -50.198601 18.225599 15
-94.841164 -49.704468 18.183428 13
-95.068977 -49.461681 18.182785 13
-94.821526 -50.300034 18.696257 14
-94.8311 -50.300838 18.86549 14
-94.833557 -50.60524 20.370771 15
-94.879974 -49.65826 20.704245 14
-94.987762 -49.380634 20.711258 14
-94.957001 -49.033958 20.748144 14
-94.976608 -50.362064 21.596983 14
-94.860878 -49.450897 23.152473 15
-95.188362 -52.621468 23.302015 13.073
-95.08139 -49.302574 23.41246 15
-94.948677 -51.600109 23.697193 14
-94.973244 -51.560509 23.754869 14.03775
-94.866524 -53.186737 26.781755 14.0745
-95.091705 -51.553196 26.573603 15.151
-94.952873 -52.106842 27.196163 14.073
-95.138832 -52.120186 27.249378 14.0725
-94.679794 -59.047783 1.0863827 7
-94.505211 -31.476187 1.5136956 7.02775
-94.691429 -31.131102 1.5907041 7.02775
-94.634903 -58.803059 1.6985849 7
-94.622047 -31.355204 1.8670583 5.7777777
-94.640602 -31.114542 1.7487679 5.5
-94.446075 -58.81139 2.1207333 7
-94.603035 -31.388737 2.222923 6
-94.694717 -31.118086 2.2393403 6
-94.558891 -58.914783 2.5996723 8.0419998
-94.486641 -34.52364 2.5940118 6
-94.622421 -34.224064 2.581749 6
-94.568962 -31.350039 2.6072235 6.6111112
-94.630852 -31.059795 2.5118153 6.1999998
-94.744949 -58.838055 2.806314 8
-94.547913 -31.33753 2.9503257 7
-94.595421 -31.061039 2.9910121 7
-94.741714 -58.889439 3.580905 9
-94.468781 -58.79401 3.5698621 9
-94.547661 -31.319937 3.5561016 8.0054827
-94.622536 -31.051815 3.5316384 8.0071802
-94.64254 -58.846725 3.6984253 9
-94.542747 -58.748882 3.7353709 9.0373573
-94.548439 -31.360228 3.6605129 8.0031004
-94.636505 -31.029264 3.7053237 8.3633003
-94.753517 -58.842091 4.3503904 10.023251
-94.533432 -58.750256 4.2938528 10.02625
-94.713615 -33.119991 4.0474472 9.0515003
-94.499237 -31.311354 4.2150116 8.7200365
-94.599159 -31.034185 4.2152271 9.1762848
-94.759857 -58.832317 4.5224695 10
-94.541451 -58.741611 4.5331569 10
-94.578285 -31.325031 4.4681339 9.090909
-94.608566 -31.057421 4.5587306 9.7142859
-94.42868 -41.172176 4.9902434 10.054
-94.594872 -30.617443 6.2516499 13.367833
-94.781082 -30.817137 6.4985256 14.0385
-94.524826 -30.735298 6.5613108 13.4189
-94.477791 -40.798267 7.1605954 11.03
-94.720535 -40.03685 7.1349235 11.054
-94.541199 -30.756279 7.0034604 14.014875
-94.59182 -31.363268 7.2506123 13.023
-94.775658 -30.857496 7.5401049 14.025
-94.466995 -30.710032 7.3944559 15.030667
-94.667694 -30.797342 7.778511 15
-94.633148 -40.058765 8.1262369 11.014
-94.745255 -39.808025 8.3006468 11.011
-94.777687 -32.245735 8.1426935 11.0585
-94.533333 -31.021809 8.1767092 12.638562
-94.61834 -30.763664 8.1717758 12.01
-94.453461 -51.013874 8.715044 11
-94.7257 -39.892735 8.458272 12.024
-94.441826 -31.220428 8.567811 14.354833
-94.45858 -31.071621 8.4776802 12.00975
-94.403076 -51.3657 9.1733799 11
-94.543472 -50.964626 9.1600733 11
-94.637527 -50.729671 9.1990576 11
-94.552856 -40.252666 9.1583767 12.523001
-94.662117 -39.951031 9.0635242 11.0085
-94.437897 -32.89893 9.01015 13.046
-94.498177 -32.608677 9.126997 13.04375
-94.674171 -32.14436 9.047327 13.044249
-94.707542 -31.959343 9.0300665 13.043
-94.433189 -51.244038 9.3313313 11
-94.498055 -50.998394 9.3227901 11.003938
-94.617126 -50.70808 9.3007936 11
-94.476593 -40.432644 9.2851162 13.0275
-94.56427 -40.211456 9.3492899 12.689583
-94.628403 -39.918617 9.3755226 13.0255
-94.468948 -32.572861 9.233592 13.049832
-94.7743 -31.792192 9.275485 13.0615
-94.713943 -50.365551 9.9941492 12
-94.451752 -40.381351 9.6477575 13.0245
-94.688568 -39.852386 9.6050215 13.024
-94.492645 -50.901558 10.303661 12
-94.609108 -50.584438 10.170025 12
-94.718521 -50.296474 10.146705 12
-94.456726 -50.875095 10.432052 12
-94.57103 -50.637104 10.556121 12.5
-94.448776 -32.624737 10.649952 12.5105
-94.669975 -31.888506 10.73458 13.677501
-94.556107 -51.144291 10.978709 11.1095
-94.676186 -50.533627 10.860683 12.584999
-94.534904 -49.795963 11.194004 13
-94.400757 -32.928875 11.02844 12.006
-94.460533 -32.667473 11.08956 13
-94.585747 -32.287231 10.946489 14.008834
-94.739082 -31.831141 10.989604 13.504749
-94.699165 -50.888123 11.584766 12
-94.528 -50.538971 11.530981 13
-94.651047 -50.297276 11.487612 13
-94.425438 -51.247013 11.983273 12
-94.521484 -50.962521 11.917538 12
-94.593025 -50.680016 11.901047 12
-94.654297 -50.325581 11.877157 12
-94.519203 -50.565201 12.055789 11.251332
-94.708275 -50.321648 12.186421 12
-94.438522 -50.819107 12.533063 12
-94.508286 -50.590302 12.614428 12.6123
-94.583519 -50.304661 12.570963 12.4
-94.541313 -50.928089 12.848697 13
-94.570343 -50.596588 12.938341 12.6
-94.488777 -50.368057 12.88719 11
-94.506828 -50.563309 13.385106 12.731799
-94.678482 -50.263775 13.443911 13.009278
-94.519577 -50.618652 13.802823 12.666667
-94.595619 -50.287674 13.800583 13.300142
-94.443573 -51.05891 14.387407 13
-94.541237 -50.493732 14.339768 12.507999
-94.564957 -50.285755 14.179229 13.646865
-94.405922 -51.242577 14.696545 13
-94.539024 -50.909595 14.582623 13.090909
-94.594017 -50.606045 14.60637 12.882353
-94.604401 -50.253201 14.623583 12.769231
-94.532089 -50.482178 15.014481 13.4048
-94.654503 -50.245647 15.043083 13.405001
-94.772255 -51.375797 15.597381 11.1515
-94.503044 -50.578484 15.41416 13.846833
-94.625793 -50.246895 15.38087 14.154428
-94.411903 -50.955582 15.992702 15
-94.495636 -50.588474 15.777112 13.666667
-94.614418 -50.253765 15.74951 13.629188
-94.625748 -50.654308 16.057142 14.1075
-94.613899 -50.200954 16.252108 13.875
-94.553062 -50.452572 16.474846 15
-94.537994 -50.209049 16.515017 14.166667
-94.491104 -50.886265 16.943771 14
-94.559685 -50.638081 17.068247 14
-94.476692 -50.269619 17.083002 13.557555
-94.432213 -51.231358 17.523645 14
-94.536018 -51.009182 17.493301 14
-94.616951 -50.66254 17.438864 14.111111
-94.4916 -50.218113 17.401718 13.25
-94.652435 -49.995731 17.437927 13
-94.637856 -50.441624 17.716064 15
-94.539864 -50.255035 17.795881 13.75
-94.525581 -50.487617 18.013594 15
-94.478561 -50.222588 18.160864 13.714286
-94.646004 -49.830196 18.186441 13
-94.663277 -50.654758 18.466125 15.1075
-94.490402 -50.202991 18.55187 14.208583
-94.533127 -50.896557 19.551767 15
-94.670822 -50.649162 19.59799 15
-94.460808 -50.172428 19.382977 14.339333
-94.566833 -50.583694 19.788607 15
-94.491051 -50.133759 19.824669 14.285714
-94.771103 -49.790058 19.912958 14
-94.652115 -50.886269 20.352329 15
-94.62323 -50.720833 20.258438 15
-94.429718 -50.160614 20.236639 14.5
-94.427139 -51.485664 20.504711 15
-94.561913 -51.029316 20.442802 15.010834
-94.710281 -50.700703 20.408472 15
-94.453239 -50.179409 20.641245 14.75
-94.503296 -49.991932 20.424915 14
-94.406921 -50.187634 20.970392 15
-94.585892 -50.20248 21.692907 14.57825
-94.413795 -50.061237 22.549757 15
-94.783569 -49.702782 22.540848 15
-94.461273 -52.337914 23.152102 13.074
-94.463577 -49.946835 22.858404 15
-94.434586 -50.19474 23.338585 15
-94.553894 -50.140202 24.520571 15.07825
-94.403481 -52.063072 25.854279 14.068
-94.640892 -51.384048 26.663561 15
-94.2808 -59.011829 1.1098509 7
-94.069283 -30.140141 1.4113436 5.3333335
-94.277832 -43.475986 1.6873291 6
-94.237206 -32.374802 1.8323511 5
-94.022591 -30.501698 1.647683 4
-94.00811 -30.476906 2.0991933 5
-94.224159 -58.954262 2.6431625 8.0450001
-94.121414 -58.706291 2.665225 8.0514994
-94.062309 -30.441181 2.5466309 7
-94.041634 -30.203331 2.510052 7
-94.298172 -58.730244 2.8757255 8.0345001
-94.371063 -31.470745 3.0195789 7
-94.002113 -30.580206 2.9063971 7
-94.055481 -58.60495 3.5527668 9
-94.329391 -31.388706 3.5832171 8
-94.072113 -30.08507 3.553319 8
-94.208466 -58.667034 3.6861706 9.0158749
-94.351738 -31.44104 3.6420386 8.0130005
-94.139359 -58.58667 4.2895894 10.025249
-94.358444 -31.403801 4.1674571 9.0124998
-94.221405 -58.61417 4.4869614 10.00605
-94.367424 -31.513676 4.7052865 10
-94.099419 -30.167065 4.6112442 9
-94.110916 -30.246771 4.8583417 10
-94.01638 -41.849319 6.2342334 11.0515
-94.173599 -41.295918 6.1766953 11.048
-94.336075 -41.097904 6.2456384 11.046249
-94.201569 -30.466518 6.2422056 13.63755
-94.062683 -41.692104 6.7362905 11.061
-94.382362 -41.305065 6.4337621 11.053
-94.252609 -30.628504 6.5613632 13.782875
-94.192924 -59.967083 6.8804832 8.1304998
-94.326218 -41.036385 7.1516013 11.030251
-94.194283 -30.576571 7.0459476 15.035563
-94.07019 -30.545265 7.9894228 15.0255
-94.056023 -41.762608 8.1486254 12
-94.347122 -40.944 8.2448311 12.029
-94.341682 -33.349964 8.1441708 11.059
-94.381203 -33.086342 8.243679 11.0575
-94.283806 -31.259531 8.2601013 13.014
-94.386765 -31.143133 8.2828054 11.0035
-94.301224 -51.432888 8.7305384 11
-94.038055 -41.678082 8.7732286 12.023
-94.244598 -40.960033 8.5326376 12.025
-94.113068 -31.86001 8.7827053 15.024
-94.399719 -31.255579 8.6580315 14.02
-94.080246 -30.098284 8.7195292 13.333333
-94.027267 -41.614727 9.0923595 13
-94.100914 -41.411198 9.1100721 12.51875
-94.250641 -41.010303 9.0300131 12.526125
-94.385315 -40.660168 9.1517191 13.03
-94.060722 -37.849316 8.9798517 14.0325
-94.188438 -36.913696 9.0625362 14.702499
-94.19207 -33.639805 8.9847183 13.046499
-94.11673 -33.438503 9.035923 13.043399
-94.230927 -33.014023 8.983798 13.0425
-94.320274 -32.781654 8.9912281 13.0445
-94.032372 -30.139736 8.9015284 14.51
-94.336174 -51.295189 9.3483381 11
-94.314957 -51.099979 9.3102551 11
-94.105774 -41.372036 9.4138079 12.775126
-94.24157 -40.935875 9.3394413 13.02825
-94.319489 -40.749378 9.5343218 13.0255
-94.188797 -33.351196 9.2414923 13.05
-94.169296 -41.02895 9.7484827 13.02425
-94.398941 -40.598709 9.7709551 13.023
-94.067421 -41.3894 10.033181 14.01675
-94.158562 -41.172874 10.020269 14.0325
-94.023445 -33.533924 10.722638 14.0125
-94.283424 -32.652843 10.742724 12.006
-94.055931 -33.690742 10.983706 13.672666
-94.129387 -33.387344 11.05942 13.508499
-94.297569 -33.04929 10.970992 13.840751
-94.364288 -32.719143 10.832782 15.017
-94.305931 -51.453716 11.593023 12
-94.097969 -51.8298 11.604986 12
-94.054123 -51.274975 11.953753 12
-94.127007 -51.002411 11.898232 12
-94.19519 -50.732101 11.911041 12
-94.333809 -51.494736 12.009153 12
-94.348175 -50.915154 12.085366 11
-94.377487 -50.753506 12.04338 11
-94.303009 -50.932384 12.64853 12.25
-94.382561 -50.64389 12.5962 12
-94.174484 -50.313431 12.558254 11
-94.102745 -50.622562 12.957705 13
-94.200706 -50.179874 13.109924 13.0305
-94.112686 -50.634335 13.355068 13.535
-94.313011 -50.267235 13.519668 13.666667
-94.262451 -50.995728 13.905917 13.505375
-94.269653 -50.732212 13.867427 13
-94.359543 -50.268017 13.765358 13.5
-94.226723 -50.990482 14.176604 13.76275
-94.344597 -50.678211 14.170238 15.03175
-94.156517 -50.181789 14.299951 15.0615
-94.109879 -51.868114 14.505254 13
-94.324532 -51.484894 14.694945 13
-94.281654 -50.988453 14.607482 12.769231
-94.36248 -50.619812 14.526899 13.0065
-94.167282 -50.255943 14.685748 12
-94.196472 -51.051941 14.997892 14.016666
-94.290405 -50.606674 14.920382 13.680667
-94.121803 -50.389011 15.065595 13
-94.388763 -51.638348 15.566968 11
-94.212715 -51.02887 15.321456 12
-94.209862 -50.59729 15.364432 12.5
-94.212326 -50.346104 15.425151 13.666667
-94.227226 -51.322727 15.761512 11
-94.206528 -50.973007 15.777472 13.836667
-94.349899 -50.587395 15.745094 13.333333
-94.156029 -50.164913 15.73948 13
-94.296265 -50.120995 16.246645 14
-94.273582 -50.640213 17.178146 14.004833
-94.245148 -50.293346 17.125301 15
-94.288406 -51.461029 17.408094 14
-94.178795 -50.923748 17.470909 14.2
-94.30056 -50.563728 17.406902 13.714286
-94.320091 -50.248158 17.431381 14.75
-94.144928 -50.904789 17.751114 14.666667
-94.316818 -50.572651 17.81135 13.833333
-94.088348 -51.067883 18.189419 14.0075
-94.244545 -50.65239 18.384325 13
-94.327164 -50.253349 18.244244 15
-94.072777 -51.147369 18.662888 13
-94.275414 -50.645061 18.558912 13.5
-94.246964 -50.214432 18.559376 13.8032
-94.388466 -50.110302 19.073561 15
-94.341316 -50.307297 19.419395 14.666667
-94.296524 -50.713627 19.920725 15
-94.356552 -50.28973 19.806929 14.4
-94.248695 -51.254375 20.337053 15
-94.327148 -50.873882 20.304279 15
-94.375961 -50.327579 20.136415 14.5
-94.271141 -50.577766 20.67173 14.666667
-94.292725 -50.489975 20.908033 15
-94.249672 -50.215508 20.967934 14.338666
-94.019501 -51.757332 21.563589 13.073
-94.030472 -50.994034 21.553171 14
-94.207977 -50.636787 21.502501 14.078
-94.254822 -50.17255 21.412819 14.333333
-94.167366 -50.587238 21.671858 14.01925
-94.278946 -49.931545 21.718992 15.018
-94.279724 -50.165257 22.331758 15
-94.399811 -50.067341 22.504519 15
-94.166161 -50.478283 23.336081 15
-94.371857 -50.153553 23.59185 15
-94.135094 -50.638912 23.641701 15
-94.293846 -50.280514 23.793722 15
-94.041336 -50.907856 24.158548 15
-94.170731 -50.552696 24.020493 15
-94.297737 -50.272572 24.077961 15
-94.022072 -50.872684 24.502998 15
-94.182739 -50.449253 24.439711 15
-94.221382 -51.751831 27.090935 14.074
-94.019524 -50.423244 28.796194 15.021
-94.037727 -51.905293 29.474083 14.044
-94.385056 -51.671421 30.12007 15.066
-93.65094 -30.727249 -0.45723674 7
-93.700851 -30.543985 -0.10571651 7
-93.651459 -58.505142 1.0625606 7
-93.723907 -30.613932 1.0848911 6.3333335
-93.637054 -30.338261 1.1589897 8
-93.640938 -31.244484 1.4470313 5.5
-93.731796 -30.955189 1.3751336 5.5
-93.778625 -30.570421 1.4270935 6.0444598
-93.734177 -30.305101 1.3950814 6.6666665
-93.732147 -30.540203 1.8013804 5.448276
-93.802406 -30.160095 1.8578056 8
-93.76236 -30.521927 2.1695988 5.48
-93.851288 -58.499321 2.6795423 8.0524998
-93.750099 -37.979076 2.4271595 7
-93.690445 -31.205172 2.4980526 7
-93.683968 -31.113546 2.5264764 7
-93.796654 -30.532173 2.5555198 6.4848485
-93.921265 -30.349857 2.5413084 7.3333335
-93.854691 -58.574646 2.8210063 8
-93.621933 -58.358936 2.8055258 8
-93.745201 -30.518435 2.9482739 7.3295927
-93.732285 -30.201616 3.004463 8.9180441
-93.80777 -31.033325 3.5891242 8
-93.752876 -30.487053 3.4895937 8.0245581
-93.773048 -30.229492 3.4191074 8.7777777
-93.802727 -58.51432 3.6747019 9.0138893
-93.894981 -44.145321 3.7952425 8.0495005
-93.794052 -30.938934 3.637193 8
-93.726151 -30.458618 3.9020436 9.0030832
-93.880402 -58.47102 4.2471251 10.05
-93.770576 -30.467972 4.2582817 9.3215714
-93.809975 -30.287758 4.3060727 10
-93.79039 -58.457043 4.4846878 10.0075
-93.62603 -43.530136 4.4302168 8.0384998
-93.657593 -31.352211 4.5862331 8.6020002
-93.746361 -31.028717 4.630619 8.9004498
-93.812874 -30.522593 4.6219354 9.4784565
-93.856224 -30.291426 4.6716843 9.5011997
-93.67617 -31.310755 4.9085627 10
-93.6586 -30.892281 4.9866681 9.9041004
-93.74929 -30.528774 4.9576478 9.8349161
-93.824295 -30.232538 5.0016818 10.250901
-93.610916 -30.842819 5.4672976 10
-93.700508 -30.576611 5.4341893 9.6875
-93.764267 -30.192438 5.3630462 10.318086
-93.634346 -31.341526 5.8424063 10.333333
-93.717804 -31.013271 5.8634834 10.542308
-93.791931 -30.581837 5.8286095 10.703913
-93.803955 -30.241789 5.7967601 11.88558
-93.843658 -42.264805 6.1829567 11.0465
-93.644203 -31.256718 6.1599917 10.667223
-93.751701 -31.008492 6.2008967 10.812781
-93.816971 -30.574686 6.1596298 11.663273
-93.831711 -30.313896 6.1770444 12.505073
-93.726456 -42.827194 6.6489272 10.019
-93.719788 -42.593872 6.7059293 10.537251
-93.658295 -30.957687 6.4567113 12.259624
-93.776871 -30.501646 6.587707 12.955951
-93.795486 -30.303902 6.6247821 13.189078
-93.833344 -30.441895 6.9419312 14.408
-93.753975 -30.328403 6.9887896 12.068767
-93.65567 -42.777447 7.4145474 11
-93.874168 -42.059891 7.2964306 11.0295
-93.756691 -30.464361 7.3758187 13.571428
-93.731865 -30.219387 7.3988805 12.053091
-93.679054 -42.675938 7.8635468 11.02025
-93.876053 -42.095078 7.9237947 11.0185
-93.647446 -30.61031 7.7714028 12.6
-93.70549 -30.234461 7.7678223 12.297229
-93.946518 -42.077038 8.0614538 11.017
-93.635201 -35.170967 8.3235817 11.07
-93.999092 -34.188633 8.2514601 11.058
-93.801414 -30.448847 8.1947918 14.341499
-93.745514 -30.289049 8.2255163 13.375
-93.620033 -42.85886 8.5676079 12
-93.655289 -42.554817 8.4963379 11.5065
-93.769081 -42.261314 8.6645613 11.687333
-93.986618 -41.590023 8.6244917 11.011
-93.667259 -30.999369 8.6935797 14.0075
-93.796761 -30.635227 8.6847076 13.6
-93.750992 -30.287638 8.6260567 13.636364
-93.730682 -42.020489 9.1090183 12.0225
-93.990295 -41.740986 9.1168299 13
-93.918159 -37.434376 8.9791098 14.0315
-93.824661 -36.700115 8.9700422 14.5345
-93.650749 -34.942932 9.0307102 13.0485
-93.69101 -34.459389 8.9092569 13.045166
-93.862923 -34.179996 9.0754328 13.043001
-93.952034 -33.848484 8.9550886 13.0425
-93.656685 -30.951775 8.8380604 14.011
-93.710899 -30.549892 8.9546518 12.893611
-93.743523 -30.246874 9.0200796 12.943825
-93.666389 -42.623833 9.3317938 13.033
-93.717598 -42.247002 9.3816023 12.356999
-93.884377 -41.875042 9.3852701 13.030251
-93.964043 -41.567875 9.4757223 13.02775
-93.636566 -34.692661 9.2958221 13.0375
-93.829903 -34.124588 9.2852459 13.0375
-93.95887 -33.87775 9.2816648 13.0515
-93.622932 -30.473259 9.3413105 11.6
-93.715141 -30.193556 9.3711147 11.925926
-93.663101 -42.52449 9.7217398 13
-93.722488 -42.157341 9.7709846 13.026
-93.892487 -41.797108 9.7513971 13.025249
-93.612694 -30.438892 9.8187456 12.5
-93.686493 -30.230629 9.7857447 13.0143
-93.642807 -41.974632 10.021111 14.035
-93.730003 -30.2019 10.021083 14
-93.906876 -50.1255 10.524453 12
-93.647568 -34.918369 10.605268 13
-93.600708 -34.603287 10.763493 14.0135
-93.968719 -50.287601 10.937224 12
-93.632492 -34.891411 10.986575 13
-93.695221 -34.54599 11.064548 13.505
-93.865273 -34.193184 11.07941 13
-93.902184 -33.877293 11.026586 13.046375
-93.949234 -51.176197 11.825041 12
-93.762924 -50.031349 12.76914 11.1555
-93.776367 -50.02026 12.863905 13.5215
-93.766319 -49.976288 12.985162 14.0265
-93.883583 -49.848507 13.908661 14
-93.992615 -51.228455 14.211299 15.0325
-93.736809 -51.120903 14.208443 15.032
-93.826889 -51.138905 14.589755 15.028625
-93.849281 -50.537724 15.108237 14.011499
-93.885963 -51.284481 15.469948 11
-93.753647 -50.836624 15.476397 13.5
-93.883362 -50.560501 15.395484 13.672666
-93.896507 -50.259327 15.454244 14
-93.72393 -50.9114 15.80504 13
-93.939896 -50.700367 15.85649 14
-93.818474 -49.91869 16.806055 15
-93.939369 -51.185192 17.500174 15
-93.725731 -50.728302 17.369783 14
-93.968994 -50.650734 17.816076 13
-93.985039 -50.570759 18.077702 13.507
-93.935532 -51.88736 18.498158 12
-93.610268 -50.776901 18.436407 12
-93.810547 -49.882648 18.878189 15
-93.787292 -50.224621 19.517851 15
-93.953415 -50.404667 20.749052 14
-93.747154 -50.816593 21.131157 14
-93.914688 -50.310772 21.117352 14
-93.756584 -50.784847 21.272224 13
-93.69075 -49.637112 21.959442 15
-93.77124 -51.367329 22.058697 13.07
-93.640381 -51.591896 22.778139 13.0735
-93.995422 -50.931671 24.066093 15
-93.883484 -50.755363 24.156273 14
-93.790565 -52.309483 25.318497 13.043
-93.731743 -51.259335 25.754572 14.07
-93.755745 -51.644154 26.948677 14
-93.917801 -50.641968 27.064383 15
-93.622772 -51.766415 29.492754 14
-93.300835 -31.450592 -0.43300289 7
-93.468338 -31.023035 -0.6497941 7
-93.435127 -31.285477 -0.2316525 7
-93.235786 -31.87743 0.14524622 7
-93.392075 -58.622265 1.1435 7
-93.370125 -31.806805 1.1535391 8.059
-93.241676 -31.481197 1.17644 8
-93.203369 -32.46558 1.4177812 6
-93.309761 -32.163536 1.4560375 6
-93.358604 -31.742971 1.4379549 6.1994061
-93.367195 -31.459118 1.3849864 6.6666665
-93.490845 -31.003452 1.3316609 6.3409996
-93.596603 -30.686575 1.4571441 4
-93.370399 -30.084393 1.2311236 4
-93.37529 -58.32859 1.8057941 7
-93.333855 -34.894711 1.8669226 5
-93.348701 -34.167194 1.7317691 5
-93.322166 -31.6877 1.8229814 6.0944548
-93.392006 -31.437176 1.8988519 7
-93.459328 -30.949511 1.8589679 8
-93.54557 -30.673399 1.8587306 8
-93.354492 -58.359364 2.0564713 7
-93.29763 -37.134987 2.3255701 6.3333335
-93.376076 -31.657042 2.1699855 5.6666665
-93.292435 -31.597031 2.0484233 5
-93.207214 -58.413692 2.590713 8.0410004
-93.302185 -58.340969 2.724843 8.05725
-93.232666 -33.920971 2.4452434 6
-93.359947 -33.486195 2.4433391 6
-93.473717 -33.056812 2.4410145 6
-93.258728 -32.163403 2.5955722 7
-93.35318 -31.678631 2.5837455 6.6857142
-93.452782 -31.533072 2.5316839 6.6428571
-93.438736 -58.407509 2.8216565 8
-93.262627 -58.308636 2.8311372 8
-93.30397 -31.682095 2.952594 7.3698869
-93.340019 -31.420115 2.9959214 8.2899294
-93.420006 -30.977444 3.0082681 9.0021877
-93.533966 -30.634396 2.996088 9.0072336
-93.586365 -30.355389 2.8694201 9
-93.586517 -58.439693 3.5347877 9
-93.202446 -58.24931 3.4972985 9.0244999
-93.360863 -31.649384 3.5259795 7.8762665
-93.366631 -31.5152 3.4885261 8.173913
-93.389908 -30.960915 3.3662174 8.7777777
-93.561539 -30.563929 3.4399762 8.2222223
-93.571953 -58.426411 3.6602695 9
-93.339638 -58.311363 3.6489301 9.0206671
-93.321274 -31.751102 3.725558 8.3048573
-93.3993 -31.53788 3.8220298 8.6494379
-93.507553 -31.172539 3.9420393 9.0749998
-93.579803 -30.497166 3.9910107 9
-93.416939 -58.322411 4.3022766 10.016749
-93.439575 -44.039661 4.2336431 8.0500002
-93.365143 -31.615679 4.299921 9
-93.323959 -31.544498 4.2136064 9.2543335
-93.357506 -31.195534 4.3598495 10
-93.547752 -30.526688 4.1226416 8.6000004
-93.380486 -58.298058 4.473547 10.009917
-93.30587 -32.49147 4.5938768 9
-93.30571 -32.239857 4.6556273 9.0032501
-93.320557 -31.795044 4.6131639 8.9114504
-93.390701 -31.506067 4.601851 9.4178543
-93.545494 -31.096186 4.7350001 9.333333
-93.577606 -30.447758 4.5523787 10
-93.283569 -32.527592 4.9762955 10
-93.401932 -32.156132 4.990912 10
-93.306664 -31.75552 5.0146699 9.5
-93.399818 -31.380161 4.9848757 9.9787064
-93.49939 -31.009037 5.0132933 9.6482382
-93.538689 -30.529959 5.0036469 11.011636
-93.565735 -30.36702 5.01897 11
-93.256348 -31.693203 5.4126549 9.818182
-93.35463 -31.335197 5.4067526 10.2451
-93.4291 -30.999689 5.421658 10.272552
-93.512466 -30.591373 5.3867931 10.596812
-93.567116 -30.349979 5.4087677 11.5
-93.293465 -32.48719 5.9333835 10
-93.302277 -32.17506 5.9447579 10.401
-93.341286 -31.790092 5.8563089 10.546309
-93.392776 -31.444689 5.850203 11.082611
-93.433708 -31.048143 5.7833123 11.426042
-93.516472 -30.539038 5.8256855 12.176583
-93.576546 -30.347778 5.7742777 12.714286
-93.284386 -32.201534 6.1633101 10.45265
-93.425095 -31.797792 6.2281313 11
-93.386208 -31.448383 6.1558909 11.136823
-93.516411 -30.981449 6.1194777 12.023136
-93.549599 -30.503185 6.1042023 12.5
-93.57058 -30.351671 6.2018156 13.666667
-93.455948 -43.635998 6.4331803 10
-93.325401 -43.465931 6.5906067 10.021
-93.295944 -32.142311 6.4659429 11.571428
-93.39566 -31.705452 6.6158304 11.25
-93.347702 -31.436609 6.5337749 12.61274
-93.487083 -31.06345 6.4918833 13.451501
-93.537445 -30.536329 6.5584888 13.2585
-93.536507 -30.355305 6.6109376 14
-93.363815 -31.846657 6.8704667 12.8
-93.325523 -31.466976 6.9942694 12.888889
-93.469681 -30.822802 6.9064984 11
-93.565598 -30.569429 6.902153 11
-93.532104 -30.359943 7.0144491 14.571428
-93.272156 -43.749767 7.465775 11
-93.426956 -43.352962 7.4261684 11.0075
-93.568527 -43.005566 7.3948894 11
-93.281639 -31.400557 7.4345279 12.43559
-93.375412 -30.982407 7.4020991 11.937571
-93.482491 -30.608011 7.4093661 11.750022
-93.437233 -30.212215 7.4322219 10.946889
-93.440407 -43.402626 7.7811208 11.010375
-93.517632 -42.935703 7.7859082 11.021749
-93.28688 -31.394758 7.7948093 12.714286
-93.380966 -31.000298 7.7541451 11.879406
-93.44986 -30.602665 7.8028326 11.581188
-93.473549 -30.355597 7.7836404 12.787125
-93.417259 -35.767185 8.2603636 11.0575
-93.276978 -31.445145 8.2106075 13.785714
-93.372452 -30.838886 8.1475639 9.0100002
-93.412369 -30.071957 8.3170471 9.1440001
-93.261223 -43.71423 8.6030827 12
-93.400368 -43.353466 8.5662909 12
-93.464508 -43.023106 8.5696135 11.6795
-93.32357 -31.804413 8.7404718 13.8048
-93.312698 -31.411354 8.6050243 13.868234
-93.485023 -31.069063 8.6443834 11.795876
-93.360077 -30.286839 8.4176502 9.1394997
-93.410995 -43.498024 8.9134178 12
-93.512405 -43.073261 8.990819 12.023
-93.285301 -35.748531 8.9277468 13.046875
-93.361763 -35.414845 8.998827 13.04725
-93.520905 -35.00914 8.9926739 13.043499
-93.224686 -32.038097 8.9263449 14
-93.341866 -31.758026 8.8906469 14.011499
-93.315132 -31.38542 8.9937267 13.143929
-93.421234 -31.013298 9.0323467 12.134767
-93.525055 -30.647354 9.0459538 12.4
-93.598526 -30.253561 8.8192358 11
-93.27253 -43.50032 9.4746828 13.033
-93.421066 -43.066811 9.4506826 13.032999
-93.514015 -42.718121 9.4433556 13.031
-93.215584 -35.703365 9.2069511 13.038
-93.421608 -35.293598 9.2576256 13.0525
-93.490509 -34.964851 9.2146978 13.038
-93.27298 -31.347586 9.3905058 11.684211
-93.399452 -30.971695 9.4006414 11.905524
-93.498352 -30.613087 9.4100609 11.942088
-93.535629 -30.086512 9.4068251 12
-93.219643 -43.666172 9.8232841 13
-93.302956 -43.368549 9.750205 13.0045
-93.488586 -42.93787 9.7423086 13.00625
-93.526993 -42.674839 9.7704678 13.02725
-93.243507 -31.375656 9.7754345 12.8
-93.328545 -31.053787 9.7974615 13
-93.455139 -30.651295 9.7585306 12.666667
-93.507706 -30.204638 9.7542315 12
-93.210678 -49.909855 10.399195 12.1085
-93.270683 -31.357025 10.041544 14
-93.366386 -31.043186 10.111698 13
-93.489799 -30.798542 10.029336 14
-93.320305 -35.732121 10.635705 13
-93.469315 -35.264706 10.609545 13
-93.499603 -35.100483 10.785408 12.5815
-93.33902 -50.114773 11.186105 13.081
-93.265533 -35.688572 10.872012 13.01125
-93.351181 -35.46666 11.05826 13.005125
-93.468346 -34.961735 11.013999 13.6795
-93.473923 -34.733799 11.144884 12.5035
-93.238556 -30.088923 11.785666 11.087166
-93.487717 -50.063763 12.360291 11
-93.216492 -49.76437 12.972772 14.0255
-93.47451 -51.090824 14.420481 14.0175
-93.218544 -51.74522 15.375483 11
-93.311577 -51.384926 15.426874 11
-93.423561 -51.044147 15.445793 11.334944
-93.306656 -51.413834 15.742841 11.1535
-93.456902 -51.067604 15.691267 11
-93.488792 -50.254681 15.686216 12.0125
-93.323486 -49.697956 16.103189 14.3385
-93.366058 -49.859821 16.547552 15.107
-93.597389 -50.975697 17.597633 11.019
-93.284172 -50.660561 17.263971 14
-93.209816 -51.332165 17.87627 12
-93.345284 -50.989578 17.888575 12.018938
-93.203949 -51.370739 18.235847 12
-93.34005 -50.955112 18.171473 12
-93.430412 -50.791229 18.326605 12
-93.421272 -50.237934 18.110849 14.51475
-93.252449 -49.677578 18.693052 15
-93.274483 -49.684414 19.007294 15
-93.437584 -50.068783 19.389526 15.03125
-93.269058 -50.972553 20.301888 13
-93.290276 -50.336411 20.00005 15
-93.243393 -50.923515 20.572021 13
-93.320503 -50.725666 20.483021 13
-93.341232 -50.39595 20.625944 14
-93.255585 -50.867416 20.948498 13
-93.452209 -50.699913 21.080462 13
-93.355774 -51.613186 21.980768 13.073
-93.43679 -51.558296 21.851669 13.0365
