# .PCD v0.7 - Point Cloud Data file format
VERSION 0.7
FIELDS x y z intensity
SIZE 4 4 4 4
TYPE F F F F
COUNT 1 1 1 1
WIDTH 1259
HEIGHT 1
VIEWPOINT 0 0 0 1 0 0 0
POINTS 1259
DATA ascii
-130.61334 -69.700729 4.5921741 7
-130.5609 -84.147942 5.0890455 7
-130.66103 -83.874161 4.9900184 7.10885
-130.66664 -77.030106 5.0507054 7.5384998
-130.58794 -76.534966 4.9171739 7
-130.44432 -76.061279 4.9630857 7
-130.77876 -75.981293 5.0054727 7
-130.51581 -84.156776 5.3429108 8.0758572
-130.71788 -83.859825 5.4329233 8.0727816
-130.44524 -78.225174 5.3257523 8
-130.60643 -76.53746 5.4324784 8.1073503
-130.53131 -76.22834 5.4813728 8.1623335
-130.73355 -75.861794 5.2173772 8.1230001
-130.5916 -84.126785 5.6903486 8.0264997
-130.59555 -83.865921 5.6340694 8
-130.4926 -78.222046 5.8231606 9.0474997
-130.40633 -77.630646 5.9685431 8.1780005
-130.48744 -76.98111 5.7600212 8.6269999
-130.54193 -76.617676 5.8269925 8.9006662
-130.68123 -76.306755 5.8664813 8.8282146
-130.47845 -84.431778 6.2949109 9
-130.46873 -84.1353 6.1902275 9
-130.53366 -83.886185 6.1592526 9.0550003
-130.4637 -78.838181 6.310638 9.1595001
-130.51041 -78.50705 6.1941109 9.0007992
-130.49779 -78.274658 6.2565708 9.8118324
-130.43872 -77.449883 6.1135154 9.0799999
-130.564 -76.622925 6.129384 9.3143749
-130.68108 -76.242836 6.2542858 9.7115002
-130.58989 -75.8283 6.2675915 8.6455412
-130.5457 -75.490143 6.2372031 8.59725
-130.70927 -80.17997 6.4978647 9.6154995
-130.46272 -78.582664 6.7165375 11.13175
-130.47919 -78.237312 6.6974511 10.494422
-130.50175 -77.360489 6.6448927 10.639875
-130.64661 -76.59481 6.6107502 10.087167
-130.62532 -76.197998 6.4907613 10.0905
-130.49397 -75.99971 6.404078 10.0965
-130.76999 -80.072334 7.1931057 11.103
-130.70398 -79.835724 6.9981151 9.716301
-130.45538 -78.626251 6.972743 10.463572
-130.53615 -78.263069 7.1051822 10.960334
-130.58342 -77.706451 6.9751458 11
-130.65518 -77.474808 6.985486 10.0699
-130.56917 -76.534714 7.1049395 9.0861664
-130.65633 -76.252739 6.977994 9.0860004
-130.7054 -79.06601 7.4433179 11.0885
-130.59779 -78.532356 7.3627496 11.144732
-130.47308 -78.240013 7.3057976 11.321929
-130.47556 -77.695541 7.5605202 12.7575
-130.54195 -77.475342 7.4828348 11.573024
-130.54985 -76.579124 7.5560508 11.374874
-130.65332 -76.204086 7.4991565 11.325
-130.63652 -78.585991 7.7386293 12.576165
-130.47665 -78.226868 7.7554002 12.892821
-130.55042 -77.770721 7.792428 11.166667
-130.55785 -77.465714 7.7703476 12.466488
-130.54395 -76.941444 7.8199244 12.512375
-130.58154 -76.543961 7.7845817 11.703382
-130.55771 -76.219208 7.6925035 12.01375
-130.72244 -75.960526 7.7689905 12.636
-130.46809 -78.840652 8.3645964 13.637
-130.49529 -78.542892 8.1279154 13.609544
-130.61249 -78.179932 8.2097931 13.080275
-130.61327 -77.808289 8.13521 12.563735
-130.57422 -77.394028 8.0988684 12.938416
-130.68832 -77.144112 8.0125923 13.1105
-130.60934 -76.415581 8.0099783 13.1525
-130.73792 -79.286659 8.7836723 12.082
-130.50591 -78.469727 8.5343332 14.323375
-130.61789 -78.19149 8.5689631 13.655411
-130.52274 -77.79213 8.5517969 13.096883
-130.61041 -77.547485 8.6106987 12.342875
-130.69691 -79.530823 9.0277128 12.0805
-130.57323 -78.550705 9.1497107 12.662001
-130.63165 -78.192528 9.0336199 12.771832
-130.69731 -77.765778 9.1181402 13.843249
-130.62285 -77.515236 9.0840473 11.6999
-130.77065 -79.82193 9.3073864 15
-130.50407 -78.737701 9.275733 14.156
-130.63075 -78.186844 9.4301548 12.599999
-130.65414 -77.722916 9.4757509 11.026668
-130.63635 -77.409554 9.3051701 12.091187
-130.74603 -79.266129 9.7111578 14.092
-130.65514 -78.922119 9.8339872 15.0975
-130.6317 -78.629768 9.8539743 13.429582
-130.62109 -78.222847 9.7713928 13.568637
-130.59488 -77.798271 9.7638187 13.080299
-130.68013 -79.006531 10.000959 14.0865
-130.61505 -78.577988 10.180353 13.585312
-130.69292 -78.292473 10.143396 13.116834
-130.61418 -77.91571 10.075262 13.083
-130.69211 -78.861732 10.541092 15.0885
-130.09749 -61.450848 2.7882614 3
-130.34137 -60.169724 2.7711365 3
-130.39978 -84.38221 3.0885994 7
-130.12601 -70.521133 3.1977019 3
-130.20381 -70.12793 3.1682215 3
-130.21365 -69.856285 3.1561975 2.3333333
-130.14105 -68.986839 3.1170249 2
-130.16727 -68.693497 3.1166179 3
-130.08325 -68.075478 3.1017773 1
-130.18034 -67.761482 3.087148 1.1666666
-130.24095 -67.430527 3.0819366 1.8888888
-130.27155 -66.999184 3.0295057 1.3333334
-130.27527 -66.598114 3.0169508 1.6
-130.11852 -66.159637 2.9915397 0.85714287
-130.20081 -65.835884 2.9815044 0.83333331
-130.17314 -65.414436 2.9651625 0.66666669
-130.23993 -64.991089 2.9489939 0.60000002
-130.10866 -64.622925 2.9236941 1
-130.37381 -64.232895 2.9422352 1
-130.27 -63.960316 2.9136851 2.5
-130.04399 -63.595943 2.8696244 3
-130.08325 -84.169167 3.5741074 5
-130.22296 -83.912003 3.5281992 4.5999999
-130.26567 -83.415855 3.5525079 4
-130.34442 -83.147614 3.5525949 4
-130.17346 -82.621559 3.5624273 4
-130.19638 -81.784309 3.5449438 4
-130.12154 -80.664627 3.5780663 4
-130.05423 -73.080154 3.4139669 3
-130.36667 -71.635612 3.3914812 4
-130.25061 -71.102661 3.418571 4
-130.38365 -70.446556 3.2825549 3
-130.24333 -70.222572 3.2243941 3
-130.31311 -69.789902 3.2711232 2.8
-130.10739 -62.612926 3.4185452 7
-130.34612 -60.692955 3.4005597 0
-130.06371 -84.527969 3.9101636 5
-130.18109 -84.203194 3.8573472 5.5384617
-130.37259 -83.919029 3.8711507 5.6666665
-130.10034 -83.583221 3.7114208 5
-130.20769 -81.814621 3.6209483 5
-130.2079 -79.019707 3.7924125 5.5
-130.26729 -78.787773 3.6504457 5
-130.31372 -75.88134 3.969795 6
-130.32253 -75.376701 3.6700103 4
-130.37437 -72.414673 3.7640414 6
-130.34808 -69.669647 3.9896417 5
-130.26164 -62.017143 3.9958425 5
-130.06877 -61.474491 3.9983265 6
-130.30162 -60.941216 3.897845 6
-130.0759 -84.504868 4.0632286 5.6459093
-130.22505 -84.219635 4.1020384 5.3099999
-130.36763 -83.977257 4.0639014 5
-130.25557 -77.772247 4.3760519 6
-130.04079 -77.414589 4.2938251 8.0675001
-130.08702 -76.91243 4.0524769 5
-130.22308 -76.448906 4.0268254 5
-130.33893 -76.092873 4.3920579 6
-130.2412 -75.204582 4.3884468 6
-130.19051 -74.996391 4.3810587 6
-130.24728 -62.455006 4.0395803 5
-130.17628 -62.261585 4.0851502 5.3333335
-130.0746 -61.683151 4.0112925 4
-130.25955 -61.469593 4.0180383 4
-130.06935 -84.509842 4.5482974 6
-130.19119 -84.271965 4.5689611 6
-130.32603 -83.986885 4.575016 6
-130.02205 -78.55452 4.4992633 6
-130.09892 -78.358162 4.4931793 6
-130.23927 -77.855415 4.4005032 6
-130.20671 -76.564133 4.4586964 6
-130.20969 -76.191811 4.6086035 6.6666665
-130.22783 -75.796661 4.7381873 7
-130.2785 -75.389328 4.4487119 6
-130.19868 -75.083511 4.4212532 6
-130.07382 -84.498871 5.085566 7
-130.19998 -84.278816 5.078227 7.0518332
-130.14529 -79.51664 5.0583768 8.0828333
-130.03923 -79.074234 5.106822 8.0795002
-130.12987 -77.335823 4.8865047 7
-130.14557 -76.975426 4.9007354 7
-130.28864 -76.622482 4.9474268 7
-130.34372 -76.136917 4.9536405 7
-130.18037 -75.974152 4.9082465 7
-130.0094 -74.97113 5.0490346 7.5615001
-130.0703 -84.506119 5.5426674 8.0229998
-130.26025 -84.147346 5.433434 8.0861254
-130.01076 -79.608116 5.2292914 8.0915003
-130.05621 -79.434067 5.3321157 8.1145
-130.39082 -76.922821 5.5822024 8.1674995
-130.24403 -76.472946 5.2578325 8.1379995
-130.25575 -76.243858 5.3651671 8.1480713
-130.21214 -75.851883 5.5293808 8.3633127
-130.06425 -75.361656 5.2758555 8.1495008
-130.04253 -75.009323 5.4202962 8.1626663
-130.09053 -84.463844 5.6863136 8
-130.22577 -84.266556 5.6679888 8.0180283
-130.29945 -78.563278 5.8566165 8.8730001
-130.1443 -78.182747 5.7882895 9.1386662
-130.15833 -77.771179 5.8492441 9.0928745
-130.09505 -77.491333 5.7853775 8.8983994
-130.38715 -76.916939 5.7026052 9.1280003
-130.37277 -76.682137 5.7425032 9.1025
-130.09532 -76.219131 5.633688 8.1689997
-130.01285 -75.809074 5.6065407 9.1254997
-130.10258 -75.417854 5.8598599 8.4460001
-130.16264 -75.106583 5.9127297 9.1575003
-130.09711 -84.517609 6.229322 9.028388
-130.22369 -84.245583 6.1710091 9.0227776
-130.35336 -78.805321 6.2676806 10
-130.33141 -78.514107 6.1498942 9.3076925
-130.3398 -77.369011 6.1528902 9.6750565
-130.32892 -76.631081 6.0598526 9.0764999
-130.25914 -75.765251 6.1950407 8.5502501
-130.16747 -75.548569 6.1849966 8.8362503
-130.01964 -75.096207 6.0197215 10.1445
-130.34915 -78.835587 6.5890894 10.333333
-130.31552 -78.579185 6.6150007 10.287687
-130.22461 -78.327354 6.6936107 8.7026663
-130.3625 -77.604507 6.602385 10.0865
-130.32005 -77.420029 6.551414 9.3168755
-130.16093 -74.727417 6.601717 8.0055008
-130.38843 -78.823837 7.1870747 12
-130.31966 -78.510025 7.0266199 10.258595
-130.34479 -78.340393 6.9851179 10.078166
-130.33836 -76.478203 7.1971436 9.0874996
-130.04602 -76.013329 6.9018373 9.0775003
-130.32393 -78.549324 7.4380722 11.643312
-130.38533 -77.847916 7.5226912 12
-130.35709 -77.502922 7.5131798 11.414333
-130.06863 -76.372597 7.4458618 10.169
-130.30801 -78.540131 7.6909566 11.875
-130.19786 -78.384445 7.9074068 12.56975
-130.27252 -77.697113 7.7701139 11.363999
-130.27283 -77.225403 7.9870377 12.0885
-130.18674 -76.989052 7.7981791 12.240072
-130.16844 -76.566795 7.7655187 12.30565
-130.22321 -76.290756 7.8270783 11.658735
-130.21147 -79.26487 8.2563734 11.0795
-130.23779 -78.649658 8.2367716 12.2536
-130.13988 -78.303139 8.2009706 11.619072
-130.25328 -77.744431 8.251297 11.658368
-130.31468 -77.541405 8.2133408 11.8045
-130.34441 -76.814598 8.0576105 13.106
-130.08766 -76.504883 8.0533018 12.085
-130.10699 -76.283585 8.0741053 13.376125
-130.39896 -79.326332 8.7005873 11.0835
-130.12376 -79.086967 8.6333866 13.298819
-130.11844 -78.582878 8.5481577 14.139375
-130.1516 -78.184196 8.5442553 13.067277
-130.17128 -77.88002 8.6082487 13.513911
-130.27667 -77.559998 8.4752922 9.0190001
-130.23854 -79.225937 8.875947 11.6255
-130.13226 -79.041168 8.9832211 12.507143
-130.10818 -78.611366 9.0047846 13.821427
-130.27402 -78.04953 8.9303627 12.057167
-130.21718 -77.780891 9.038187 12.652167
-130.3922 -78.875198 9.4703712 12.08
-130.20558 -78.68367 9.3972483 13.265656
-130.28595 -78.047981 9.3051157 14.5
-130.19089 -77.804443 9.3920279 13.692577
-130.22044 -77.520218 9.4098978 12.5295
-130.27296 -78.181595 9.8688993 12.2635
-130.24265 -77.972748 9.9499407 11
-130.24713 -78.115067 10.113653 13.0365
-129.74104 -60.583839 2.7234056 2.1666667
-129.731 -60.388809 2.6942177 4
-129.9201 -69.987503 3.1310494 2.5
-129.65279 -69.49054 3.0906389 2
-129.67892 -68.947426 3.1368673 1.5
-129.75287 -68.575912 3.1024106 1.375
-129.89014 -68.201508 3.0824897 1.25
-129.77338 -67.700577 3.0643215 2.2
-129.78595 -66.960052 3.0158629 1.4
-129.86034 -66.600121 2.9939477 0
-129.76195 -66.284813 2.9768469 0.33333334
-129.83336 -65.749985 2.9657419 0.83333331
-129.79297 -65.372002 2.9350536 1.3333334
-129.8972 -65.012161 2.9284534 0.5
-129.71877 -64.240349 2.8682394 4
-129.80832 -63.309578 2.8557699 3
-129.82755 -62.206749 2.9888575 4.6666665
-129.68073 -84.557297 3.5855303 4
-129.95258 -84.323898 3.573148 4.3333335
-129.74945 -83.725754 3.5730217 4.6666665
-129.65605 -81.818756 3.5597997 4
-129.7464 -81.597015 3.5475416 4
-129.75844 -80.903 3.5697134 4
-129.9034 -80.705208 3.5537608 4
-129.9532 -70.645805 3.2022746 4
-129.73334 -62.471001 3.4223907 7
-129.78864 -60.392048 3.2603033 6
-129.71191 -84.929771 3.9367518 5
-129.78757 -84.678978 3.8418398 5.3636365
-129.91991 -80.678787 3.6240873 4
-129.60622 -80.253868 3.615941 4
-129.60196 -72.484612 3.7816129 6
-129.86928 -61.869244 3.9159498 5.5
-129.83974 -61.45303 3.8901398 6
-129.92778 -60.957016 3.8061478 6
-129.71626 -84.878304 4.1160617 5.5
-129.84238 -84.628662 4.1059108 5.6723886
-129.62247 -76.4039 4.2939358 8.0740004
-129.70303 -84.900475 4.5748215 6
-129.88158 -84.598289 4.557775 6
-129.99518 -84.330513 4.5302625 6
-129.89609 -78.592239 4.4888878 6
-129.93948 -77.525192 4.7102232 7
-129.88367 -76.683571 4.465589 6
-129.68285 -75.792366 4.6845703 8.0838327
-129.6105 -75.460747 4.5821209 8.0869999
-129.61923 -72.243835 4.4697938 7
-129.68526 -71.74543 4.5858889 7
-129.76131 -84.861534 5.0875359 7
-129.84462 -84.667976 5.109776 7
-129.99501 -84.336227 5.1430812 7
-129.85167 -79.336304 5.0487843 8.0860004
-129.87662 -78.866112 5.199687 8.0795002
-129.92833 -78.081314 4.9973459 8.0869999
-129.74541 -77.870903 5.0178304 8.0865002
-129.66493 -77.10601 5.1887441 8.1059999
-129.76677 -76.707565 4.9359479 7
-129.75684 -76.017593 4.8983164 7
-129.71605 -75.752556 5.0598941 8.0998926
-129.72688 -75.486488 5.1172223 8.0541248
-129.89238 -74.997009 5.144043 8.1236248
-129.70528 -84.949547 5.5487475 8
-129.79207 -84.602516 5.5126805 8.0675001
-129.79942 -79.699333 5.2636981 8.0927505
-129.87726 -79.372452 5.2510743 8.0928125
-129.76479 -79.097878 5.2703614 8.104187
-129.71899 -77.400337 5.3430905 8.1367493
-129.68797 -76.986526 5.2568388 8.1361876
-129.91182 -76.737503 5.2484879 8.1304998
-129.90718 -76.116524 5.3879027 8.1595001
-129.7934 -75.716698 5.359899 8.43925
-129.73987 -75.375427 5.4443874 8.5370092
-129.85129 -75.106773 5.4998803 8.7686882
-129.64503 -84.896912 5.692348 8
-129.85135 -84.56868 5.6739931 8.0066824
-129.93021 -84.322601 5.6566153 8.0878
-129.87077 -78.128975 5.8032618 8.7931671
-129.83517 -77.687561 5.7480636 9.099
-129.89241 -77.304535 5.6981397 8.1704998
-129.71741 -76.263908 5.6235971 9.1305361
-129.76808 -75.767044 5.6621146 9.1026258
-129.79195 -75.343399 5.8511014 9.3253126
-129.85481 -75.127602 5.8189406 9.3996248
-129.62675 -84.886459 6.1278472 9
-129.85272 -84.602127 6.1505017 9
-129.8103 -75.680786 6.3751054 9.5720005
-129.69441 -75.499908 6.1834593 9.6569281
-129.71747 -74.912476 6.2970729 8.0010004
-129.68401 -78.40274 6.7402501 9.0609999
-129.60925 -76.505028 6.7773495 12.136
-129.64673 -75.652184 6.4493418 10.389833
-129.88675 -74.699005 6.4484143 8.0030003
-129.95456 -78.035713 7.0914054 9.0845003
-129.84462 -76.144989 6.9344568 9.0810003
-129.63771 -75.094894 6.9725304 9.5854998
-129.80779 -78.637917 7.4660811 9.5432501
-129.94522 -76.418938 7.5354648 10.1705
-129.79375 -78.848549 7.8278632 12.899499
-129.8241 -78.634071 7.8263483 12.200631
-129.85399 -76.937622 7.7489886 12.9138
-129.85391 -76.655182 7.7608919 12.15268
-129.99535 -76.29438 7.9113212 13.1535
-129.7468 -78.87603 8.1900787 12.557501
-129.80058 -78.537788 8.2336769 12.643811
-129.78282 -78.26519 8.2630672 12.178625
-129.93697 -76.938728 8.0306301 12.0855
-129.7314 -78.955376 8.5716467 14.023109
-129.77554 -78.60643 8.5879259 13.363365
-129.86403 -78.257957 8.6063366 12.499975
-129.9455 -77.861229 8.6676636 12.948001
-129.83539 -78.962234 8.8886127 14.09925
-129.80594 -78.582863 8.9817057 12.554883
-129.70616 -78.267311 8.9573822 12.418416
-129.93118 -77.863396 8.9529295 15.151
-129.82013 -78.921562 9.2764616 14.466832
-129.81349 -78.655586 9.3063698 13.622091
-129.34033 -61.768223 2.7654643 2.5
-129.46806 -61.248722 2.740768 2
-129.4034 -60.635658 2.7008517 1.6666666
-129.37683 -60.095589 2.7073925 3
-129.48373 -69.361488 3.0940762 1
-129.29326 -68.834358 3.0841601 2
-129.51578 -68.573303 3.0817611 1.5
-129.41135 -68.360832 3.0844641 1
-129.34744 -67.803925 3.0443192 1.1666666
-129.4301 -67.333244 3.0298567 0.60000002
-129.45833 -67.052444 3.0106747 1.1666666
-129.43106 -66.596397 2.9722083 0.83333331
-129.44827 -66.21241 2.9616556 1
-129.38725 -65.865486 2.9307942 1.5
-129.40295 -64.962959 2.9001827 3
-129.31355 -64.701294 2.8759439 3
-129.57416 -64.061928 2.8551431 4
-129.42247 -63.206604 2.8783045 3
-129.24429 -63.136852 2.8421879 5
-129.36891 -62.120125 3.0391443 3.8
-129.44608 -61.997177 2.9944005 2
-129.4622 -61.018841 3.0864985 6
-129.55801 -60.47414 3.0516155 6
-129.30873 -84.692589 3.5510724 4.5
-129.45871 -84.289108 3.5460637 4
-129.58731 -83.693481 3.5624168 4
-129.57669 -82.923256 3.4917994 4
-129.42677 -82.739243 3.5930395 4
-129.2321 -79.853699 3.5931919 4
-129.26886 -75.992935 3.570205 4
-129.33017 -74.317047 3.4749064 4
-129.26262 -73.816612 3.3987036 3
-129.40097 -72.952225 3.3733706 4
-129.39597 -72.537437 3.4353199 6
-129.46704 -71.738579 3.2202592 2
-129.2925 -62.195217 3.3987041 7
-129.29776 -61.172482 3.547291 6
-129.22444 -60.72583 3.2067025 6
-129.40836 -85.373993 3.8885646 5
-129.46138 -84.976135 3.8446405 5.5368333
-129.43874 -84.557632 3.6562803 4.5
-129.45491 -84.117905 3.6059768 4
-129.50194 -83.319687 3.606986 4
-129.2146 -82.051781 3.6396828 4
-129.2861 -81.800095 3.6504269 4
-129.44974 -80.652763 3.6448982 5.3333335
-129.25232 -80.179832 3.6859806 5
-129.37479 -79.766762 3.6478012 4.3333335
-129.45767 -79.50499 3.6276941 5
-129.29408 -76.156502 3.7293389 6.027
-129.34534 -75.869301 3.9516814 6
-129.44147 -75.360458 3.7577858 4.5
-129.57359 -75.187828 3.7320828 4
-129.30302 -72.145561 3.835845 4
-129.24857 -62.664455 3.6751494 4
-129.29668 -61.90868 3.6908383 4.25
-129.26741 -61.552261 3.6609147 6
-129.2858 -61.111164 3.6245162 6
-129.26363 -85.264519 4.2356062 5.6666665
-129.40536 -84.980637 4.1518359 5.48
-129.49921 -84.575012 4.103755 5
-129.36539 -77.767456 4.072371 5
-129.41357 -75.748253 4.1939712 6
-129.44215 -75.501472 4.3070364 6.4166999
-129.43776 -75.010567 4.2915149 7.3886666
-129.22572 -62.687878 4.0753746 5.583333
-129.22322 -85.443283 4.5093174 6
-129.36118 -85.000587 4.5580058 6.0294118
-129.48529 -84.627808 4.6073809 6
-129.54433 -77.412636 4.5962114 7.0425
-129.36848 -77.019943 4.4601469 6
-129.3362 -76.474281 4.4597201 6
-129.47995 -76.026093 4.6727419 7
-129.39702 -75.740517 4.6402879 7.1351876
-129.49277 -75.503708 4.6804819 7.3708887
-129.52089 -71.914886 4.4786959 6.5
-129.25488 -85.258743 5.038763 7
-129.39243 -84.990265 5.1108384 7.0883379
-129.52049 -84.738022 5.0975156 7
-129.32411 -79.227684 5.1743946 8.0790005
-129.41692 -78.970001 5.0239058 8.08325
-129.36687 -77.263641 4.9362273 7.17975
-129.47006 -77.094131 4.9496312 7.3591666
-129.36226 -76.699387 4.8524175 7
-129.29025 -76.150948 5.0828795 7.7549996
-129.43575 -75.745369 4.9982181 7.8175874
-129.50476 -75.543716 4.9730787 7.5272141
-129.26204 -85.245415 5.5014191 8.0301666
-129.42116 -85.027336 5.4605145 8.0559998
-129.58086 -79.428925 5.3023567 8.1157494
-129.38791 -79.151291 5.3572998 8.1389999
-129.48991 -78.21566 5.489069 8.1575003
-129.30698 -77.765396 5.2526894 8.1284008
-129.39839 -77.348877 5.3448234 8.1188755
-129.52072 -77.116829 5.2997079 8
-129.48839 -76.563538 5.5257339 8.1679993
-129.31731 -76.065727 5.2259641 8.1444998
-129.40793 -75.741295 5.3800616 8.3936367
-129.45731 -75.500023 5.3764501 8.2159262
-129.26036 -75.130806 5.5191383 8.1695004
-129.34625 -84.970894 5.6817212 8
-129.49463 -84.671753 5.6561308 8
-129.2384 -77.207458 5.6128225 9.1265001
-129.39613 -76.987129 5.7266469 9.1138048
-129.46791 -76.564926 5.8935046 9.5112991
-129.32231 -76.199944 5.9146118 9.0933752
-129.50758 -75.783592 5.7708936 9.1618185
-129.4476 -75.496849 5.8417706 9.1239052
-129.51509 -75.096458 5.7794056 9.6222496
-129.34799 -85.040802 6.145936 9.0308123
-129.31215 -84.725945 6.1241126 9.020833
-129.28932 -76.888954 6.0814509 10.146
-129.34146 -76.685425 6.0506787 10.119334
-129.3235 -76.042496 6.0155058 9.1604996
-129.46167 -75.715912 6.2216311 9.0872221
-129.32677 -75.434006 6.1422448 9.8246431
-129.33347 -74.876877 6.3192315 8.3979998
-129.45331 -74.731339 6.1608682 8.0282497
-129.47133 -76.588577 6.7930889 11.108999
-129.40379 -76.162643 6.6845937 10.67725
-129.37372 -75.844582 6.5504317 9.8845501
-129.25024 -75.35051 6.7238808 11.155667
-129.24268 -75.04068 6.5858212 10.493334
-129.39668 -76.502266 6.9941463 11.0915
-129.39853 -76.341011 6.8483453 10.758166
-129.39946 -75.670982 7.0599265 13.129749
-129.32321 -75.377365 7.0388737 12.208603
-129.43776 -75.132698 6.9284697 10.145
-129.33656 -75.77961 7.4290638 14.1315
-129.33574 -75.446648 7.2536998 11.367938
-129.4261 -79.056412 8.2414036 10.1765
-129.54518 -78.586334 8.2899599 14.0465
-129.58078 -78.371628 8.1557579 13.1
-129.49426 -79.003975 8.5139236 12.759167
-129.45058 -78.558876 8.6590719 11.201437
-129.40947 -78.230301 8.6834927 11.082251
-129.38562 -78.905777 8.9837151 14.5215
-129.44612 -78.529343 8.9056177 13.673527
-129.46643 -78.19474 9.0036716 13.280499
-129.58826 -78.901588 9.302886 15.103251
-129.4639 -78.648041 9.3121834 13.667399
-129.41533 -84.907242 9.8836308 8.1295004
-128.95343 -63.294022 2.7857196 4.6666665
-128.92677 -62.207256 2.7870924 2.5
-128.96687 -61.759216 2.7281411 1.6666666
-128.96779 -61.367779 2.7056718 2.25
-128.86702 -61.158566 2.7195697 2
-129.02272 -60.607349 2.6806035 2
-129.1252 -60.018105 2.6545644 3
-128.94919 -72.861244 3.1924374 7
-128.86703 -72.587288 3.0507977 6
-129.16039 -72.377205 3.193186 5
-129.07118 -69.971245 3.1484609 3
-129.11909 -69.338043 3.1229358 1.5
-128.96814 -69.050819 3.0549374 1.5
-128.82681 -68.48819 3.0423644 0
-128.99133 -68.192703 3.0312302 0.33333334
-129.00256 -67.883415 3.0304592 0.75
-129.061 -67.416786 3.0001612 0.25
-129.03157 -67.038528 2.97733 1
-128.96432 -66.789574 2.953742 1
-129.01537 -66.377663 2.9451594 1.5
-129.04131 -64.468536 2.8724015 3
-128.92072 -64.210777 2.8568399 2.5
-129.16295 -63.689953 2.8519409 2
-128.98494 -63.369484 2.8578985 3
-129.04132 -62.991901 3.0089331 3.5999999
-128.90846 -62.582874 2.963376 3.375
-128.90437 -62.339588 2.8896873 1
-129.17851 -61.951984 3.0227315 4.5
-129.07228 -61.26902 3.1859169 6
-129.03596 -85.079163 3.5560682 4
-129.17062 -84.747719 3.5411532 4
-129.02557 -83.872276 3.5328796 4
-129.09108 -80.147873 3.5941958 5
-128.82071 -77.33345 3.5359921 4
-128.82817 -76.450851 3.4143245 6
-128.95264 -75.770058 3.4597507 5.5
-129.04036 -75.457771 3.4408176 7
-128.9174 -75.014893 3.4846826 3.3333333
-129.09692 -74.504509 3.3641145 6
-129.06219 -74.281975 3.4171348 4
-128.86952 -73.764114 3.3880808 3
-128.9229 -73.342056 3.3710413 4.3333335
-128.87051 -72.915352 3.3033626 5.25
-129.02774 -72.660812 3.3362923 4
-129.12794 -72.185074 3.3473945 2.3333333
-128.98843 -69.339737 3.3118036 3.25
-128.98441 -68.960976 3.22194 4
-129.0408 -62.971706 3.4812891 4
-129.1907 -62.70932 3.3702643 5
-129.16934 -62.015469 3.4395387 4
-129.05876 -61.821217 3.2365179 6
-129.1407 -61.394047 3.2981021 6.5
-129.18997 -60.875565 3.3223431 3
-129.02052 -85.334839 3.804991 5.090909
-129.07155 -85.027298 3.6676717 4.9000001
-129.18704 -83.697067 3.6293557 4
-128.9429 -82.809616 3.6340127 4
-128.99919 -81.341805 3.6792126 4.75
-128.95901 -81.05159 3.6735609 4.5
-129.08884 -80.647141 3.6512377 4.3333335
-129.09842 -80.154129 3.6118536 4
-128.85646 -79.561295 3.9514101 7
-129.06392 -78.446091 3.669601 4
-129.06256 -78.298767 3.7256529 4
-128.83325 -77.771225 3.7488222 5
-128.80884 -77.589676 3.6677938 4
-128.90343 -75.270935 3.7684238 4.3333335
-128.99358 -75.041595 3.8148766 4.75
-128.96443 -74.717125 3.7864029 5
-128.85808 -69.300385 3.6937826 4
-129.05623 -62.950829 3.8576739 4.2916665
-129.16881 -62.721485 3.7408705 6
-128.95215 -85.398605 4.1613355 5.6847043
-129.08932 -85.144341 4.124445 5
-128.81566 -79.594009 4.0988269 7
-129.05437 -78.509743 4.1186724 5
-129.18895 -77.479744 4.2581096 7
-128.86792 -75.333237 4.1747589 5.3809524
-128.91582 -75.104897 4.248302 5.8000002
-129.13123 -71.935738 4.2898593 7
-129.03966 -62.949913 4.2516336 5.9375
-129.1498 -62.700939 4.1880622 7
-129.04048 -85.614861 4.5774722 6
-128.98729 -85.43013 4.5516534 6
-129.117 -85.119675 4.5924993 6
-128.98656 -79.31591 4.4699965 6
-128.86923 -77.40567 4.7780786 7
-128.97858 -75.685661 4.5850711 7
-128.90659 -75.370567 4.705677 7.2046361
-128.93774 -75.054718 4.6427732 6.8722
-129.0154 -62.941677 4.621366 8.0363331
-129.12383 -62.717976 4.6774812 8.0424995
-128.97945 -85.370674 5.1094637 7
-129.13103 -85.122131 5.1267571 7
-129.00539 -79.274544 5.0613875 8.0885
-128.95496 -78.9813 5.0045152 8.0876665
-129.00587 -77.798561 4.9521742 8.085
-129.09706 -76.266205 5.1888428 8.1345005
-129.06558 -75.735023 4.8605905 8.0854998
-128.87453 -75.358452 4.9597158 7.5184588
-128.86142 -75.130028 5.0890718 8.0296249
-129.03105 -62.906384 5.0244017 9.6605835
-129.12648 -62.710068 5.0341043 8.9438334
-128.97446 -85.381241 5.579627 8.0398331
-129.10913 -85.066032 5.4721808 8.1055002
-128.93852 -78.173515 5.2771268 8.1196556
-129.05241 -77.882271 5.2477679 8.1293001
-129.07704 -77.338982 5.472302 8.1617508
-129.03328 -77.189651 5.437109 8.1560001
-128.81706 -76.405472 5.5364347 9.1274996
-129.11946 -76.125092 5.2225776 8.1450005
-129.05132 -75.871529 5.3108039 8.1545
-128.97989 -75.396141 5.3911476 8.3008232
-128.94281 -75.121231 5.4860673 8.2926254
-128.99821 -62.928684 5.4059014 11.424305
-129.07468 -62.734699 5.4267406 9.2394171
-128.92955 -85.37558 5.6964364 8.0126657
-129.14299 -85.084145 5.6625772 8
-128.85506 -80.067329 5.7609682 9.1254997
-128.86404 -79.824951 5.746263 9.1204634
-128.85007 -79.467842 5.7780108 9.1131248
-128.85812 -79.003563 5.7502379 9.1450005
-128.91672 -77.763199 5.6365142 9.1286249
-129.09416 -77.489326 5.6614194 9.1205006
-128.90462 -77.177498 5.6023941 9.1385002
-129.14253 -76.532967 5.9427285 9.0775003
-128.90416 -76.042839 5.9969621 9.0825005
-128.96036 -75.325722 5.7980947 9.0980444
-129.01773 -75.127228 5.733357 9.1543341
-128.98383 -62.939945 5.8443403 11.2365
-129.06015 -62.721905 5.8319926 12.07975
-129.048 -85.311172 6.189292 8.9358072
-129.0817 -85.082001 6.1670275 9.0258846
-129.17252 -84.742851 6.0762839 9.1110001
-128.99341 -76.475693 6.2934084 11.1335
-128.88747 -76.279305 6.2281561 10.35425
-128.93677 -75.77636 6.2396617 9.9162054
-128.97079 -75.402428 6.1694946 9.8129025
-128.92531 -75.10672 6.2235503 10.199154
-128.91295 -62.907471 6.2416291 12.33225
-129.01537 -62.733215 6.1883183 11.065499
-129.17386 -76.527206 6.6985049 10.0795
-129.00781 -76.007339 6.4248424 11.148
-128.9621 -75.725044 6.5757461 11.225594
-128.99916 -75.414597 6.6018367 11.333524
-129.10179 -75.110832 6.5829129 10.588834
-128.93408 -62.965553 6.6475458 12.193866
-129.02284 -62.697704 6.6152191 13.005625
-129.10062 -75.631409 6.9547462 13.1345
-129.03889 -75.386093 7.0007639 12.155488
-129.14832 -75.163971 6.9602556 10
-128.96396 -62.953487 6.8400159 12.877501
-128.97427 -75.689537 7.2990336 12.60975
-128.94624 -75.45108 7.3059754 12.492656
-128.81892 -85.233902 9.8452425 8.1359997
-128.59088 -64.252853 2.7611532 5
-128.48485 -63.90604 2.753552 4
-128.58847 -63.493107 2.7831824 4
-128.50075 -62.223434 2.7584395 2.5
-128.6302 -61.848625 2.7252369 1.75
-128.57962 -61.252689 2.6876907 1.5
-128.57843 -60.911304 2.6417863 2.3333333
-128.53528 -60.600681 2.6503036 2.6666667
-128.64305 -60.219784 2.6582146 3
-128.42572 -74.792953 3.1770709 6
-128.50046 -73.688301 3.1724517 6
-128.53244 -73.235703 3.0686097 6
-128.64871 -73.064972 3.1730566 5
-128.42366 -71.426605 3.112107 1
-128.46254 -71.161049 3.1198766 1
-128.75447 -69.208031 3.0553856 2
-128.63657 -69.039635 3.0325162 0
-128.69882 -68.634079 3.0267205 0.25
-128.61223 -68.141388 3.0207632 1.3333334
-128.70308 -67.776642 2.9897144 0.66666669
-128.51181 -67.294785 2.9819357 0
-128.78532 -67.153717 2.9694188 0
-128.49788 -66.402008 2.9318516 3
-128.70107 -66.387199 2.939429 3
-128.582 -65.382057 2.8584094 3
-128.60979 -64.604248 2.8199728 2.6666667
-128.55209 -64.249359 2.8400843 2.3333333
-128.65123 -63.856991 2.8249888 3
-128.58708 -63.260418 2.8620925 2
-128.74666 -62.96587 2.9184604 3.3333333
-128.62657 -62.613449 2.8836482 2.2857144
-128.67781 -62.279781 2.8434987 2
-128.50609 -85.779228 3.4323132 5.5
-128.59486 -85.423714 3.5041232 5.5
-128.45526 -84.406685 3.595464 4
-128.49992 -84.205032 3.5629766 4
-128.70741 -83.082649 3.553169 4
-128.51683 -82.409935 3.5644362 4
-128.57986 -81.142792 3.464252 7
-128.65919 -78.595932 3.5804019 4
-128.49435 -77.718483 3.5215633 5.1999998
-128.54663 -77.522331 3.4595208 5.5
-128.52776 -76.5215 3.392875 3.5999999
-128.53175 -76.200775 3.3857057 4.5
-128.46935 -75.787025 3.4824677 4.4722223
-128.50778 -75.397346 3.4675434 4.8636365
-128.54883 -74.977646 3.4262204 5.818182
-128.52734 -74.638702 3.4120398 4.5999999
-128.535 -74.152222 3.4145746 3.5
-128.5554 -73.749458 3.3658664 4.5
-128.64244 -73.461197 3.2851267 4.625
-128.69998 -73.158363 3.2891741 5
-128.72305 -72.764961 3.2111869 4
-128.79546 -69.281654 3.3710551 3
-128.4903 -85.700691 3.7895544 5
-128.61577 -85.490585 3.7859864 5.1999998
-128.60353 -83.281731 3.6311107 5
-128.50751 -82.677567 3.6095872 4.6666665
-128.73692 -82.25544 3.6451764 4
-128.52292 -81.952164 3.6590548 4
-128.75931 -81.242119 3.6114464 4
-128.41862 -80.597153 3.639601 4
-128.50064 -79.972603 3.6133242 4
-128.55702 -78.243111 3.7028134 4
-128.59064 -77.755745 3.648982 5
-128.54283 -77.354637 3.741822 5.25
-128.55898 -77.058815 3.8909249 5
-128.48213 -76.174767 3.762253 4
-128.54529 -75.73407 3.7899055 5.4166665
-128.60751 -75.422165 3.8485372 5.2225642
-128.74596 -75.183968 3.6588049 4
-128.74367 -74.649139 3.6359208 4
-128.77545 -69.016617 3.940078 6
-128.51158 -85.711487 4.1708937 5.6526747
-128.64378 -85.459435 4.1469765 5.5625
-128.75484 -85.168137 4.1409121 5
-128.65279 -79.758102 4.2540574 6.5
-128.56276 -78.454216 4.0408535 5
-128.6339 -78.305183 4.0921493 5
-128.4388 -77.045418 4.1648417 5.5
-128.50362 -76.18718 4.0948281 5
-128.51221 -75.708969 4.1745744 6.1666665
-128.56726 -75.390938 4.1914296 5.8888888
-128.74268 -74.788727 4.3623424 6
-128.74277 -70.987106 4.1546001 5
-128.61731 -69.421936 4.3395205 6
-128.52786 -85.715393 4.5771542 6
-128.67249 -85.448578 4.5662918 6
-128.62997 -79.328392 4.6217327 6.75
-128.74922 -79.034706 4.4092722 7.0374999
-128.68425 -78.468834 4.5061841 6
-128.66687 -78.341537 4.4886384 6
-128.42953 -77.666702 4.721386 8.0851669
-128.61029 -77.487968 4.486114 7
-128.46404 -77.015396 4.7302055 7
-128.59338 -76.467072 4.4644518 6
-128.55869 -76.256958 4.484025 6.6956668
-128.57036 -75.65126 4.5161357 6.875
-128.7063 -75.398079 4.6502428 6.7058825
-128.71837 -75.100014 4.4812846 6.1999998
-128.56102 -85.791962 5.1218696 7
-128.71992 -85.452484 5.1444874 7
-128.75838 -85.197929 5.1396561 7
-128.72551 -78.90992 4.9084291 7
-128.66226 -78.457191 4.8930812 7
-128.67091 -78.388313 4.8821602 7
-128.54736 -77.806412 4.9313822 8.0830002
-128.49783 -77.369446 4.9739084 7.8658996
-128.41034 -77.144592 5.0671802 8.1014996
-128.56427 -76.492874 4.854733 7
-128.71204 -75.633041 4.970387 8
-128.72519 -75.444397 5.0248747 7.782968
-128.78371 -75.168373 5.0835533 8
-128.46445 -85.920059 5.579814 8
-128.65324 -78.485069 5.309948 8.033083
-128.66779 -78.319107 5.3152986 8.1182995
-128.49075 -77.683556 5.5837312 9.1248751
-128.63388 -77.397072 5.533134 8.8046675
-128.56046 -76.98687 5.5702524 9.1031246
-128.63115 -76.656181 5.4972305 8.7885008
-128.40799 -76.342682 5.5933967 9.1040001
-128.63945 -75.801926 5.5607972 8.7536669
-128.70412 -75.40332 5.4616313 8.7719154
-128.63834 -75.117012 5.4838376 8.4766665
-128.47636 -74.691788 5.4856501 8.1704998
-128.59631 -86.183945 5.9563236 8.1595001
-128.56918 -85.761742 5.6920943 8
-128.74519 -85.465752 5.6868534 8.0532188
-128.75566 -80.0541 5.8167572 9.09725
-128.68935 -79.812073 5.7924919 9.10005
-128.70248 -79.444115 5.7582474 9.1073189
-128.68619 -79.044235 5.7367392 9.1025686
-128.57498 -78.583191 5.7469659 8.9144163
-128.49042 -78.270447 5.6743946 9.1229095
-128.62019 -77.777985 5.6498008 9.11975
-128.5843 -77.397163 5.6519012 9.0783749
-128.53397 -76.937943 5.6763268 9.1036005
-128.49788 -76.628571 5.7311397 9.1050005
-128.627 -76.206703 5.8888726 9.5023994
-128.61484 -75.795692 5.7656293 9.438942
-128.6649 -75.410507 5.8122692 9.2417479
-128.53015 -75.035088 5.7712345 9.5220509
-128.46199 -85.820724 6.1297741 9
-128.65915 -85.46312 6.0920506 9.0856247
-128.53584 -78.522873 6.2307129 10.1
-128.52994 -76.463554 6.2425508 10.790626
-128.63905 -76.188644 6.2574773 10.155236
-128.70683 -75.839745 6.1671543 9.6963749
-128.62456 -75.351471 6.1886396 9.9379997
-128.77046 -76.011955 6.4001284 11.1485
-128.76285 -75.769279 6.6518288 10.5
-128.62967 -75.406433 6.4758825 8.0165005
-128.67055 -62.976795 6.7631946 14.034
-128.79094 -62.797649 6.7868438 15.167
-128.78694 -75.702385 7.1896043 12.0515
-128.63585 -62.909737 6.8061752 10.0075
-128.7238 -75.479065 7.2606173 11
-128.54933 -85.483437 9.8420801 8.1330004
-128.0844 -64.605927 2.7865446 3
-128.2191 -64.189598 2.7817221 2
-128.1279 -63.778152 2.7433734 3
-128.16383 -63.367283 2.7638919 2.5
-128.14517 -62.985371 2.721936 3.8
-128.30489 -62.432377 2.7466431 4.5
-128.2014 -62.291912 2.6864605 2.75
-128.21819 -61.843109 2.6817763 2
-128.27115 -61.210293 2.6774573 2
-128.19049 -60.968994 2.6340456 3.3333333
-128.15601 -60.608875 2.6336555 2
-128.21361 -60.168221 2.6607456 2
-128.0065 -74.976288 3.1263747 6
-128.20197 -74.602745 3.0820343 6.75
-128.12291 -74.143066 3.0943422 6.3333335
-128.26219 -73.873398 3.1248279 6.6666665
-128.31839 -73.445297 3.0162654 6
-128.25421 -71.634926 3.1276722 1
-128.32878 -68.953621 3.0094984 0
-128.35184 -68.600883 3.0060787 0.5
-128.30151 -68.227539 3.0068326 0
-128.39935 -67.735664 3.0120013 0
-128.19351 -66.447159 2.9166641 3
-128.23051 -65.381645 2.8457587 2.3333333
-128.32765 -65.002319 2.821774 3
-128.23544 -64.410599 2.8167071 2
-128.11308 -64.128647 2.8140144 3
-128.13327 -62.868187 2.8324137 1.3333334
-128.24239 -62.615345 2.8099761 1
-128.18069 -85.870415 3.4169133 5.5
-128.23563 -84.981148 3.50878 4
-128.35918 -84.608696 3.5848541 4
-128.08737 -80.938095 3.5864899 7
-128.39534 -78.779396 3.5212252 4
-128.18593 -78.15435 3.4519374 4.25
-128.18207 -77.721764 3.3787472 4
-128.20863 -77.423561 3.4116685 5.0714288
-128.23666 -76.948532 3.4375496 4.5999999
-128.15242 -76.611961 3.4549935 4.8499999
-128.24733 -76.198769 3.428077 5.3725491
-128.27628 -75.811218 3.4262266 4.125
-128.22302 -75.404205 3.4222395 5
-128.2287 -75.046837 3.4224944 4.4000001
-128.20325 -74.534752 3.40081 4.875
-128.18961 -74.223015 3.3723695 4.2800002
-128.2722 -73.861671 3.2736619 3.1428571
-128.10715 -86.086555 3.8624802 5
-128.19595 -85.833534 3.7652602 5.1111112
-128.27945 -85.509613 3.6179767 4
-128.10458 -84.987236 3.68296 4.5
-128.07433 -84.18737 3.6984794 5
-128.03416 -83.768883 3.6227903 4
-128.07404 -83.426979 3.6133726 4
-128.35437 -83.041824 3.6246514 5
-128.19093 -81.856384 3.6659994 4
-128.24695 -81.039856 3.6643796 4.6666665
-128.20834 -80.72139 3.6653082 4
-128.14275 -79.460655 3.7336864 5.1666665
-128.10652 -79.111702 3.6443889 4
-128.25209 -77.428833 3.7504005 5.7142859
-128.19926 -76.922379 3.7737141 4.4000001
-128.12291 -76.611992 3.7864852 4.8531747
-128.2979 -76.287575 3.7876494 4.3684216
-128.35606 -75.766434 3.8204219 6
-128.19658 -86.081779 4.1209965 5.3076925
-128.16623 -85.902588 4.2385178 5.5
-128.28369 -77.623085 4.3595967 7
-128.0891 -77.349495 4.2144861 6.3333335
-128.14868 -76.985771 4.2102518 5.6666665
-128.09401 -76.592018 4.1361814 5.5727272
-128.26407 -76.267105 4.1729469 5.7151456
-128.39565 -75.680679 4.1031375 6
-128.29175 -75.369873 4.121016 5
-128.04506 -70.619438 4.3030462 6
-128.22104 -86.10685 4.6104937 6
-128.24414 -85.888756 4.5451837 6
-128.13472 -79.755775 4.6126428 6.4285712
-128.32329 -79.458603 4.5612879 6.5
-128.3875 -77.890991 4.7893801 8.0854998
-128.29707 -77.413704 4.5688686 7.3099999
-128.15579 -77.0028 4.7201643 7.1461873
-128.0896 -76.561264 4.5803881 6.7853651
-128.23666 -76.273224 4.5861492 6.5866542
-128.31784 -75.717361 4.4630089 6
-128.25743 -75.286583 4.5467496 7
-128.11783 -74.686653 4.7165022 8.0865002
-128.1647 -86.125473 5.1247926 7
-128.29094 -85.934837 5.1123576 7
-128.29033 -79.159126 4.9333005 7
-128.2868 -77.683418 4.9581437 7.6351995
-128.24884 -77.360046 5.0015607 7.8680296
-128.14799 -77.013611 5.0734282 8.0595474
-128.07559 -76.514183 4.9883714 7.6711287
-128.1978 -76.279617 4.9774389 7.6934638
-128.20428 -86.097916 5.3941517 8.060833
-128.12817 -85.836945 5.59764 8
-128.27193 -78.584076 5.311574 8.0757504
-128.16808 -78.264435 5.5481591 8.7764168
-128.27046 -77.73893 5.4322066 8.15975
-128.13571 -76.949417 5.5329614 9.0708179
-128.06271 -76.690163 5.4613676 8.7740002
-128.05724 -75.308052 5.4184446 8.8811245
-128.11269 -75.052711 5.4260783 8.576211
-128.21407 -74.62529 5.408103 8.1691666
-128.03784 -74.338554 5.3615713 8.1695004
-128.17857 -86.139076 5.7553129 8.0061541
-128.30051 -85.869286 5.7370481 8
-128.22957 -78.531471 5.8008986 9.3617306
-128.22302 -78.302383 5.8178301 9.2430906
-128.33952 -77.818581 5.6545253 9.1172495
-128.28891 -77.246628 5.6037807 9
-128.14484 -77.051376 5.6990886 9
-128.23112 -76.554848 5.7675996 9.6405001
-128.11722 -76.254128 5.8038664 9.3802748
-128.12019 -75.815918 5.8594375 9.3520164
-128.25822 -75.431122 5.8761444 9.4481506
-128.15656 -74.893852 5.7004957 9.3502998
-128.14621 -86.459785 6.1695437 9.0717506
-128.19456 -86.173363 6.1566277 9.0378571
-128.26764 -85.878448 6.2127352 9.0086823
-128.11133 -78.849007 6.0218635 10.1375
-128.1151 -78.518608 6.1102924 10.136565
-128.16501 -78.366348 6.1237383 9.8929996
-128.33308 -76.637962 6.3374186 10.085501
-128.02092 -75.642967 6.0545897 11.007687
-128.17624 -75.399132 6.1131186 10.403214
-128.00835 -78.528847 6.4133043 11.1315
-128.05247 -76.682182 9.2063141 8.1335001
-128.16077 -79.799896 12.79719 9.1344995
-127.6198 -65.388809 2.7798359 1
-127.80042 -65.037804 2.7674787 4
-127.75404 -64.435997 2.7804072 2.5
-127.76298 -64.113564 2.7614508 3
-127.78114 -63.885941 2.7467687 1
-127.79101 -63.484913 2.7214994 2.1666667
-127.79789 -63.065884 2.6696279 3
-127.9381 -62.651775 2.7008295 3
-127.78064 -62.063408 2.6829967 2.6666667
-127.82066 -61.781967 2.6747611 1.4
-127.76527 -61.486965 2.6680968 2.6666667
-127.77785 -60.886314 2.6326792 3.5
-127.78076 -60.583248 2.6136034 3
-127.82533 -60.228226 2.6603999 2
-127.78172 -77.98407 3.1181238 7
-127.68041 -77.106697 3.0646064 7
-127.87632 -76.733162 3.1690731 7
-127.96614 -76.002571 3.1177595 7
-127.92818 -75.924072 3.189271 6
-127.81001 -75.371178 3.1143324 6.5
-127.61245 -75.189697 3.0367899 6
-127.72923 -73.733437 3.1667686 5
-127.94147 -73.36187 3.177937 2.5
-127.76163 -72.201439 3.1049626 3.6666667
-127.72186 -71.877007 3.0942566 5
-127.60419 -70.897491 3.0473213 0
-127.97191 -67.256828 2.9378135 3
-127.7628 -65.91922 2.8764834 2
-127.76842 -65.422752 2.8384056 2.3333333
-127.84562 -64.57196 2.8100398 1.5
-127.78045 -86.199005 3.5730786 4
-127.90385 -85.970543 3.4321527 5.5
-127.77491 -85.250587 3.5273628 6
-127.85737 -84.878616 3.5477014 4
-127.7227 -84.782883 3.5067632 6
-127.77262 -84.178322 3.5670526 4
-127.65697 -81.542145 3.573477 4
-127.83369 -80.152351 3.522243 6
-127.73837 -79.752571 3.5026081 6
-127.88229 -79.412209 3.4619384 5.1999998
-127.73519 -79.003868 3.5154722 4.5
-127.73708 -78.444878 3.4309998 3
-127.77021 -78.162521 3.4912958 3.4285715
-127.77677 -77.864586 3.4296455 3
-127.87615 -77.308495 3.3875895 4.125
-127.87247 -76.955559 3.4425793 5.125
-127.91389 -76.670219 3.4463136 4.6666665
-127.82515 -76.179352 3.3659401 3.6666667
-127.82769 -75.777672 3.3452599 4
-127.90133 -75.339455 3.3585796 3.5
-127.74918 -75.008972 3.2700515 2.7777777
-127.89381 -74.635033 3.2430069 2.5999999
-127.88438 -74.263809 3.2420862 3.25
-127.92384 -73.832977 3.2186272 3
-127.84029 -73.576454 3.2020054 3
-127.72268 -86.455261 3.6620545 4
-127.82038 -86.222115 3.7377505 4.6999998
-127.95011 -85.882278 3.7270865 5.1999998
-127.78791 -84.95562 3.6760972 4
-127.94072 -84.470009 3.6396704 4
-127.89814 -82.967148 3.6621265 5
-127.78996 -82.232666 3.6033807 4
-127.77805 -81.509491 3.7213328 6
-127.60558 -80.665993 3.6273346 4
-127.62461 -80.037094 3.6935194 4
-127.83672 -79.895226 3.6536255 5
-127.84272 -79.467773 3.655688 5.3333335
-127.67375 -78.955482 3.7559023 5
-127.6673 -77.932045 3.8230944 4.5
-127.89909 -77.241951 3.7497432 5.6666665
-127.8989 -77.02047 3.7931488 4.9571428
-127.96943 -76.758385 3.9185281 4.625
-127.64239 -68.527184 3.9222112 6
-127.66927 -86.474342 4.123033 5.125
-127.81693 -86.23568 4.1806078 5.2333331
-127.99468 -85.972702 4.0185118 5
-127.64319 -78.869423 4.0812154 5
-127.73271 -77.844543 4.0874658 5.3333335
-127.91331 -77.28566 4.1509614 5.7272725
-127.89075 -77.025597 4.1648092 5.5357141
-127.97266 -76.753242 4.2793345 5.75
-127.92863 -76.199516 4.3151317 8.0810003
-127.72363 -72.00235 4.190299 5
-127.6957 -86.503654 4.6011124 6
-127.82256 -86.225296 4.5864196 6
-127.98261 -85.916603 4.6523657 6
-127.65073 -78.86869 4.4560571 6
-127.76278 -78.270439 4.4447556 6
-127.88231 -77.245735 4.5403047 7
-127.87546 -76.99012 4.5360942 6.6081486
-127.94606 -76.729858 4.6734924 6.75
-127.86937 -74.952217 4.4559498 6
-127.77976 -74.751953 4.6305203 8.0856667
-127.72251 -71.85054 4.4343262 6
-127.78916 -69.075256 4.4371109 6
-127.67008 -86.544563 5.1076374 7
-127.8385 -86.276756 5.1318512 7
-127.84161 -79.352791 5.1021414 8.0880003
-127.68462 -78.993416 4.9918785 7.6542997
-127.74432 -78.276299 4.8827467 7
-127.8625 -77.238548 5.0759716 8
-127.82787 -76.988258 4.9897099 7.6847591
-127.94337 -76.644371 5.0536871 7.994319
-127.64177 -75.265427 5.1060405 8.1464996
-127.83428 -75.171593 5.1633005 8.1507502
-127.67313 -86.453423 5.5940461 8
-127.83776 -86.175415 5.5928531 8.0506001
-127.97997 -85.922058 5.5292392 8.0725002
-127.61875 -78.857819 5.5823584 9
-127.77982 -78.534737 5.4669189 8.3340387
-127.78469 -78.254639 5.3308306 8.11975
-127.96719 -77.224731 5.5752296 9
-127.8332 -77.060287 5.4670014 8.6999998
-127.88005 -76.729637 5.387167 8.5462494
-127.66108 -76.129097 5.5097809 8.4958334
-127.6932 -75.898857 5.5963187 8.1730003
-127.75358 -75.324478 5.435307 9.1743755
-127.81613 -75.080574 5.3902149 8.7461843
-127.61418 -86.523117 5.7251358 8
-127.78198 -86.230972 5.7047443 8.0288877
-127.85746 -78.625038 5.7000885 9.1129436
-127.79588 -78.28949 5.7304378 9.0950003
-127.82758 -77.216011 5.6482177 9
-127.84794 -77.092972 5.6318192 9
-127.83261 -76.588913 5.7924776 9.6500988
-127.78429 -76.20298 5.8130436 9.8224621
-127.84067 -75.855904 5.825829 9.3126249
-127.90656 -75.413216 5.8247061 9.2063446
-127.88282 -75.052452 5.7052112 9.8034725
-127.85122 -86.50737 6.1126804 9
-127.84055 -86.162941 6.1138749 9.0787859
-127.92404 -78.851387 6.3742952 11.136937
-127.90489 -78.585312 6.2717285 10.4267
-127.85453 -78.30101 6.2280269 9.0743332
-127.79906 -75.715355 6.1635623 10.982334
-127.85168 -75.449585 6.1492062 10.101058
-127.64622 -75.156532 6.1032219 8.0310001
-127.80202 -78.945023 6.645874 11.517688
-127.80878 -78.645126 6.5576177 10.963927
-127.89354 -78.287224 6.4600863 9.1680002
-127.812 -79.173637 6.8095593 12.1415
-127.76312 -78.733559 6.8401508 12.1465
-127.60052 -86.342796 9.9116058 8.1300001
-127.22757 -79.435387 2.7770972 7
-127.5171 -65.220467 2.7832398 4.5
-127.39319 -64.944427 2.7588022 2.5
-127.33669 -64.579353 2.7355354 3.25
-127.385 -64.275566 2.7340438 3.3333333
-127.57861 -63.811127 2.7076232 3
-127.40588 -63.472092 2.6974804 3
-127.3361 -62.956284 2.673017 2.4000001
-127.46395 -62.677856 2.683296 2.5
-127.42912 -62.272423 2.650377 4.25
-127.47811 -61.7929 2.6747892 2.75
-127.32129 -61.453667 2.674181 2
-127.45064 -60.580925 2.6436665 1.6666666
-127.40614 -60.236492 2.610863 2.5
-127.42598 -79.016144 3.1832373 7
-127.20481 -76.22953 3.116044 6
-127.4622 -75.701294 3.0743966 6
-127.29902 -75.463303 3.1752276 6.3333335
-127.57777 -75.081085 3.0799704 7
-127.5254 -74.744255 3.1025696 4
-127.46707 -74.25193 3.135962 3.5
-127.39913 -73.766022 3.1714568 2.5
-127.41137 -73.414009 3.1234972 3.8
-127.45444 -73.114571 3.1456957 2
-127.37732 -72.569328 3.1077931 4.5
-127.35726 -72.091019 3.1034799 3.6666667
-127.43185 -71.134254 3.0645905 0
-127.394 -70.548378 3.0244863 0
-127.31655 -69.521584 2.8664331 6
-127.37042 -68.041618 2.9551773 3
-127.57863 -66.453087 2.8925266 3
-127.23026 -66.009987 2.8750737 2
-127.42516 -65.883667 2.8433001 3
-127.47483 -65.346581 2.823452 2.5
-127.44636 -65.142319 2.8045034 2
-127.36207 -86.622139 3.5194151 5
-127.39312 -86.355034 3.5338221 4
-127.44042 -84.547768 3.553818 4
-127.20935 -84.338417 3.5195184 4
-127.33147 -80.575462 3.5396118 5.3333335
-127.35378 -80.298569 3.5110524 5.3333335
-127.4005 -79.842659 3.5008051 4.5
-127.32569 -79.423203 3.4404464 3.5714285
-127.41883 -79.004089 3.4263346 4.625
-127.30129 -78.521431 3.4422717 4.3333335
-127.32648 -78.207191 3.4839442 4.5357141
-127.42645 -77.741478 3.3991146 3.6666667
-127.31624 -77.370171 3.3960574 3
-127.40818 -76.950226 3.3590369 3
-127.40217 -76.338989 3.3370101 3
-127.31193 -75.742378 3.3038256 3.7
-127.45206 -75.409538 3.244694 2.1111112
-127.48738 -75.067406 3.2044275 2
-127.59879 -74.565536 3.2032039 3
-127.53159 -74.162735 3.2169795 5
-127.27476 -73.35022 3.3949299 5.5999999
-127.27839 -72.912247 3.3653498 4.25
-127.46173 -86.565193 3.7631845 4.7333331
-127.50024 -86.305717 3.7082701 4
-127.49523 -85.151482 3.6316953 4.5
-127.29869 -80.593117 3.6429017 4
-127.56198 -80.021652 3.6522188 6
-127.54723 -79.282532 3.7881653 5.3333335
-127.36889 -79.063988 3.816879 5.4166665
-127.28741 -78.556183 3.7647257 4.7272725
-127.41347 -78.136292 3.7930388 4.5442085
-127.45094 -77.9104 3.7059712 4
-127.3415 -72.913239 3.8984084 4.6666665
-127.21957 -72.71624 3.7208574 5
-127.55942 -71.452995 3.944716 5
-127.58907 -68.514214 3.9417708 6
-127.37723 -86.592072 4.1905522 5.3333335
-127.49714 -86.323097 4.2782192 5.5
-127.51534 -79.251266 4.3439441 6
-127.32417 -79.088715 4.1833143 6.25
-127.31814 -78.635986 4.1116619 5.25
-127.36733 -78.175591 4.115273 5.1290321
-127.46352 -77.922272 4.1485124 5.1666665
-127.32575 -73.224457 4.0706396 6
-127.37562 -72.837929 4.208168 6
-127.22213 -72.746109 4.1733446 6
-127.51179 -72.185905 4.2701769 6
-127.25105 -70.046867 4.3823729 6
-127.24031 -69.907188 4.1607585 6
-127.27742 -68.76252 4.2801504 6
-127.22186 -68.371544 4.1457024 6
-127.36509 -86.803429 4.562881 6
-127.45917 -86.643799 4.5751891 6
-127.44302 -86.370781 4.6405301 6
-127.34789 -79.074768 4.7173815 7.3624167
-127.3215 -78.685608 4.5210805 6.1666665
-127.35194 -78.142311 4.5210271 6.2817583
-127.40787 -77.892151 4.5777354 6.4000001
-127.48476 -76.556084 4.7250824 8.0874996
-127.59325 -75.216805 4.6541133 8.0860004
-127.37171 -75.134094 4.531034 8.0837498
-127.33295 -74.377258 4.5998001 8.0845003
-127.41773 -71.676071 4.4606791 6
-127.25673 -69.938072 4.4549694 6
-127.41952 -86.844353 5.1310086 7
-127.40343 -86.663712 5.1316547 7
-127.46189 -86.306679 5.1162257 7
-127.52635 -79.496918 4.9143515 7
-127.41778 -78.982925 5.0334091 7.8746138
-127.2985 -78.626892 4.9943538 7.6935
-127.32117 -78.132271 4.9523554 7.4299722
-127.37567 -77.896698 5.0035357 7.7330356
-127.28048 -75.641602 5.0560069 8.1295004
-127.37119 -75.406876 5.0206814 8.0413923
-127.43138 -75.019714 5.0419965 8.1256666
-127.46292 -78.900238 5.3359838 8.3546877
-127.39157 -78.619835 5.4728551 8.394515
-127.33832 -78.117523 5.2162285 8
-127.28279 -76.466209 5.5324931 9.151
-127.34392 -76.102951 5.5151882 8.1696663
-127.40766 -75.322632 5.4004245 8.9966249
-127.43549 -75.017509 5.334228 8.5864449
-127.26786 -86.850426 5.7099862 8
-127.38528 -86.591537 5.7265973 8.0145483
-127.55614 -86.303833 5.6882524 8.0310001
-127.21609 -79.24382 5.6607685 9.1485004
-127.4426 -78.983246 5.6332474 9.1210003
-127.31776 -76.807571 5.7629657 10.1365
-127.41859 -76.58744 5.7741961 9.9999371
-127.46188 -76.225647 5.7595 9.5404339
-127.57568 -75.979286 5.9094992 9.1625004
-127.20876 -86.870041 6.3094397 9.1545
-127.39283 -86.477943 6.0843091 9
-127.54885 -86.305145 6.1032462 9.0597496
-127.52296 -77.906868 6.167069 9.0854998
-127.35686 -76.019646 6.3260584 12.136125
-127.43412 -75.71405 6.2056942 10.639148
-127.42607 -75.507614 6.2298131 9.9963245
-127.53547 -75.136925 6.142694 8.0275002
-127.50414 -78.499001 6.6792903 11.0955
-127.46564 -78.341454 6.5161023 9.5885
-127.30762 -77.937744 6.501729 9.0854998
-127.25262 -77.573555 6.4773016 8.0240002
-127.58736 -81.323402 9.7686195 8.1379995
-126.99162 -65.372322 2.7698495 3
-126.9595 -64.974518 2.7499452 2.3333333
-127.1345 -64.597092 2.7279415 1.5
-126.99248 -64.24688 2.7076583 2.5
-127.01983 -63.903503 2.7075231 1
-126.95605 -63.293289 2.6856992 3
-126.99799 -63.069454 2.6791832 3.3333333
-127.01597 -62.681808 2.6719904 1.75
-127.04222 -62.178753 2.6481757 4
-127.0602 -61.725113 2.6570697 2.75
-126.94949 -61.444023 2.6695011 1
-126.9211 -61.069744 2.6510029 3
-127.05891 -60.15456 2.6217315 1.8571428
-126.98504 -87.096321 3.0818784 7
-126.95072 -77.275436 3.1889856 6
-126.91896 -76.941986 3.1640835 6.6666665
-127.00803 -76.603951 3.18448 7
-127.05776 -76.066101 3.1290131 7
-127.18998 -75.85479 3.1338446 7
