# .PCD v0.7 - Point Cloud Data file format
VERSION 0.7
FIELDS x y z intensity
SIZE 4 4 4 4
TYPE F F F F
COUNT 1 1 1 1
WIDTH 1278
HEIGHT 1
VIEWPOINT 0 0 0 1 0 0 0
POINTS 1278
DATA ascii
-117.07196 9.6147537 -0.53473651 7
-116.90048 12.7779 -0.47022307 7
-117.09113 15.387115 -0.52210706 7
-116.97488 16.28973 -0.48072907 7
-117.08972 16.553997 -0.60073221 7
-116.94185 22.201492 -0.51059234 7
-116.93906 22.690857 -0.6702047 7
-116.96832 22.85573 -0.77701694 7
-116.8817 9.0326099 -0.076693885 7
-117.0907 22.388546 -0.39686108 7
-116.86812 24.544058 -0.039017163 7
-117.13208 8.6978703 0.25161457 7
-117.11284 9.4236965 0.17673057 7
-116.86232 17.575289 0.39841333 7
-117.11951 24.001719 0.30007836 7
-117.06246 3.6963325 0.79574835 6
-117.12069 13.277349 0.64756036 7
-116.8756 13.609082 0.52064097 6
-116.91451 14.759261 0.56950176 7
-116.96879 14.845138 0.48205128 6.25
-117.14292 16.050615 0.7643103 8.0284996
-116.8131 16.425854 0.52789831 7
-116.99052 17.389797 0.60328031 7
-116.95505 18.472311 0.48793489 7
-117.0798 25.502285 0.60266435 8.0640001
-116.95267 27.718418 0.52954429 8.0524998
-116.85509 28.510292 0.45901549 8.0574999
-117.01154 2.0331683 0.85523367 6
-117.12397 10.76405 1.0135016 6.6666665
-117.07481 11.034233 0.89447773 7
-116.85545 11.651067 1.0075189 7
-117.15267 13.291222 0.86763281 7
-116.85831 13.672807 1.0985186 7
-116.9275 16.130497 1.076339 7
-117.11561 16.61005 0.84897596 8.0229998
-116.94411 8.2510252 1.2327578 7
-116.94093 16.271423 1.3095164 7
-116.98083 16.504856 1.3995402 7
-117.00531 18.486383 1.3532791 7
-116.94611 16.233604 1.6099215 7
-117.1152 16.484743 1.7880223 8.1520004
-116.98821 18.083298 1.9968824 8.1545
-117.16595 6.3985286 2.1248779 7
-117.09031 18.389694 2.0934403 8.1549997
-116.80602 18.463779 2.3611794 8.1350002
-116.92117 22.548922 2.7924311 8.1359997
-117.15092 18.580688 4.1198664 9.1274996
-116.83158 21.621796 4.3233132 9.1344995
-117.07923 23.408428 4.1377783 9.1300001
-116.86091 29.68549 4.3465734 11.045
-117.1183 28.627781 4.6216707 10.095
-117.13435 29.113176 4.5233641 10.727833
-117.01603 29.660744 4.6682963 10.096
-117.05174 27.221741 4.87359 10.0955
-116.88578 29.137529 4.9884892 10.098749
-117.10108 17.330376 5.5581665 10.1565
-117.0078 21.189135 5.5016222 9.0345001
-116.91808 24.737276 5.5858607 9.033
-116.85352 26.758831 5.2286949 10.097
-116.96461 28.14814 5.3261828 10.0995
-117.05038 17.494595 5.7352819 9.6584997
-116.81985 20.277376 5.9543633 10.158
-116.89825 25.267839 5.7587337 9.0655003
-116.90289 17.786324 6.1802945 11.1525
-116.96885 24.105148 6.2123728 10.0195
-116.89024 25.081118 6.2140169 10.0775
-116.99924 28.428371 6.3674202 10.0975
-117.08244 18.7111 6.429502 11.1535
-117.19598 19.095953 6.6034517 11.154
-117.15285 19.962059 6.7530737 10.055
-117.14411 21.431576 6.5931878 11.0625
-117.10552 22.132574 6.5656428 11.0655
-116.93503 23.465134 6.6481853 10.519501
-117.17204 24.39016 6.7223372 11.0245
-117.14273 28.076622 6.5310578 12.0335
-116.89766 17.297977 6.8177567 9.1175003
-116.97205 19.540615 6.8998876 10.1615
-116.9845 19.712263 7.1625919 10.017333
-116.99463 20.14472 7.0086269 10.6486
-117.0148 20.631046 7.1877122 9.1780005
-116.82079 21.48885 6.9807701 10.0155
-116.90498 21.759846 7.0429497 10.6895
-117.0845 22.37155 7.0619302 10.16125
-117.12357 23.802048 7.1171069 10.10675
-116.95733 24.331478 6.9002414 10.803625
-116.92139 24.525433 7.1363053 11.153
-116.95177 28.783596 7.0695696 13.0605
-116.98827 28.825172 7.1480508 13.0645
-116.94853 19.168335 7.2674851 10.017
-117.15689 19.728905 7.3116221 11.026
-116.86508 21.161686 7.3147378 11.155
-116.91109 21.592539 7.3438344 11.1555
-117.0907 22.312977 7.2518654 10.162
-117.12987 22.500031 7.5360889 10.442573
-116.93851 23.153784 7.4548869 10.278
-117.022 23.913195 7.49757 10.136142
-116.92384 24.537823 7.3901868 10.078
-117.04747 25.917091 7.5379262 11.1535
-116.9397 29.961393 7.232451 10.158751
-117.10275 20.348289 7.6101227 12.145
-117.10851 21.590521 7.8406496 12.1505
-117.11131 21.659101 7.7201509 11.157
-117.04035 23.002474 7.77038 10.772334
-116.94697 23.912399 7.8896656 11.1185
-117.14656 24.595877 7.8416343 11.156
-117.09498 25.082785 7.9903264 11.1565
-116.87842 25.297092 7.7157779 10.1615
-116.86858 21.530754 8.306179 9.177
-117.14257 21.811052 8.37747 12.153
-117.15179 22.359894 8.1450729 10.162
-117.04857 22.701859 8.0478945 12.151
-116.88973 22.899666 8.1055717 12.090625
-116.9152 23.931168 8.25846 13.0425
-117.05527 24.131958 8.1627254 12.489785
-116.90411 24.680012 8.1259909 12.149124
-117.02136 24.990984 8.1575346 10.157333
-116.83276 25.316231 8.1272726 10.1615
-117.02065 26.20628 8.2458305 11.22
-116.88956 21.466675 8.6082354 12.153749
-117.12617 22.655144 8.7727299 13.04
-117.07458 23.954489 8.431776 10.1555
-116.89646 24.564339 8.634696 12.15225
-117.04412 26.275967 8.7756786 13.0865
-117.11107 26.640636 8.7546844 11.0565
-117.06064 24.559334 9.0791454 12.1535
-116.96974 24.848942 8.9601316 12.153
-117.05814 26.316637 8.9951982 11.097333
-117.07954 26.586048 9.0449972 12.396667
-117.00684 28.208405 8.9181051 12.15125
-117.17233 22.484165 9.3866892 13.146
-117.06379 24.251726 9.3331518 11.491834
-116.81121 24.601622 9.3229094 12.1545
-116.83601 25.456169 9.4504004 11.16
-116.96558 26.513727 9.4326401 14.070999
-117.13677 28.310009 9.3605194 12.1525
-116.9751 28.477221 9.3096266 11.490001
-117.17965 24.594379 9.6409454 13.144751
-117.13864 23.474882 10.347985 10.122
-116.96205 24.984003 10.258798 10.122
-116.85402 20.779943 10.497695 11.1545
-116.4995 16.59379 -2.4616663 7
-116.59977 24.220102 -2.6412675 7
-116.76693 24.668148 -2.0357873 8.0614996
-116.76347 5.8871031 -0.8120665 7
-116.6229 8.8500738 -0.83699286 7
-116.63761 21.223373 -0.93456137 7
-116.64635 21.862206 -1.0055883 7
-116.64011 22.840111 -0.94051188 7
-116.77467 24.59367 -0.86400586 7
-116.59291 24.973066 -0.83294046 7
-116.54305 8.7062445 -0.47093233 7
-116.52815 11.39614 -0.78022683 7
-116.77244 13.670305 -0.65254301 7
-116.7996 16.368856 -0.49474883 7
-116.76476 16.527205 -0.56905216 7
-116.67802 16.980085 -0.61214948 7
-116.78866 17.499899 -0.63816512 7
-116.73669 22.363033 -0.40555277 7
-116.63228 22.907078 -0.78872097 7
-116.42545 24.561159 -0.58989525 7
-116.46632 25.780432 -0.71945173 7
-116.63536 22.140877 -0.37328193 7
-116.47223 24.751644 -0.073715627 7
-116.55122 28.067047 -0.3411108 7
-116.44057 15.18547 0.39079282 6
-116.75912 17.468498 0.37205315 7
-116.62196 18.296932 0.30321622 7
-116.52733 18.451147 0.29669678 7
-116.67216 13.523141 0.48756045 6
-116.6589 14.766539 0.63147748 7
-116.46449 14.895732 0.53407758 6.5
-116.71275 16.28334 0.59279561 7
-116.70708 16.572769 0.592996 7
-116.43499 18.382425 0.58557212 7
-116.41521 18.56489 0.53838086 7
-116.45463 25.146608 0.73859376 8.0200005
-116.58459 26.298836 0.56367713 8.0530005
-116.73993 26.755047 0.42320666 8.0775003
-116.56592 28.107363 0.43516499 8.0609999
-116.52545 28.505659 0.60222852 8.0959997
-116.75473 28.852299 0.43825704 8.0734997
-116.40352 29.258352 0.62249649 8.0955
-116.48689 0.16480143 0.88747495 6
-116.79134 1.0760529 0.87516141 6
-116.57878 2.1186571 0.84394258 6
-116.46407 3.4693916 0.81005913 6
-116.76459 13.517522 0.84948927 7
-116.5806 14.743115 1.0292226 7
-116.78918 16.205011 1.151505 7
-116.5935 16.667418 0.90572 7
-116.62563 16.990784 0.99958193 7
-116.66511 17.355564 1.0366119 7
-116.56232 19.533731 1.0711367 8.0544996
-116.65258 21.518883 1.0625092 8.0319996
-116.46418 26.745577 0.85231084 8.0524998
-116.42914 27.081211 0.8011713 8.0509996
-116.44919 27.272371 1.0407472 8.0504999
-116.54333 16.966785 1.3559099 8.0555
-116.49197 17.233461 1.2394052 7
-116.55565 18.564863 1.2998332 7
-116.64752 26.781925 1.3406434 8.1490002
-116.48685 13.313785 1.8211679 7
-116.67043 16.290127 1.8324606 7
-116.50215 18.212908 1.7403966 8.1520004
-116.60645 18.450457 1.7367332 8.1499996
-116.42307 19.039669 2.1322885 8.1560001
-116.53117 28.445421 2.0415306 7
-116.52011 27.537186 2.4921637 8.1359997
-116.50825 16.789656 2.810549 8
-116.52673 21.524876 2.840373 8.1359997
-116.57559 17.87941 3.5515628 9.0900002
-116.46984 18.054552 3.5630963 9.0279999
-116.6816 18.861792 4.1567163 9.1359997
-116.48512 28.925409 4.3514957 11.061
-116.77295 28.526375 4.5739737 8.0019999
-116.58334 28.90888 4.43925 10.58025
-116.62126 18.985428 5.1376581 9.1630001
-116.73109 29.391689 4.992362 10.0975
-116.79372 29.733013 4.8939114 10.0965
-116.65993 17.860727 5.4469523 9.4946661
-116.59068 18.172739 5.3832817 9.9530001
-116.50253 20.34667 5.404881 9.1630001
-116.4113 28.65127 5.2877064 9.0039997
-116.4539 17.510843 5.8352165 9.6612501
-116.53156 17.698906 5.6766496 9.4087505
-116.44948 19.011488 5.749177 9.1634998
-116.56203 25.1322 5.6532702 9.0375004
-116.57039 28.454649 5.6590061 10.05575
-116.66165 28.839012 5.9463062 10.053
-116.47464 18.777155 6.0705738 11.15
-116.69219 19.383251 6.2072563 10.65575
-116.403 19.793783 6.2202277 11.1515
-116.69758 23.269783 6.2159624 10.02
-116.60967 28.336473 6.2249026 10.0175
-116.42371 28.662796 6.1316609 10.0535
-116.73409 19.555954 6.4991941 11.15325
-116.70095 19.612259 6.7308054 11.154
-116.41963 20.486694 6.5752454 11.153
-116.64732 20.940399 6.7771292 11.1535
-116.69271 23.476711 6.7971516 11.025
-116.77567 25.98867 6.6998501 11.061
-116.4426 28.303282 6.7497969 12.0885
-116.59943 28.628891 6.6136675 11.0856
-116.76698 28.910339 6.7851562 11.0995
-116.76674 17.460625 6.8147573 9.1175003
-116.6557 21.143848 6.9668188 11.154
-116.77235 21.218746 7.0892296 11.1545
-116.57417 23.426071 6.9555154 10.268125
-116.71451 23.672564 7.1495719 11.362332
-116.65877 24.04351 7.1913328 11.1535
-116.41985 24.589718 7.0711837 10.1605
-116.4712 28.645355 6.9448366 12.076332
-116.75671 28.80728 7.1087141 13.04575
-116.76815 23.173353 7.2972512 10.286214
-116.74479 23.92717 7.4169817 11.154
-116.57863 24.055534 7.4072466 11.1545
-116.58089 28.290716 7.2114778 13.0435
-116.40575 28.626726 7.2582736 11.0975
-116.54409 22.453203 7.9333277 12.0305
-116.77286 24.81752 7.9429007 13.0455
-116.57194 25.377617 7.8425593 10.484834
-116.4772 25.613779 7.7581 10.135
-116.68562 20.449478 8.2627773 10.1445
-116.71397 24.331842 8.3446569 12.1515
-116.72755 25.516214 8.1489573 12.146749
-116.47921 25.607672 8.3155479 12.1505
-116.61745 23.333145 8.6571693 13.0395
-116.66911 23.664776 8.429637 11.099
-116.62901 25.830318 8.783597 12.152
-116.73181 22.765156 8.9247847 13.037
-116.52193 25.77796 8.9707766 12.1525
-116.51821 26.062101 8.9743872 10.124
-116.60155 25.020058 9.4831514 12.155
-116.70385 24.446302 9.702054 13.1495
-116.77229 28.374584 9.6209879 11.16
-116.64557 25.103525 10.257533 11.153
-116.71069 28.332872 10.147735 13.1485
-116.63873 24.069105 10.570112 11.148
-116.74399 27.864403 10.783986 11.142
-116.23451 15.263565 -2.0681958 8.0834999
-116.34151 15.67254 -2.2753241 8.0775003
-116.35269 14.967624 -1.6847615 7
-116.16135 17.071621 -0.98952401 7
-116.39397 21.915621 -0.81633979 7
-116.3129 22.574163 -0.85558754 7
-116.34341 23.025408 -0.95681143 7
-116.33377 24.846094 -0.88498932 7
-116.2491 27.793501 -1.0490807 7
-116.07059 12.967813 -0.56813884 7
-116.07619 16.977421 -0.52877152 7
-116.24053 21.362864 -0.52555233 7
-116.24178 21.627775 -0.47824991 7
-116.18697 24.7106 -0.51914567 7
-116.29092 27.909952 -0.49205369 7
-116.17488 13.396189 -0.17904732 7
-116.1316 16.925566 -0.3803488 7
-116.00071 17.917091 -0.36149096 7
-116.23984 21.611647 -0.31944644 7
-116.21089 23.347303 -0.12309834 7
-116.06639 23.691725 -0.021580478 7
-116.19361 25.195108 -0.0053052334 7
-116.14117 26.844633 -0.15076458 7
-116.27818 27.856527 -0.39925569 7
-116.21329 16.739534 0.21514875 8.0865002
-116.07448 17.677671 0.30061647 6
-116.37605 26.032366 0.25501519 8.0570002
-116.31538 29.115522 0.36726967 8.0697498
-116.12059 0.73966819 0.57388979 6
-116.20899 1.131474 0.54841834 6
-116.07204 3.6460192 0.79043591 6
-116.03184 10.324305 0.49229053 6
-116.25259 12.617278 0.46976742 6
-116.07332 18.316708 0.7097286 7
-116.29572 18.657291 0.45787758 7
-116.28726 21.518751 0.74679422 8.0535002
-116.08401 26.957253 0.68249434 8.0295
-116.24094 28.045805 0.45561862 8.0955
-116.18131 29.054167 0.54050606 8.0959997
-116.23328 29.524065 0.64630646 8.0398331
-116.22275 0.084719159 0.8517797 6
-116.35476 1.1448027 0.86645007 6
-116.1131 2.1273539 0.83904678 6
-116.29108 3.8276792 0.89058429 6
-116.08144 4.4449334 0.83591634 6
-116.13861 18.054474 1.0277205 7
-116.00914 22.177959 1.0920466 7
-116.12895 23.458467 0.99808609 7
-116.166 24.457884 0.99357557 8.033
-116.29513 29.01206 1.1191208 7
-116.04549 18.320875 1.5126212 7
-116.12148 18.508808 1.4330683 7
-116.05453 22.081001 1.2378985 7
-116.36208 26.424509 1.4601076 8.1464996
-116.33233 18.36018 1.7862884 8.1529999
-116.28439 18.461496 1.808159 8.1529999
-116.31956 21.195171 1.6531789 8.1520004
-116.26722 21.253271 1.6287051 8.1514997
-116.26148 23.44113 1.611999 8.1450005
-116.32498 26.156605 1.8279117 8.1534996
-116.35714 17.697403 2.1863308 8.1564999
-116.16306 21.551868 2.7690785 8.1355
-116.19527 21.389124 2.8433716 8.1339998
-116.35715 17.151396 3.4534118 9.0275002
-116.19146 19.853045 3.5645843 9.026
-116.2384 27.081224 3.7086647 9.0010004
-116.18916 17.482862 4.1607327 9.1339998
-116.0853 25.504095 4.1117325 9.0524998
-116.08818 27.274542 4.5659475 9.0469999
-116.16216 28.521086 4.5602517 10.0763
-116.0384 29.601065 4.7026539 10.0965
-116.31613 28.074377 4.9368539 10.0205
-116.30264 29.932871 5.1190214 10.099334
-116.1742 18.323465 5.5645032 9.158
-116.29008 18.679327 5.4227576 9.6598749
-116.13224 18.874121 5.4195585 9.8200006
-116.03565 19.590858 5.5744953 10.1565
-116.21901 20.512821 5.4941754 10.1555
-116.34807 29.666342 5.3003602 10.1
-116.29608 17.571871 5.7271419 9.1639996
-116.31022 17.93396 5.7683706 10.158
-116.16833 18.239431 5.7359438 9.1634998
-116.34924 18.714289 5.8338084 9.6607494
-116.18102 18.891827 5.7369246 9.6569996
-116.15985 19.826862 5.6703644 9.1560001
-116.08237 20.205078 5.7737036 9.1592999
-116.28936 26.913774 5.66682 10.0565
-116.36723 28.228741 5.7519851 10.037251
-116.01433 29.743105 5.6992946 10.0565
-116.17117 17.75079 6.0584855 10.65575
-116.32043 18.472778 6.0402741 11.151
-116.27531 19.906805 6.1072493 11.15
-116.24094 20.227446 6.0455303 10.1585
-116.02679 22.46678 6.2335911 11.1475
-116.35036 23.122808 6.0971322 10.1575
-116.2449 27.890684 6.3055935 10.0175
-116.29279 28.191149 6.2163954 10.071166
-116.08727 20.965088 6.5863185 10.16
-116.20806 21.736391 6.7615352 11.153
-116.36484 22.808176 6.6327543 10.163
-116.19427 23.383101 6.4956117 10.655
-116.06594 23.735489 6.6357741 10.159
-116.24843 28.326612 6.5632544 11.0955
-116.29027 28.72946 6.4876084 11.0975
-116.36104 23.037039 6.9311948 10.016
-116.28312 23.759047 7.0031571 10.016
-116.09045 24.233801 6.9028201 10.1595
-116.37945 24.574142 7.0151658 10.16
-116.15807 24.85121 7.1707025 11.153
-116.38222 28.31645 7.197309 13.0445
-116.20557 28.541719 7.0900397 12.402388
-116.00487 20.178661 7.5491905 9.1230001
-116.32078 20.91526 7.4134283 9.1134996
-116.39472 24.61751 7.2420774 10.161
-116.23397 25.130867 7.415277 11.154
-116.30717 28.193707 7.3644214 11.09725
-116.1204 28.432945 7.2337584 13.053
-116.04964 29.571383 7.3299084 10.146
-116.33086 22.394369 7.6035566 11.0225
-116.09707 24.814785 7.9943662 12.149
-116.2924 25.321041 8.3705635 12.151
-116.30127 20.674753 8.692091 9.1750002
-116.0035 24.695602 8.4476814 12.1515
-116.16473 24.517536 9.1408587 11.1605
-116.12208 25.046667 8.9921083 12.153
-116.36053 24.615044 9.5578756 13.144251
-116.37287 26.504168 9.3952589 14.087
-116.1063 24.455431 10.671067 11.1505
-115.79929 23.601446 -2.1445179 7
-115.88599 14.055262 -0.80506778 7
-115.95243 16.742983 -0.91443652 7
-115.65733 17.097528 -0.83687317 7
-115.60188 22.900194 -0.89936805 7
-115.87238 27.880327 -0.84971321 7
-115.97849 14.245611 -0.64138317 7
-115.70624 17.100199 -0.58014297 7
-115.93318 21.492476 -0.40249345 7
-115.85258 21.692553 -0.65947223 7
-115.98577 23.382998 -0.5922491 7
-115.60271 24.207111 -0.54656082 7
-115.63324 24.871017 -0.79050964 7
-115.8084 16.953562 -0.39064944 7
-115.96262 23.475401 -0.13049687 7
-115.70596 24.122583 -0.19474988 7
-115.79749 14.803762 0.39575276 6
-115.61109 16.994423 0.024851939 7
-115.68407 17.676912 0.39232397 7
-115.84885 21.542376 0.3044627 8.059
-115.96027 26.462191 0.17999983 8.1619997
-115.95741 1.9960634 0.77512181 6
-115.72086 3.9009798 0.76392168 6
-115.91448 11.377855 0.46919745 6
-115.62029 12.895235 0.42237097 6
-115.91729 13.686298 0.43906516 7
-115.86316 14.603867 0.41987801 6
-115.6768 16.954229 0.42103601 8.0854998
-115.80812 18.530085 0.63414091 7
-115.66434 18.909851 0.72726613 8.0275002
-115.60991 27.185593 0.648588 8.0244999
-115.73272 27.673513 0.79574353 7
-115.67033 28.908281 0.74655128 8.0290003
-115.70792 0.16467266 0.86267477 6
-115.992 0.84862155 0.87786537 6
-115.91498 1.2190706 0.85683244 6
-115.76363 2.2388532 0.83954078 6
-115.83681 4.0743437 1.1078733 6
-115.67264 16.324656 0.94128346 8.0555
-115.67335 16.530439 0.86764479 8.0419998
-115.634 17.067259 1.157187 8.0555
-115.96183 18.365822 0.95650923 7
-115.94543 23.4618 0.91699004 7
-115.65113 25.353937 0.87777829 8.0345001
-115.66921 28.228716 0.80525351 8.0314999
-115.79788 18.276838 1.3649775 7
-115.86354 18.469681 1.2906832 7
-115.71196 19.806879 1.2511747 7
-115.94936 23.576241 1.4297651 8.1490002
-115.87084 27.598928 1.4049964 8.1450005
-115.78701 17.935553 1.7546486 7
-115.66924 18.242498 1.7034539 8.1514997
-115.82069 18.465538 1.6479325 8.1505003
-115.63773 26.718279 1.836215 8.1525002
-115.83953 27.108513 1.7651188 8.1529999
-115.73824 25.453102 2.0217164 8.1549997
-115.94734 29.11648 2.1997223 8.1435003
-115.77808 17.40859 2.7210321 8.1455002
-115.66837 26.782625 2.6175172 8.1339998
-115.73911 20.514513 2.9016736 8.1367502
-115.77068 20.376886 3.4816546 9.0249996
-115.63053 20.591738 3.4704897 9.026
-115.89896 22.791288 3.4913042 9.0255003
-115.73013 25.841368 3.4682558 9.0129995
-115.74001 26.023043 3.4320011 9.0080004
-115.82727 29.029507 3.4341919 10.0665
-115.64403 29.647617 3.4643722 9.0509996
-115.61592 28.562418 3.9634502 8.0004997
-115.97942 25.781118 4.1399355 9.0155001
-115.88647 26.968843 4.263638 9.0019999
-115.92221 27.600878 4.3248625 9.0050001
-115.97809 26.697023 4.6527166 11.0575
-115.99447 28.769007 4.6473079 10.096
-115.74641 19.409468 5.0302467 10.1535
-115.82968 29.442591 4.9573212 10.098249
-115.93181 19.117666 5.2580495 9.1630001
-115.901 19.444803 5.2172122 9.1630001
-115.84119 19.684959 5.3707252 10.15475
-115.81119 20.678944 5.5663252 10.156
-115.82366 29.563234 5.2080755 10.099
-115.81764 19.322371 5.7159405 9.1630001
-115.93552 20.072495 5.7547903 10.157
-115.83376 20.718966 5.7270846 9.1625004
-115.69854 21.06526 5.7434382 9.6592503
-115.84008 21.292067 5.7213888 9.1625004
-115.89402 26.550062 5.8735242 10.0575
-115.96385 28.15077 5.9049015 10.018
-115.98011 19.112055 6.158103 10.1595
-115.79675 19.426428 6.2843862 11.15225
-115.80307 20.259895 6.1717157 10.655001
-115.88312 20.542494 6.1063843 11.149
-115.82286 20.927448 6.0666599 10.6535
-115.80379 21.643084 6.2824755 10.158751
-115.90688 22.039141 6.2777615 11.1505
-115.84192 23.123873 6.2121282 11.145
-115.91795 23.742186 6.3605452 11.15
-115.97401 27.661898 6.2011299 10.0075
-115.93243 28.26572 6.3059521 11.697333
-115.88713 28.435835 6.2844896 11.0225
-115.92278 21.197594 6.4129105 11.152
-115.89268 21.406418 6.5581713 11.1525
-115.77869 22.307547 6.5219884 10.161
-115.88114 22.86981 6.4024606 11.151
-115.89749 27.628248 6.4119177 10.1655
-115.93506 28.174131 6.4617944 11.0215
-115.86034 24.31246 6.8335996 11.152
-115.82135 24.432627 7.013555 11.1525
-115.63353 20.88591 7.7347445 10.149
-115.96563 23.743319 7.930016 11.0975
-115.7604 24.7052 9.4657011 13.141
-115.32287 19.384138 -1.9706626 7
-115.3015 16.647404 -0.93189549 7
-115.31568 16.351622 -0.5302034 7
-115.44744 16.692274 -0.63495177 7
-115.39411 17.073929 -0.69997936 7
-115.30077 17.2176 -0.66782922 7
-115.39275 19.059649 -0.52105916 7
-115.57999 21.619833 -0.63455647 7
-115.51801 24.087219 -0.54082239 7
-115.24464 16.56975 -0.36798906 7
-115.25181 22.135866 -0.0008832824 7
-115.52807 14.219841 0.39926308 6
-115.38953 17.339849 0.23446593 6.75
-115.5784 19.316301 0.15430155 8.0620003
-115.45541 23.015726 0.071489848 7
-115.31287 0.21928717 0.53658772 6
-115.5216 2.7572951 0.77476484 6
-115.45477 17.751387 0.56637746 7
-115.52542 18.545237 0.68718976 7
-115.50629 18.837666 0.57115376 7
-115.27512 22.739666 0.73856711 8.0310001
-115.23245 27.672934 0.72763854 7
-115.27615 28.927031 0.75318873 8.0299997
-115.25918 29.690903 0.64094716 8.0284996
-115.42921 0.40494293 0.82368737 6
-115.55406 1.3721482 0.83997017 6
-115.4277 4.268158 0.99513692 6
-115.29151 9.1213369 1.0740061 7
-115.56831 17.220293 0.80206215 8.0559998
-115.32778 17.831648 0.90526438 7
-115.55191 18.716753 1.1987996 7
-115.38284 20.216253 0.89609075 7
-115.20618 22.586329 1.0549893 8.0340004
-115.47941 25.210318 0.96864009 8.0375004
-115.33009 26.506712 0.9140026 7
-115.57266 27.485086 0.97990572 7
-115.55147 19.888464 1.2761605 7
-115.31202 20.417177 1.2039508 7
-115.26112 29.601862 1.5367454 8.151
-115.39463 17.70199 1.71971 8.1494999
-115.30722 18.562967 1.8072747 8.1514997
-115.37951 20.088799 1.9458889 8.1537495
-115.27072 26.107689 1.7167898 8.1470003
-115.41784 29.864971 1.9525219 7
-115.38145 8.1783438 2.164691 8.1455002
-115.20826 19.990255 2.6519134 8.1324997
-115.23495 20.455887 2.7003376 8.1464996
-115.38371 22.194071 2.4088376 8.1335001
-115.45192 25.872198 2.5589948 8.1365004
-115.33688 19.123259 2.8015032 8.1274996
-115.51472 20.255899 2.8186779 8.1335001
-115.54695 27.911005 3.0580404 9.1000004
-115.38547 26.918665 3.5404315 9.1198339
-115.25981 18.045252 3.997741 9.1324997
-115.31001 25.270247 3.9346089 9.0155001
-115.428 25.880503 3.7538784 9.0015001
-115.27521 29.470558 3.768415 10.063
-115.53237 17.574175 4.1384969 9.1335001
-115.54769 29.757616 4.2786121 10.0215
-115.41663 26.938822 4.704608 11.046
-115.37149 29.309668 4.7953329 9.1479998
-115.37614 19.124479 4.8446074 9.1610003
-115.54855 19.369249 5.0337739 9.6577501
-115.21665 20.198359 5.1673603 9.1625004
-115.46362 27.780666 5.1218152 9.1440001
-115.32834 28.803041 5.0749512 10.098
-115.41721 29.491589 4.9273748 9.446167
-115.22873 29.780695 4.9147344 10.1005
-115.34178 19.909887 5.2145586 9.1625004
-115.39827 20.591425 5.5160484 9.6550007
-115.38448 21.603504 5.8290148 10.157
-115.36636 24.082834 5.7607269 10.0575
-115.54694 20.684526 6.2729964 11.1515
-115.44482 21.594206 6.1270356 11.1485
-115.49857 21.617199 6.1178536 11.1495
-115.43562 23.742632 6.3990207 11.1505
-115.29877 26.131731 6.2013693 12.046
-115.29488 18.549265 6.6750751 9.1169996
-115.31153 22.009933 6.524199 11.152
-115.53521 23.854908 6.5598917 11.15125
-114.92699 18.780483 -2.0878713 8.0635004
-114.96059 7.957118 -1.0233226 7
-114.84887 16.625069 -0.94776583 7
-115.16714 19.717115 -0.84736633 7
-114.841 21.610558 -1.0850635 7
-115.01265 22.150127 -0.96269947 7
-115.11404 23.668125 -0.99090695 7
-115.03429 25.331852 -1.1115773 7
-114.89914 15.631894 -0.45796514 7
-114.98902 16.171085 -0.41530481 7
-115.03683 16.640621 -0.59747058 7
-115.14332 17.010439 -0.55696696 7
-114.85371 16.092237 -0.31536043 7
-115.15385 4.6475925 0.12493531 7
-114.94555 14.341743 0.37067387 6
-115.11745 0.1680937 0.5474788 6
-115.0396 0.48306742 0.75974607 6
-114.95283 1.1346309 0.75585181 6
-114.88577 1.8015773 0.79394227 6
-114.81749 2.222342 0.45124924 6
-115.05994 10.607171 0.44218546 6
-114.88453 17.359619 0.494093 7
-114.9595 18.016048 0.40771121 7
-114.85141 26.424927 0.71583682 8.0194998
-115.18787 1.5437595 0.8209635 6
-115.01181 18.919964 1.09106 8.0354996
-114.96735 24.078754 0.86554593 8.0345001
-115.08149 25.071033 0.93606561 8.0334997
-115.16681 26.571222 0.91918343 7
-114.85757 17.281891 1.5694715 7
-115.00587 17.81897 1.3032676 8.0404997
-115.15475 21.936651 1.5163777 8.1499996
-114.85265 8.6879416 1.7673726 7
-114.90849 9.0155039 1.7932835 7
-115.16428 17.970877 1.7325531 8.1520004
-115.08143 18.617905 1.6406984 8.1494999
-115.01037 20.985455 1.9039651 8.1534996
-115.18931 29.613594 1.6307571 8.1520004
-114.93847 3.5091889 2.3083496 7
-114.9876 8.2864714 2.1792073 8.1405001
-115.02163 19.780182 2.0947616 8.1545
-114.90855 18.862156 2.7756703 8.1342506
-114.94181 19.240555 2.9042032 8.1359997
-114.90674 28.164932 3.172303 9.1000004
-114.87085 1.6425749 3.2270184 9.1415005
-115.02399 24.681202 3.791714 9.0947504
-115.12292 25.232279 3.6410396 9.1780005
-115.19078 26.41659 3.6757779 9.1739998
-114.8798 17.370117 4.1072364 9.1330004
-115.03806 17.68507 4.045867 9.1315002
-115.17664 24.325949 4.218966 9.0159998
-115.0956 24.502567 4.1867733 9.0159998
-115.03152 29.752445 4.7705083 9.5932503
-114.95172 19.710405 4.8323307 10.1525
-115.04483 20.134796 5.0070438 9.6574993
-114.93153 24.807957 5.0144796 11.047
-114.89627 29.548515 5.1501708 10.0995
-115.00166 29.96072 5.1862731 10.0995
-115.082 19.765121 5.4372244 10.1325
-114.94829 20.245201 5.2598767 9.493001
-115.00729 21.038454 5.4965105 10.1555
-115.08451 29.693039 5.2470341 10.1005
-114.8959 23.660305 5.8983207 10.0205
-114.9473 25.790064 5.7717218 10.056749
-114.80434 26.119347 5.7218385 10.0565
-115.05641 26.531788 6.1651258 12.0455
-114.90262 25.019646 7.8606076 12.1425
-114.60513 18.79483 -2.5643916 7
-114.51375 25.954964 -1.1110996 7
-114.58755 26.217743 -1.0168698 7
-114.52522 6.9123421 -0.44096217 7
-114.4616 16.153053 -0.4575097 7
-114.75022 16.728165 -0.6082719 7
-114.57623 16.989794 -0.63034791 7
-114.77987 17.403168 0.39001673 7
-114.75861 17.832104 0.26276621 7
-114.78994 18.888237 0.1947488 7
-114.77869 0.060061034 0.57965362 6
-114.72004 0.69667357 0.67762643 6
-114.69391 2.1554532 0.43617886 6
-114.48151 2.6639254 0.41056451 6
-114.67346 4.9847989 0.65346283 6
-114.49153 6.6442089 0.62389904 6
-114.62103 9.4073219 0.65477216 6.6666665
-114.66963 9.9713078 0.46361861 6
-114.58829 18.079786 0.61862642 7
-114.47996 20.044384 0.49261174 8.0795002
-114.64289 9.1412935 1.1477448 7
-114.75654 9.5203428 0.84442675 7
-114.62703 8.5644951 1.3415298 7
-114.55615 9.9145279 1.554793 7
-114.64057 16.47513 1.4824356 7
-114.65408 17.51627 1.4766241 7
-114.55946 8.6507063 1.7764622 7
-114.66094 8.8636742 1.8960966 7
-114.46265 28.630867 1.8438329 9.0524998
-114.64983 8.2848673 2.1801925 8.1418333
-114.4804 8.3126965 2.7021286 8.1304998
-114.67289 8.9223938 2.4592967 8.1355
-114.45673 0.79878628 3.4865401 9.1285
-114.55077 1.8903353 3.4719198 9.1274996
-114.64641 17.39563 3.953712 9.132
-114.74586 23.406242 3.7647424 9.0212498
-114.60301 24.52985 3.7999768 9.1595001
-114.72073 24.64912 4.0353522 9.0170002
-114.74492 24.814362 4.1109328 9.0165005
-114.64903 25.888123 4.8357511 11.0465
-114.76717 29.71172 5.031117 10.099
-114.41908 23.960899 5.9368753 10.0585
-114.7019 24.115238 5.9486566 10.058
-114.79496 25.439224 5.8707504 10.058
-114.69418 26.146816 5.6943593 10.055
-114.62647 23.424477 6.3484244 10.65425
-114.49416 23.881653 6.6295948 10.655001
-114.71111 24.011246 6.7013016 11.1515
-114.49651 23.902838 6.8996906 11.15225
-114.45809 24.144705 7.1783695 11.1535
-114.66437 25.143311 7.2989559 10.1605
-114.53844 25.017395 7.8461809 12.1465
-114.39337 18.655998 -2.242022 7
-114.23397 7.9858284 -0.97171539 7
-114.21455 22.303303 -1.0221801 7
-114.30539 23.716827 -0.99777395 7
-114.3654 25.805367 -1.016477 7
-114.20477 26.245926 -1.0009979 7
-114.20778 26.836655 -1.1943165 7
-114.31682 8.510644 -0.53861994 7
-114.18331 26.740084 -0.58775538 7
-114.04359 26.825747 -0.69055355 7
-114.37041 28.311415 -0.076895967 7
-114.21801 28.500628 -0.23869091 7
-114.22774 0.9290064 0.19503091 7
-114.30467 2.5552635 0.38669604 6
-114.0864 5.6433616 0.18511508 6
-114.06699 16.374619 0.23680319 6
-114.17753 0.14576985 0.74445033 5
-114.14321 0.71215153 0.75763524 6
-114.1837 1.4984815 0.47835526 6
-114.08118 2.1510744 0.5939371 6
-114.31935 2.6350021 0.40844303 6
-114.20128 3.1242006 0.65419787 6
-114.21252 3.3750541 0.70076305 6
-114.04261 6.7542357 0.60632104 6
-114.14159 8.3688374 0.588085 6
-114.19874 8.6326895 0.70454282 6
-114.3941 18.933743 0.45491737 7
-114.21497 19.491676 0.72909528 8.0555
-114.30132 0.29283899 0.86488312 6
-114.11543 0.53055161 0.80784923 7
-114.21259 8.3072186 0.98687309 7
-114.17307 8.6753912 0.94311106 6.75
-114.06843 8.8319206 1.0342615 7
-114.1178 8.6028538 1.3038789 7
-114.31087 8.7208042 1.6820451 7
-114.13921 8.8379974 1.6476843 7
-114.16639 21.062016 1.6762979 8.1517506
-114.14171 26.031441 1.7904618 8.1520004
-114.03162 0.76402146 2.2152901 7.5764999
-114.14125 8.5161161 2.1416581 8.1407499
-114.06779 8.8770781 2.2487588 8.1367493
-114.19978 22.559267 2.1168733 8.1560001
-114.18643 8.1708698 2.7692938 8.1350002
-114.2313 8.5500431 2.5577824 8.1350002
-114.13389 21.691185 2.6999424 8.1317997
-114.20052 0.11303595 3.5139968 9.11625
-114.13565 1.9274557 3.4573574 9.1269999
-114.37482 23.101089 3.4460726 9.0240002
-114.27071 23.267109 3.4835713 9.0244999
-114.36935 23.455086 3.6053047 9.0205002
-114.01088 19.904057 5.0324965 10.153
-114.05268 20.05072 5.1171165 9.1619997
-114.23585 25.816235 4.8420062 11.0475
-114.29186 20.260654 5.4832916 9.6437502
-114.09312 20.652599 5.5949483 9.1619997
-114.17645 20.571604 5.9549179 11.147125
-114.16508 23.377583 5.8248029 9.6569996
-114.07458 23.634281 5.7893815 10.021
-114.03082 23.79356 6.0443215 10.157
-114.2494 23.736654 6.7827067 10.1595
-114.2823 23.831642 6.9277573 10.16025
-114.01415 25.076437 7.1730876 11.153
-114.30756 25.158209 7.2268691 10.6565
-114.1564 26.118685 7.3645854 11.1535
-113.83006 9.4173565 -2.068779 7.5427499
-113.73317 8.5954971 -1.9071345 7
-113.93919 8.8664751 -1.3643265 7
-113.80482 8.607131 -1.1876073 7
-113.92384 21.00531 -0.93659878 7
-113.93898 21.807354 -0.97391397 7
-113.67385 26.352085 -1.033846 7
-113.73717 7.3309202 -0.5137676 7
-113.88494 8.6870241 -0.55823863 7
-113.87645 8.9846516 -0.56697953 7
-113.72044 26.545218 -0.57011259 7
-113.66837 27.161556 -0.52622044 7
-113.63003 27.944399 -0.25071529 7
-113.66145 28.060165 -0.18265398 7
-113.68289 2.6534834 0.38895884 6
-113.88619 2.9729099 0.36994696 6
-113.99688 5.2723327 0.1476147 6
-113.8026 9.163785 0.33162764 7
-113.84174 9.2913141 0.28204519 7
-113.68821 19.65633 0.17977895 7
-113.89898 0.24459399 0.49878445 6
-113.66048 0.65703028 0.61217648 5.8571429
-113.78434 0.93922257 0.45273656 6
-113.8952 1.577144 0.50254655 6
-113.67225 2.2140551 0.67805713 6
-113.89931 2.4970946 0.71741569 6
-113.62421 2.8536081 0.67974997 6
-113.83959 4.0984225 0.62692934 6
-113.80753 5.1841464 0.62243772 6
-113.61475 6.9536142 0.58101058 6
-113.81593 7.5704303 0.47498503 8.0609999
-113.82288 8.6312494 0.67942494 6
-113.89471 8.8406773 0.75879407 6.5
-113.8072 28.613186 0.60027981 7
-113.76469 0.5820232 1.0692946 6.4000001
-113.91902 0.81724685 1.1012036 6.5
-113.78416 8.3193111 1.0933377 7
-113.80913 8.6059284 0.96513957 7.5225
-113.80936 9.0484104 0.89286733 6.875
-113.91286 28.677197 0.83734041 7
-113.73137 0.65184098 1.4018624 6.2941175
-113.64598 0.82512003 1.5504073 7
-113.95722 8.5709257 1.2027895 7
-113.89512 9.4029808 1.4245005 7
-113.78327 24.868919 1.2171437 7
-113.76112 28.339642 1.3610774 8.1417503
-113.68459 0.73535889 1.8231282 7
-113.92754 8.6600056 1.6917013 7
-113.73904 8.8561659 1.6761211 7
-113.65323 9.7512407 1.6223084 7
-113.70959 0.72449636 2.2129235 7.4825454
-113.6612 0.89201647 2.36639 8.0513334
-113.86221 8.1153908 2.3827941 7
-113.78764 9.4078798 2.0229383 8.1540003
-113.64142 23.293383 2.0587211 8.1555004
-113.66534 0.78249145 2.65117 8.0331659
-113.77766 0.91487753 2.6753879 8.0598841
-113.91162 9.3694735 2.5346248 8.1344995
-113.62321 24.955196 2.6284122 8.1309996
-113.70206 0.73617405 3.1750124 9
-113.78761 0.86777121 2.9846294 8.4274998
-113.62109 4.9686937 3.1037321 9.1455002
-113.71297 5.2082167 3.1262567 9.1479998
-113.63094 0.33054879 3.3238919 9.1118755
-113.66562 0.52624804 3.4819045 9
-113.70267 0.95044369 3.3645892 9
-113.82848 1.8654644 3.4320409 9.1259995
-113.83856 4.8011127 3.5057526 9.125
-113.85477 5.5065513 3.5135641 9.1265001
-113.95528 17.869656 3.9402068 9.1315002
-113.7713 26.487328 3.9353464 8.1759996
-113.60716 27.598614 4.3370605 9.1555004
-113.8508 19.048855 4.9271655 9.1619997
-113.67397 24.481377 5.1304855 10.585251
-113.8093 20.180605 5.5523047 10.156
-113.67619 23.13702 5.5857463 9.1610003
-113.92429 20.904305 5.608047 9.1615
-113.6769 21.028667 6.0264821 11.1495
-113.75946 23.788071 6.2665973 10.819
-113.8585 24.269768 6.513793 10.819833
-113.62892 24.406898 6.6593695 10.1585
-113.78605 24.566109 6.8982515 10.821167
-113.9255 24.281551 7.2473168 11.132
-113.23948 27.887545 -2.6805573 7
-113.38509 0.64684933 -1.7172468 7
-113.44686 0.2673786 -1.369931 7
-113.22333 24.499025 -1.2652613 7
-113.56125 26.530966 -1.2304603 7
-113.53041 8.5996904 -1.0408663 7
-113.26248 26.635756 -0.85441148 7
-113.30354 7.6660967 -0.61643654 7
-113.34752 8.7144709 -0.72710699 7
-113.38546 21.228987 -0.5774048 7
-113.44067 26.488945 -0.70053595 7
-113.2919 22.948759 -0.037755687 7
-113.54202 25.364935 -0.18955605 7
-113.26144 26.55546 -0.26396337 8.0570002
-113.49928 28.185232 -0.14786699 7
-113.36205 29.531998 -0.14581768 7
-113.31777 23.010384 0.20255725 7
-113.52187 28.078554 0.18812643 7
-113.53644 1.1082406 0.55268013 6.6666665
-113.58009 1.4964457 0.4817684 6
-113.44456 1.900214 0.51778942 6
-113.29658 2.2840037 0.48320344 6
-113.39054 2.4578388 0.59091598 6
-113.24555 3.0711503 0.56667972 6
-113.44361 3.812433 0.61356896 6
-113.56271 5.8413973 0.55872637 6
-113.49507 8.672245 0.64467537 6
-113.51608 20.26935 0.62812245 8.0649996
-113.29585 26.619246 0.68737411 8.0395002
-113.34428 28.099606 0.73989099 7.6866665
-113.33707 28.701601 0.73652923 8.0290003
-113.35445 29.305971 0.47754785 8.0129995
-113.23306 29.688515 0.61768019 8.0235004
-113.27404 0.25575691 0.83284301 6
-113.44572 0.67290127 1.0563487 6.6796665
-113.22462 8.3445187 1.1891428 7
-113.36731 22.149717 0.94912499 8.0380001
-113.28506 26.706154 0.94201589 8.0524998
-113.20403 28.552439 0.88590044 7
-113.59505 0.70718098 1.4249234 6.5
-113.56069 0.88638586 1.4835117 7
-113.51707 9.0744791 1.5983416 7
-113.36044 28.319195 1.4567989 8.1488333
-113.46964 0.7080577 1.8128436 7
-113.26912 8.4436121 1.7415063 7
-113.55191 9.7865286 1.9390863 8.1525002
-113.32996 28.245047 1.6596507 8.151
-113.5794 0.75416654 2.1484272 7.3851666
-113.41618 0.89397502 2.3487899 8.0790005
-113.58264 7.7491093 2.2353516 7
-113.51435 9.7960424 2.0606072 8.1549997
-113.23194 14.720871 2.1533554 8.1560001
-113.49411 0.74824387 2.7502937 8.0950842
-113.49499 0.90365982 2.589021 8.0863333
-113.57789 8.6493826 2.7811213 7
-113.47466 14.821454 2.5594225 8.1289997
-113.38438 16.602396 2.6176975 8.1335001
-113.55768 22.659975 2.566539 8.1315002
-113.23847 22.84716 2.6597586 8.1335001
-113.50418 0.13447271 3.0777109 8.1674995
-113.58707 0.79053211 2.8330231 8
-113.46822 0.85890621 3.0271156 8.6634998
-113.4189 1.4268768 3.1786852 9.1534996
-113.3017 1.9268137 3.1780629 9.1537495
-113.47987 3.7821643 3.1016605 9.1459999
-113.3291 5.3871608 3.0987499 9.1437502
-113.56795 0.37901586 3.2579708 9.1584997
-113.51089 0.61238205 3.4036155 9.0367498
-113.46651 0.94387388 3.3809264 9.0977507
-113.39812 1.3417169 3.2147722 9.156333
-113.24553 1.9811826 3.2020299 9.1569996
-113.43649 19.71414 4.0375032 9.1304998
-113.27061 19.724541 4.6977167 9.4906664
-113.27999 19.833742 4.9092388 9.4918337
-113.32761 24.563992 4.9788561 10.413333
-113.39993 24.963568 4.8594146 11.062
-113.21152 20.072701 5.319159 10.155
-113.55244 21.99798 5.5890732 9.1610003
-113.43521 20.365469 5.8680124 11.1425
-113.41023 20.534439 5.897953 11.1475
-113.20458 23.446592 5.7664337 10.0215
-113.44151 24.56941 5.6242919 10.0595
-113.54823 21.813982 6.1314478 11.15
-113.55946 23.235891 6.2123146 10.0575
-113.37029 24.609514 6.6843696 10.655001
-113.5916 25.241386 7.7534676 12.1395
-113.11565 27.98691 -2.6795876 7
-112.91508 23.730383 -2.1472526 7
-113.00061 25.96916 -1.3089345 7
-113.07869 28.92631 -1.3087342 7
-113.14445 26.468332 -1.1089269 7
-113.00313 21.419315 -0.58651876 7
-112.98168 22.976189 -0.42280081 7
-112.96227 26.532187 -0.69610751 7
-112.99555 28.707924 -0.70176756 7
-113.1593 6.5450158 -0.37342682 7
-113.13728 23.210852 -0.0047692093 7
-113.04987 2.5561278 0.37793183 6
-113.19911 2.9450822 0.3606365 6
-113.13437 3.9569857 0.29180765 6
-112.89855 4.3332386 0.2365213 6
-112.93239 23.137661 0.077763095 7
-113.03259 23.251083 0.096659631 7
-113.1586 1.6999477 0.47636732 6
-113.06514 2.6883032 0.61710471 6
-112.88733 4.1160879 0.57674021 6
-112.9008 5.6116257 0.71794456 6
-112.96703 8.2509422 0.47802123 6
-112.90714 8.5471096 0.70455188 6
-112.84366 22.621826 0.66763937 7
-112.8188 23.132246 0.40057781 7
-112.93845 23.237265 0.65466481 7
-112.88287 26.381517 0.70186955 8.0249996
-113.08817 26.527662 0.74625188 8.0375004
-113.10995 28.246155 0.54442531 7
-112.94565 5.6479187 0.94084501 6
-112.84669 9.6637497 0.82138991 7
-112.95197 22.150663 0.99507034 8.0325003
-112.91338 23.236448 1.0750353 7
-113.01221 26.5315 0.81866086 8.0367498
-112.97656 5.8483944 1.5955167 7
-112.97413 23.079931 1.3833082 7.7626667
-112.88321 23.32601 1.3136719 7.381
-112.95864 28.422218 1.3634412 8.1385002
-113.13935 9.1133442 1.7237556 7
-112.92014 23.158016 1.9730145 8.1545
-112.80268 5.5832195 2.1547499 8.0754995
-113.09575 9.1122437 2.2624867 8.1350002
-113.19028 14.507086 2.070394 8.1545
-113.18614 14.911612 2.2071011 8.1555004
-113.06783 5.5609627 2.7229269 8.1321669
-113.01737 5.679575 2.6770074 8.1291256
-113.15199 14.402632 2.5945587 8.1304998
-113.02308 23.511835 2.6030943 8.1304998
-113.19067 2.4966455 3.1633568 9.1532497
-113.0845 3.1471121 3.1357412 9.1520004
-113.13834 3.2885346 3.1203241 9.1505003
-112.82095 5.5152225 3.0929503 9.1385002
-113.01274 0.51879805 3.4681702 9
-113.16093 1.1390575 3.4836996 9.1309996
-113.14165 2.5473905 3.3024614 9.1359997
-113.01001 2.9818003 3.2034614 9.1370001
-112.9854 3.393862 3.3070962 9.1355
-112.91263 3.723978 3.3003836 9.1357498
-112.84295 4.3749237 3.3147323 9.1350002
-113.1439 20.012136 3.334033 9.026
-112.83449 11.502419 3.6332543 9.1269999
-112.94328 13.559626 3.6903226 9.1274996
-112.90417 14.490896 3.8494215 9.1295004
-112.83947 19.03087 3.9895442 9.1300001
-113.1905 19.998699 3.9370604 9.1295004
-113.01057 20.237696 3.9729128 9.1309996
-113.01292 24.200397 3.8472552 9.0143757
-113.02784 24.685266 3.6999526 9.0200005
-112.88728 24.924299 3.7758813 9.0200005
-112.94939 19.560448 4.0591912 9.1215
-112.9281 24.285986 4.0767813 10.032
-113.09011 24.472471 4.0792766 9.0165005
-112.92374 24.112837 4.5798874 9.0979996
-113.19011 0.35475391 4.8893838 9.1700001
-112.93535 19.855755 5.136198 9.1619997
-112.80946 20.182524 5.024003 9.1615
-113.02374 24.010107 5.0980477 9.0979996
-112.9879 24.633142 5.0905218 10.81725
-112.95216 20.23044 5.5246305 10.156
-112.93217 20.409704 5.4616227 9.1610003
-112.91088 20.998621 5.5092034 9.1615
-112.85841 21.443815 5.4993649 9.1615
-112.98344 20.323641 5.8325634 11.145
-112.86938 20.488129 5.7963109 10.6515
-112.86942 23.184439 5.7693768 10.156
-113.14838 23.823835 5.7660851 11.032
-113.13355 24.182888 5.8666887 10.108
-113.00915 23.048704 6.0271606 11.1455
-112.9951 23.505213 6.0924501 11.1485
-112.91114 23.937599 6.2501478 11.1495
-112.91589 24.212236 6.288312 11.1495
-113.05244 24.687115 6.3596406 10.1575
-113.10552 24.893587 6.751183 11.151
-113.07159 24.839895 6.8424735 11.1515
-113.01942 25.510946 6.9403706 10.1595
-112.56883 5.242723 -1.8193581 7
-112.56968 5.2556548 -1.5949275 7
-112.53983 5.4010978 -0.91860586 7
-112.77039 22.370302 -0.91138685 7
-112.45862 3.8473182 -0.44843563 7
-112.5183 5.6798325 -0.57783854 7
-112.74529 12.633554 -0.71199876 7
-112.41047 16.51819 -0.58032042 7
-112.45589 18.018324 -0.6655165 7
-112.62112 20.711054 -0.61130375 7
-112.52988 21.393318 -0.72950143 7
-112.6594 24.2064 -0.087949269 7
-112.72999 5.0223379 0.2014598 6
-112.47543 5.4854431 0.21207206 6
-112.57578 8.6984653 0.060061447 7
-112.52435 8.8054466 0.070692778 7
-112.75612 21.510082 0.16380465 7
-112.61444 23.38792 0.033859078 7
-112.64997 0.14864515 0.67620808 5.6666665
-112.55571 0.47887191 0.65333688 5
-112.79282 1.0067176 0.64926654 5
-112.55899 1.8248326 0.4519068 6
-112.75381 2.3515451 0.54102582 6
-112.60797 2.6559305 0.60935313 6
-112.7789 3.113884 0.56003344 6
-112.5433 4.5087352 0.49998823 6
-112.75048 5.4637299 0.69284606 6
-112.57673 5.6286178 0.77883363 6
-112.66264 6.9528346 0.5618 6
-112.69187 8.3658371 0.50163025 6
-112.69402 8.5396576 0.66013849 6
-112.46494 8.8310671 0.54418683 6
-112.44614 13.468233 0.50864559 7
-112.58809 13.754501 0.66177183 7
-112.67885 22.939819 0.67414248 8.026
-112.72646 29.466366 0.68880075 7
-112.71673 5.5858393 0.92970985 6
-112.78391 5.826107 1.1867518 7
-112.5173 9.7623472 0.92016125 7
-112.41866 14.080407 0.88919491 7
-112.63456 21.393745 0.95908499 8.0354996
-112.76573 23.433157 1.0798261 7
-112.59142 5.6931205 1.3701838 7
-112.62533 6.7685332 1.3520594 8.1665001
-112.45727 9.4203768 1.5287871 7
-112.56087 11.656309 1.4172432 8.0360003
-112.44135 14.159186 1.286981 7
-112.52671 16.163584 1.2863971 8.0360003
-112.4718 23.309624 1.520997 8.1389999
-112.7001 23.760658 1.5669724 8.1534996
-112.70153 5.7516627 1.771055 7
-112.60401 17.371778 1.9112771 8.1529999
-112.73062 22.939762 1.8524983 8.1479998
-112.74059 23.352165 1.8297663 8.1534996
-112.69027 5.4311581 2.0673826 8.0769997
-112.54549 5.7463613 2.2171617 8.0681248
-112.5611 6.2799048 2.281944 8.1599998
-112.64505 7.4451976 2.1870284 7
-112.65956 13.625612 2.3493159 8.158
-112.60771 5.5838456 2.7226627 8.1469994
-112.61982 5.6880283 2.6198778 8.1093636
-112.41698 9.5929499 2.4779313 8.1330004
-112.534 13.558107 2.4814656 8.1595001
-112.67124 13.704605 2.7287889 8.1339998
-112.55056 4.7284884 3.070334 9.1420002
-112.6115 5.0303836 2.8250871 8.1639996
-112.50902 5.7841487 3.0471492 9
-112.49602 13.675444 2.8195753 8.1344995
-112.48409 19.958139 2.9837103 9.0465002
-112.49075 0.36268571 3.468888 9.1285
-112.66695 0.6342752 3.4655623 9.1330004
-112.60324 1.0346453 3.464952 9.1306667
-112.73948 2.1986234 3.4416754 9.1280003
-112.55872 2.7563167 3.423944 9.1254997
-112.75612 4.5600853 3.4068754 9.1344995
-112.64092 5.3506751 3.3170407 9
-112.61713 5.6087451 3.3197961 9
-112.4321 6.2346873 3.3236728 9.1339998
-112.49204 21.736858 3.4342444 10.0655
-112.42866 23.298063 3.3798118 9.0235004
-112.49116 24.052008 3.4113364 9.0220003
-112.61892 24.679464 3.8340595 9.0985003
-112.7705 25.098049 3.8454447 9.0365009
-112.42113 18.879446 4.1655164 9.0179996
-112.49331 22.006483 4.2128797 8.0024996
-112.50053 24.564215 4.0712395 9.0165005
-112.70665 18.115166 4.7629399 9.0509996
-112.5823 20.254698 4.6443982 9.15975
-112.73002 27.016102 4.7002892 8.1750002
-112.77556 19.434923 5.0375547 9.0474997
-112.66794 19.912903 5.1627417 10.154
-112.51363 20.585558 5.0147433 9.4092503
-112.51836 20.988859 5.1472383 9.6574993
-112.74783 24.228968 5.1514983 9.59725
-112.77408 20.09075 5.3071675 9.1564999
-112.63989 20.497557 5.464541 9.6452503
-112.67047 21.018734 5.5611925 10.156
-112.63139 21.544308 5.4149404 9.6547499
-112.49937 22.615255 5.4757557 9.6577501
-112.42918 22.897575 5.4590688 9.5912495
-112.6012 20.015543 5.7867098 11.142
-112.67416 20.675865 5.7191372 9.8208332
-112.6198 22.483377 5.9491796 11.1415
-112.79232 22.989918 5.9615207 11.1475
-112.57461 25.115797 6.213696 10.65275
-112.74376 24.869478 6.5833473 10.158
-112.58209 25.439173 6.4855905 11.14975
-112.28281 18.136234 -2.2164614 7
-112.38207 0.13811338 -1.237766 8.0670004
-112.02271 29.277943 -1.3378036 7
-112.08295 7.4606295 -0.61706889 7
-112.2411 7.8597941 -0.57261258 7
-112.18729 11.940034 -0.48045468 7
-112.10094 12.197675 -0.73556185 7
-112.21602 16.514538 -0.61617768 7
-112.05915 3.8913355 -0.33026916 7
-112.3599 4.132751 0.27300751 7
-112.00298 4.9674559 0.18789709 6
-112.08181 8.2423353 0.0092028612 6
-112.08669 14.289418 0.12297226 7
-112.34158 15.7438 0.22750919 6
-112.13045 18.556042 0.220047 6.8333335
-112.18112 0.50858223 0.58438528 6
-112.04097 1.841668 0.46441755 6
-112.12471 2.1767912 0.4040992 6
-112.32597 2.4829419 0.52745026 6
-112.16823 2.8833704 0.57228953 6
-112.37489 3.2546532 0.54382384 6
-112.13918 3.6960344 0.57699031 6
-112.19321 4.7938223 0.46694005 6
-112.34349 4.9520926 0.52032942 6
-112.28393 6.2373724 0.49944997 6
-112.23801 7.1533461 0.53519803 6
-112.09406 7.2271795 0.48365188 6
-112.23258 9.5017653 0.69553226 6.25
-112.24039 9.699316 0.68218774 6
-112.17657 13.682306 0.55322146 7
-112.15932 14.008401 0.66976398 7
-112.28079 18.295816 0.62467015 7
-112.23735 18.678324 0.40721136 7
-112.15359 9.5564251 0.88020056 7
-112.16845 9.7244873 1.0956469 7
-112.14169 10.155658 0.97314495 7
-112.23808 13.721902 0.82579458 7
-112.25609 18.195856 1.01037 7
-112.20248 18.530891 1.0298504 7
-112.20522 5.5622969 1.5904249 7
-112.05485 9.5438471 1.5743364 7
-112.14266 17.472319 1.5507065 7
-112.11387 18.490116 1.2880164 7
-112.08775 9.5694208 1.9561055 8.1490002
-112.14678 9.68291 1.8859851 8.1514997
-112.2467 18.525642 1.6413811 8.1438341
-112.33537 7.6602778 2.1243551 7
-112.26828 9.5736303 2.0803728 8.1549997
-112.34057 14.045005 2.3686104 8.1584997
-112.32792 5.7885833 2.7243161 8.1295004
-112.17408 7.2895441 2.7103112 8.1625004
-112.00768 8.0514631 2.6710253 8.1619997
-112.08998 9.8138685 2.5238881 8.1269999
-112.14326 16.011364 2.7469556 8.1344995
-112.32253 5.3544345 2.958308 8.1545
-112.33631 5.6871848 3.0380514 9
-112.12867 0.33530524 3.457684 9.1280003
-112.25543 0.93348807 3.4578252 9.1317501
-112.31778 1.5144665 3.444917 9.1350002
-112.10739 2.044734 3.4414148 9.13025
-112.13706 2.7026796 3.4081879 9.125
-112.31695 4.5039344 3.3865492 9.1339998
-112.26537 17.98118 3.8064802 9.0159998
-112.12814 23.814459 3.8787453 9.0535002
-112.03928 17.678185 4.1393428 9.0209999
-112.2622 18.547674 4.0774488 9.0200005
-112.33067 19.338076 4.038475 9.0170002
-112.20599 23.346071 4.1034622 9.0170002
-112.12646 24.267698 4.089355 9.5384998
-112.25318 25.766001 4.1848831 9.0054998
-112.38954 18.944592 4.4953036 9.052
-112.15088 21.137554 4.6776772 9.151
-112.21653 21.389029 4.6613402 9.449666
-112.11424 21.8682 4.7901435 9.0880003
-112.39005 24.105455 4.5829902 9.1575003
-112.26614 25.177824 4.7302756 9
-112.2078 20.947969 4.9822202 9.1610003
-112.27055 21.532238 4.8906031 9.4910002
-112.10337 21.845259 4.8202367 9.1505003
-112.31831 22.080038 5.1430283 9.8221664
-112.10728 22.760603 4.9135714 9.0889997
-112.10701 24.170258 5.0678382 10.8155
-112.25854 19.907993 5.3552961 9.1549997
-112.35302 20.450062 5.3795428 9.1549997
-112.27493 21.908169 5.5375462 10.1555
-112.22482 22.852371 5.2971931 9.6537495
-112.26843 23.323111 5.5214281 9.6577492
-112.13677 23.767443 5.4189196 9.6427498
-112.19598 24.220251 5.4137778 9.6272507
-112.10979 24.548819 5.5609226 9.6542501
-112.23763 25.005888 5.5098367 9.15975
-112.2972 19.973696 5.770803 11.1475
-112.37746 21.999712 5.9009891 11.1465
-112.32991 22.755732 5.9308481 11.144
-112.20338 23.420599 5.9653058 11.146
-112.36034 24.686163 5.9061351 10.156
-112.3817 25.580805 5.7701173 10.155
-112.26244 23.80076 6.0465622 11.148
-112.26548 24.610533 6.1499357 11.1485
-112.20311 25.081926 6.0770655 11.144
-112.24943 25.222282 6.2949572 10.157
-112.24384 25.798792 6.1504507 11.1475
-112.31159 25.563398 6.4099956 9.1304998
-112.34735 19.59285 6.9975071 9.1230001
-111.65971 19.424332 -1.8635482 7
-111.80684 9.4557619 -1.0197247 7
-111.84119 16.613926 -0.97042352 7
-111.87605 25.56683 -1.1883237 7
-111.6442 12.166042 -0.46888486 7
-111.92374 16.821777 -0.61221474 7
-111.65391 14.104967 -0.13217804 7
-111.89247 3.8961265 0.26556471 6
-111.69155 8.2915678 0.19697325 7
-111.64516 15.080934 0.32613745 7
-111.80039 18.61768 0.12782454 8.0614996
-111.76186 0.055534888 0.78642464 7
-111.81483 0.74074614 0.56266439 6
-111.72629 3.7704415 0.56305408 6
-111.90134 13.928922 0.65867543 7
-111.83869 18.333912 0.79457498 7
-111.82509 9.7228394 0.92452914 7
-111.70966 13.895418 0.82515705 7
-111.95688 14.004519 1.0178974 7
-111.79688 16.943245 0.91955662 8.0550003
-111.96347 25.279446 0.93821222 7
-111.91983 9.7961931 1.5800873 7
-111.83774 14.175987 1.300859 7
