# .PCD v0.7 - Point Cloud Data file format
VERSION 0.7
FIELDS x y z intensity
SIZE 4 4 4 4
TYPE F F F F
COUNT 1 1 1 1
WIDTH 1257
HEIGHT 1
VIEWPOINT 0 0 0 1 0 0 0
POINTS 1257
DATA ascii
-37.259163 -82.461288 4.1794391 4
-37.430267 -82.221939 4.1609979 3.2857144
-37.469723 -81.853767 4.1316724 3.8
-37.412617 -81.043411 4.0659223 4
-37.428833 -80.6548 4.0544634 5
-37.419151 -80.218384 4.0266299 4.5
-37.254341 -79.950836 4.0190144 5
-37.30793 -79.142288 4.0029263 2
-37.452549 -77.263855 4.0447168 3
-37.382366 -76.978455 4.067028 3.125
-37.429798 -76.597176 4.0895324 2.6666667
-37.420185 -76.151588 4.0822306 3
-37.450031 -75.787033 4.0856586 3.090909
-37.366314 -75.461655 4.0509958 3.5454545
-37.400883 -75.082474 4.0330315 3.2857144
-37.31575 -74.68531 4.0355496 3.75
-37.526821 -72.469612 4.1676869 9.7652864
-37.53204 -72.328735 4.2784662 10.0467
-37.392628 -68.947861 4.1697502 3.5185184
-37.340626 -68.707405 4.3181405 4.8571429
-37.429234 -68.375114 4.3608694 5
-37.282497 -67.624977 4.3072424 5.3333335
-37.362156 -67.291718 4.2627535 4.5999999
-37.419376 -67.01548 4.1704497 3.7006171
-37.428257 -64.451775 4.044785 6
-37.292267 -64.146248 4.0049963 6
-37.54306 -63.925217 4.0446949 4
-37.515934 -61.526096 4.0372539 5.3333335
-37.481033 -87.017059 4.5845485 5.5999999
-37.427029 -86.64711 4.4393783 4.5
-37.246845 -86.022369 4.438971 5
-37.406231 -85.837708 4.4628491 5.25
-37.547749 -85.461792 4.4003921 6
-37.582298 -72.423729 4.4213486 11
-37.578724 -72.395241 4.6724267 8.0485001
-37.483883 -87.248413 5.0777082 6
-37.436695 -87.037926 5.0315633 5.7142859
-37.381737 -81.30822 5.13728 6
-37.466656 -87.227554 5.2596588 6
-37.368824 -87.002457 5.3301468 6.2753787
-37.384037 -86.787796 5.342793 6.5
-37.375175 -86.989296 5.8892326 7
-37.438904 -86.709221 5.8675337 7
-37.222694 -89.33699 6.3024254 10.57
-37.323742 -88.63736 6.3953934 10.0895
-37.328945 -87.240082 6.3709521 8.0615005
-37.34771 -86.997154 6.2748604 7.8633456
-37.443077 -89.715096 6.7078228 10.096251
-37.244438 -89.28244 6.7750068 10.095
-37.306332 -89.156357 6.7790732 11.158751
-37.398689 -88.637863 6.4447446 10.0895
-37.369152 -87.253326 6.4546866 8.0282001
-37.40477 -87.002556 6.5652452 8.0872421
-37.260609 -86.799553 6.4115086 8
-37.487701 -89.33358 7.092536 11.64425
-37.358433 -89.007439 7.0538087 11.454166
-37.56419 -87.205902 7.0949497 9
-37.368595 -87.019135 6.9395056 8.8320837
-37.345951 -86.661728 7.0323548 8.8554993
-37.436188 -89.646332 7.2301478 10.1095
-37.421036 -89.042633 7.2773299 11
-37.332867 -87.259232 7.2696834 9.0947495
-37.351616 -87.000198 7.3619685 9.6348944
-37.436787 -86.746895 7.3833766 9.5517502
-37.362797 -87.268768 7.8956327 11.1205
-37.317139 -89.613754 8.1737299 13.1445
-37.527748 -88.80439 8.3242025 12
-37.424004 -88.682159 8.320838 12
-37.531036 -88.907288 8.7875528 14.1215
-37.4618 -88.557503 8.5963774 13.159
-37.408012 -89.812859 9.0350666 14.122666
-37.276768 -89.019012 8.8906441 14.1175
-37.479774 -88.638199 8.9706678 12.9325
-37.219967 -89.86673 9.2158337 14.113
-37.233124 -89.454689 9.4452972 11.095
-37.518147 -88.861069 9.4347448 13
-37.484272 -88.65889 9.2922373 13.381249
-37.364223 -89.293686 9.9681044 13.1625
-37.495003 -88.942963 9.9055195 13.62425
-37.453075 -88.783699 9.7789946 13.6065
-37.275272 -89.330864 10.208982 14.475833
-37.455738 -88.977585 10.184542 11.17025
-37.422039 -88.615669 10.212093 10.0465
-37.498234 -89.671921 10.557581 15.1055
-37.339966 -89.274101 10.563872 12.9224
-37.318394 -89.039444 10.412151 15.106
-37.536755 -89.668701 10.833004 10.023
-37.362843 -89.354271 10.980756 10.476918
-37.294338 -88.923676 10.928514 11.57375
-37.421169 -89.971519 11.472253 13.1645
-37.273666 -89.395309 11.388854 14.119
-37.320507 -89.123337 11.429756 11.67275
-37.495464 -89.777504 11.811374 12.508332
-37.409706 -89.335739 11.765893 10.1785
-37.325043 -89.140457 11.618265 15.13375
-37.498734 -89.858871 12.105927 11.17625
-37.226059 -89.550537 12.131373 12.0855
-37.369606 -89.51738 12.480298 10.0025
-37.297462 -89.995766 12.884466 14.098
-37.373993 -89.333481 13.05901 15.1715
-37.522224 -89.836418 13.385876 13.425751
-37.459034 -89.295044 13.319883 15.1725
-37.203804 -89.148804 13.493006 12.179
-37.35973 -89.629379 13.708551 15.1735
-37.51812 -89.441879 13.794357 11.5774
-37.361122 -89.649811 14.018843 15.174
-37.412693 -89.379837 14.13893 12.176666
-37.337372 -89.124573 14.215208 12.1775
-37.089607 -73.483162 -0.96641272 7
-36.957054 -86.857048 0.15995373 8.0888329
-36.992683 -86.832741 0.63894928 8.0881662
-37.001358 -86.896439 0.82497919 8.0889997
-36.976677 -87.215881 1.3037277 5
-36.96957 -87.002594 1.4409589 7.3052502
-37.13446 -86.798965 1.4673938 8.1125002
-37.019245 -86.90712 1.811584 6
-37.05357 -87.225388 2.1038802 6
-36.894005 -86.896095 2.2813716 6.75
-36.871891 -86.756454 2.0113883 6
-36.859871 -86.802216 2.4308705 7
-37.118744 -86.761566 2.7150719 7
-36.945107 -87.340096 2.8909876 7
-37.091801 -86.951767 2.9442275 7
-36.89851 -86.609077 2.8262067 7
-36.980541 -67.390549 3.1815205 2.75
-37.01915 -66.935295 3.1705377 1.5
-37.01881 -66.592026 3.1655588 2.75
-36.81638 -66.182098 3.1556187 5
-37.045746 -65.673592 3.1348844 5
-37.022774 -65.367645 3.0807493 3.5
-36.84573 -65.031784 3.0176082 3
-37.045986 -64.147316 3.0558589 3.125
-37.010609 -63.961475 3.0273747 3.1428571
-36.835812 -63.317699 2.9525099 4
-37.010361 -62.977577 2.9460518 2.4000001
-36.988834 -62.248051 2.8920562 3.6666667
-37.024902 -61.716721 3.0503979 3.1714284
-37.005993 -61.433201 2.9145465 3.3333333
-37.00388 -61.028069 2.8407879 3.5
-36.979977 -60.648575 2.8246074 2.3333333
-36.991707 -60.049255 2.8163774 5
-36.896454 -87.318008 3.237571 8.0944996
-37.023613 -86.990364 3.5056777 8.0923748
-37.173306 -86.713394 3.288475 7
-36.839752 -75.110313 3.5998063 6
-37.177235 -72.702469 3.4785972 6
-36.934235 -72.258629 3.5690539 4.6666665
-36.981319 -71.80368 3.5579772 3.4000001
-37.004257 -71.337761 3.541579 4
-36.959332 -71.042191 3.4609671 3.0999999
-36.973244 -70.597984 3.3690431 3.25
-36.855476 -70.102364 3.279808 3.5
-37.052837 -69.851295 3.3479295 2
-37.038246 -69.401573 3.3088872 2.6666667
-36.945881 -69.045906 3.270407 2.8333333
-37.001335 -68.597816 3.3655553 3.3333333
-36.818245 -68.188042 3.5227737 3.3333333
-36.98864 -67.900955 3.3507066 4.5
-37.041512 -67.364616 3.3948426 3.4444444
-36.934399 -65.747818 3.3670597 2.75
-36.98983 -64.038582 3.3483641 2.261905
-37.076927 -63.982151 3.4486058 2.75
-36.954857 -61.678017 3.4247949 3.7666664
-37.09166 -61.557861 3.5026877 5
-37.032146 -87.322975 3.6929615 8
-37.170086 -86.962837 3.7874441 8
-36.932579 -86.78009 3.7716725 7
-36.907665 -86.22657 3.8506823 6
-37.019535 -80.168533 3.9757502 4
-37.019276 -79.819359 3.9929013 2
-37.052357 -79.443016 3.9722526 2
-36.991482 -79.031998 3.9623306 2.8333333
-37.118465 -78.726288 3.9365976 3.5
-37.016632 -78.265419 3.9136176 3
-37.080433 -77.842407 3.9101424 3.2
-36.992367 -77.385788 3.8812423 2.2222223
-36.950901 -77.017136 3.8866434 4
-37.072857 -76.632263 3.8359604 5
-36.903645 -76.127129 3.6612551 6
-36.987595 -75.931747 3.9970417 2
-36.971497 -75.354622 3.9108503 2.5
-37.007561 -75.029213 3.9607217 2
-36.946609 -74.643745 3.9465778 2.090909
-36.991249 -74.239311 3.9035232 2.5
-37.007378 -73.762131 3.8436444 2.6363637
-36.996788 -73.385971 3.8115597 1.9090909
-37.006203 -72.942116 3.7145526 3
-37.017849 -72.621025 3.6974039 3.1428571
-37.011528 -72.149361 3.6021221 2.6666667
-37.158463 -71.82238 3.62519 4.6666665
-37.111916 -71.370445 3.6125672 6
-37.127438 -68.883766 3.8757472 3.0916667
-36.982025 -68.606194 3.830806 3.2777777
-36.845379 -68.200645 3.8488438 3.6527779
-36.936565 -67.712082 3.9501567 6
-36.962646 -67.34848 3.8323996 2.9253967
-37.035007 -67.08139 3.9132199 0.94821423
-36.915211 -65.711624 3.6932025 3.2619045
-36.946262 -65.426331 3.8520653 2.75
-37.001293 -65.134186 3.9255142 5
-36.914902 -64.060707 3.7785034 4.185185
-37.046764 -63.938324 3.7631299 4.4444447
-37.018452 -61.667416 3.7274237 4.6923075
-36.957767 -61.511589 3.8139188 5.8571429
-36.92173 -60.876942 3.8874149 6
-36.848999 -60.598709 3.8354053 6
-36.919971 -60.160492 3.7480659 5
-36.850548 -89.399132 4.1767335 9.1315002
-37.184685 -89.167152 4.1866808 9.0895004
-37.009628 -87.523109 4.2375164 8.0869999
-36.961609 -86.954269 4.1947637 5.75
-37.143795 -86.627098 4.3392763 4.3333335
-36.825191 -86.087944 4.3730836 5
-36.892052 -85.711906 4.3059812 4.6666665
-37.050777 -85.412254 4.3428764 5
-36.821518 -84.935356 4.2733178 5.5
-37.032642 -84.6632 4.2492375 5
-37.056465 -84.170441 4.2164121 5
-37.045383 -83.700706 4.1907492 5.3333335
-37.033283 -83.349533 4.1997137 4.5
-36.962929 -82.948059 4.1948242 3.4000001
-36.924709 -82.675262 4.1896138 3.75
-36.998535 -82.205093 4.1283321 3.8
-37.049202 -81.681969 4.1280885 4
-37.0411 -81.300491 4.0845823 3.8
-37.067406 -80.9403 4.0723691 3.75
-37.124016 -80.643845 4.0603089 3.25
-37.067711 -80.274353 4.0359712 3.25
-37.118393 -79.843697 4.0343595 3
-37.149235 -79.435898 4.0238447 3
-37.10976 -78.972771 4.0293908 4
-37.112438 -78.650955 4.008276 4
-37.164608 -76.957588 4.0379 2.6666667
-37.041161 -76.615555 4.0590515 2.875
-37.027164 -76.233902 4.0391765 3.125
-37.041218 -75.840256 4.0325618 3.5
-36.949158 -75.528625 4.0500994 5
-37.037579 -74.968819 4.0153108 4.6666665
-37.000881 -74.553116 4.0296335 5
-37.037888 -72.368286 4.3363972 8.0232506
-37.18531 -68.842224 4.0567675 2
-37.05901 -68.611107 4.1759262 3.2142856
-36.934044 -68.234634 4.2097006 3.9749999
-36.90794 -67.785423 4.1719155 4
-37.017635 -67.383316 4.143239 3.8550727
-37.055534 -67.11451 4.1277943 2.2222223
-37.154331 -64.743271 4.0082774 6
-36.973576 -87.301575 4.5865479 7
-36.951736 -87.015419 4.5642076 4.8333335
-37.10614 -86.676109 4.4764371 5.6666665
-36.832844 -86.050217 4.5559096 5
-36.948101 -85.867798 4.5829444 5.3636365
-36.989815 -86.978661 5.0167413 5.5263157
-37.075123 -85.828957 4.8649683 6
-36.962337 -82.687477 5.0489531 6
-37.024773 -87.013824 5.4109893 6.426692
-36.94838 -85.957794 5.3744993 7
-37.09893 -88.845779 5.9889846 9.1359997
-37.078857 -87.297409 5.9250965 7
-37.028408 -87.03286 5.8730011 7
-36.956253 -86.775154 5.8837533 7
-36.925713 -89.654739 6.3291903 11.1195
-37.05056 -89.117142 6.1907606 10.081
-37.044647 -87.230217 6.1655483 7.559
-37.068283 -87.017395 6.2557564 7.9008889
-36.981628 -86.680229 6.1167951 8.1048994
-37.083981 -89.907547 6.4328761 11.1305
-36.934364 -89.404358 6.4770365 10.60975
-36.996975 -88.990959 6.4940915 10.59625
-37.131939 -87.271034 6.4745445 8
-36.984097 -86.995239 6.5856886 8.265707
-36.961288 -86.735718 6.57693 8
-37.029404 -88.933426 7.0364709 11.170188
-36.934418 -88.624161 6.9496708 11.1605
-36.935516 -87.273109 7.0775332 8.392333
-37.011326 -87.046539 6.9810925 8.7292881
-37.103985 -86.749184 7.126873 9.0539999
-37.027889 -88.923027 7.2583871 11.765167
-36.819511 -88.751053 7.3742113 12
-36.9151 -87.238823 7.4617553 10.1065
-37.066536 -86.977547 7.3716278 9.8235397
-37.081573 -86.627602 7.3596101 9.7373343
-37.158836 -89.065865 7.9297137 10.105
-37.126457 -86.718765 7.6559801 10.0975
-36.912373 -89.744659 8.1208992 12.1595
-37.088009 -89.450485 8.2999573 11.4935
-36.851448 -89.138672 8.0782061 12
-37.021782 -89.554886 8.4886246 12.823833
-37.120071 -89.68885 8.9905853 9
-37.081249 -89.303467 9.1926641 11.125
-37.142181 -88.572205 9.1397333 14
-37.052486 -89.482956 9.4958506 11.0885
-37.000523 -89.087219 9.2850027 11.60675
-37.07003 -89.337692 9.7925978 14.1585
-37.181057 -88.970078 9.7304201 10.027
-36.970402 -88.559341 9.6149578 10.037251
-37.039661 -89.610596 10.048749 10.0975
-36.897312 -89.410553 10.048542 10.099
-37.066437 -88.950729 10.184484 14.7715
-36.984222 -88.744034 10.172951 12.520124
-36.95092 -89.415298 10.630552 11.450667
-37.032345 -88.995461 10.511564 12.6675
-37.007881 -89.779266 10.987271 12.1325
-37.083233 -89.504639 10.935412 12.893875
-37.041412 -89.906349 11.545342 12.0985
-37.018909 -89.335289 11.339786 11.77746
-37.025036 -89.142365 11.485951 12.42
-37.035713 -89.637764 11.781382 14.457333
-36.912811 -89.356033 11.766603 12.897375
-37.002605 -89.114532 11.862809 13.1725
-37.046669 -89.67981 12.250463 13.67375
-36.960068 -89.386292 12.232008 13.17325
-36.968781 -88.981422 12.014861 11.0565
-37.18446 -89.644608 12.577048 12.1765
-36.954159 -89.457657 12.506451 12.508667
-37.103458 -88.90123 12.68826 12.0825
-37.172356 -89.736649 13.015793 10.1705
-36.877121 -89.29248 12.99501 13.4065
-36.933979 -89.295296 13.313773 13.509167
-36.944099 -89.151787 13.314509 11.176167
-36.987492 -89.662224 13.923243 14.175667
-37.084946 -89.388931 13.926612 12.179
-36.953403 -88.969772 13.853989 10.178166
-36.930138 -89.644684 14.101192 12.67725
-36.897507 -89.51136 14.238971 12.1785
-36.823601 -89.965347 14.459451 10.1785
-36.691616 -72.289772 -1.0915017 7
-36.575321 -71.831924 -0.86243224 7
-36.777679 -66.666809 -0.74072212 7
-36.513546 -64.40802 -0.78016019 7
-36.692905 -86.908333 -0.088153005 8.10075
-36.589657 -86.982918 0.13927601 8.0887499
-36.512222 -69.305878 0.39556453 6
-36.408665 -85.282585 0.77546728 5
-36.425861 -81.186989 0.60595256 5
-36.456081 -80.694374 0.58501011 5
-36.569164 -79.240913 0.52131927 5
-36.532539 -86.933136 1.0225945 8.0900002
-36.446579 -86.531631 1.1587442 5
-36.537914 -86.285027 0.84766406 5
-36.481842 -85.754829 0.85391283 5
-36.440468 -85.251053 0.83622211 5
-36.57193 -83.322685 1.0705732 5
-36.616909 -86.967255 1.380098 7.3016253
-36.671951 -86.941269 1.8001311 6
-36.596371 -86.709747 1.9637463 6
-36.517536 -87.31208 2.0495846 6
-36.527351 -87.142715 2.0803385 6
-36.594421 -86.666969 2.2166343 7
-36.595299 -72.485207 2.0852649 7
-36.589218 -86.914894 2.4375086 7
-36.712425 -86.679192 2.7549446 7
-36.584091 -61.551292 2.7892568 5
-36.449856 -60.557491 2.7925818 2
-36.514416 -60.193798 2.7483101 3
-36.729767 -87.30188 2.8853326 7
-36.667202 -86.896851 2.9276795 7
-36.571869 -86.743271 2.8159964 7
-36.669395 -76.233009 2.9650428 7
-36.403709 -69.119499 3.1814601 5
-36.785412 -68.440392 3.1831901 5
-36.466457 -68.085648 3.1840248 4
-36.564884 -67.752129 3.1769249 3
-36.625725 -67.392616 3.1659155 2.8333333
-36.576714 -66.989052 3.1508849 3.2
-36.657688 -66.547409 3.1343715 2
-36.603512 -66.193405 3.0963748 3.375
-36.522915 -65.862785 3.097676 4
-36.458824 -65.46154 3.0136321 4
-36.57642 -65.016914 3.0366485 3.25
-36.712116 -64.788849 3.0694416 5
-36.663273 -64.158798 3.0407302 3.25
-36.619961 -63.825665 2.9973807 3
-36.460129 -63.506641 2.9216239 3.6666667
-36.597687 -62.953697 2.9203765 2.8
-36.560394 -62.665413 2.9006152 1.8
-36.633858 -62.167534 2.866214 3.5
-36.67345 -61.653305 3.0782018 2.3333333
-36.622284 -61.483189 2.939539 4.3333335
-36.651161 -60.055531 3.1706371 2
-36.593964 -89.458115 3.3649991 9.0887499
-36.644791 -87.213745 3.5432813 8.1195002
-36.637074 -87.025185 3.4726675 8.1026154
-36.743614 -86.779282 3.27631 7.5527501
-36.431744 -78.652298 3.3933194 6
-36.517582 -77.97226 3.3513799 6
-36.528564 -77.517853 3.3247685 6
-36.759212 -76.983353 3.4002182 6
-36.563736 -75.879997 3.5669692 6
-36.784279 -74.611176 3.5697737 6
-36.431725 -73.984436 3.5900636 6
-36.646206 -73.410873 3.5443478 6
-36.521164 -72.500504 3.5721886 4.6666665
-36.620701 -72.22805 3.5614171 3.5999999
-36.623711 -71.743767 3.5356028 2.75
-36.581059 -71.378502 3.4484277 3.3636363
-36.639717 -71.00399 3.4001451 2.6666667
-36.554806 -70.662231 3.3622856 3.25
-36.535156 -70.201996 3.349586 1.75
-36.590073 -69.780396 3.288311 2.8
-36.563168 -69.32476 3.2713692 3.1666667
-36.655323 -69.04081 3.2727437 3
-36.542698 -68.675362 3.246387 2.6666667
-36.604126 -68.19738 3.2979209 2.2
-36.745525 -67.469276 3.3713868 4
-36.716599 -65.643593 3.3920836 1.3333334
-36.587418 -65.48571 3.4756367 3.6666667
-36.429287 -64.981758 3.4175534 2.5
-36.641468 -64.13768 3.3801186 3.2099998
-36.678162 -61.65163 3.3468103 2.7142856
-36.55822 -61.522076 3.4072809 3.511905
-36.478596 -61.058998 3.5207615 6
-36.424999 -60.498299 3.5891874 6
-36.569649 -60.14864 3.4487469 3.4583333
-36.601864 -87.261124 3.6916597 8
-36.507885 -86.999084 3.7879159 8.0077858
-36.625465 -86.727432 3.6597767 8
-36.461056 -86.028015 3.9655356 6
-36.562393 -80.541649 3.9859476 4.1999998
-36.62849 -80.177834 3.960149 3.6666667
-36.68668 -79.73452 3.9389119 4
-36.539692 -79.390442 3.943408 3.4444444
-36.55283 -78.980598 3.9376597 3.5
-36.565678 -78.551811 3.9000449 3.1428571
-36.549259 -78.167519 3.8749733 2.6666667
-36.683472 -77.812759 3.8759167 1.5
-36.574821 -77.405258 3.8176069 3.1111112
-36.61013 -76.963943 3.8248596 3.3333333
-36.551277 -76.590927 3.9602852 2.4444444
-36.53508 -76.205429 3.9642537 3.1111112
-36.561558 -75.804718 3.9716203 2.7142856
-36.608482 -75.449699 3.9588704 2.4444444
-36.587875 -74.978386 3.9456093 2.6666667
-36.587509 -74.619164 3.8990216 2.8571429
-36.56448 -74.223045 3.8425756 2.6666667
-36.596489 -73.807426 3.8244288 2.5555556
-36.635277 -73.452675 3.7866409 4
-36.621742 -73.020096 3.7293072 4
-36.590908 -72.642799 3.6731985 2
-36.492283 -72.344727 3.6700418 6
-36.748886 -68.262474 3.8091192 4
-36.720371 -67.762527 3.8222561 4.4444447
-36.782974 -67.414429 3.8344946 5.5
-36.738605 -65.616982 3.6455252 3
-36.698708 -65.427277 3.7501874 3.4000001
-36.610283 -64.954498 3.7694535 3.8636363
-36.539997 -64.608414 3.7269113 5
-36.651176 -64.222191 3.7345896 3.7272727
-36.644119 -61.404968 3.7208292 5
-36.429405 -61.060505 3.7070436 5.5
-36.592186 -60.213676 3.6559598 4.4000001
-36.698566 -89.500656 4.1011558 9.0909996
-36.625225 -86.902802 4.3658929 5.2788754
-36.620949 -86.704987 4.2927356 6.2915001
-36.699917 -86.165245 4.3439441 5.3333335
-36.576023 -85.871605 4.2968798 5
-36.775146 -85.459335 4.3242507 6
-36.497192 -85.017113 4.2220349 4.5
-36.477467 -84.405876 4.265348 5
-36.472721 -84.032303 4.2859674 4
-36.61021 -83.750366 4.1964417 4.25
-36.584084 -83.377922 4.2044296 3.5
-36.721828 -83.056297 4.1923451 3.5
-36.53371 -82.594673 4.0967917 3.6666667
-36.581951 -82.29747 4.0778122 4
-36.525848 -81.795631 4.0596228 4
-36.525211 -81.381813 4.0250883 4.6666665
-36.58234 -80.959137 4.0039959 4.3333335
-36.59108 -80.532722 4.021172 2
-36.503922 -80.200783 4.0415921 3
-36.535198 -79.70237 4.0177755 3
-36.752583 -79.318062 4.0129929 2
-36.448708 -79.198662 4.0015264 4
-36.446007 -76.81192 4.0013075 6
-36.48241 -76.662704 4.0117016 2
-36.681965 -76.18766 4.0283394 5
-36.695595 -75.831032 4.0436697 3.25
-36.661846 -75.443542 4.0221257 3.5
-36.789574 -68.322998 4.058877 4
-36.784035 -67.880013 4.0979495 1.8333334
-36.642181 -87.285835 4.6686449 6.3333335
-36.566643 -87.029198 4.6176777 5.3146563
-36.552872 -86.682259 4.49581 5
-36.555489 -86.057564 4.5872788 5.625
-36.67421 -85.947296 4.4729466 5
-36.546665 -81.290085 4.6021242 4.5
-36.44223 -72.654846 4.6524854 7
-36.468071 -88.661392 5.0695076 9.1389999
-36.599911 -86.986954 4.9638429 5.53125
-36.542259 -86.780754 5.1656828 6
-36.691418 -86.012886 4.9501824 6
-36.67804 -85.930435 4.9369993 6
-36.708744 -81.933411 5.0214567 6
-36.594437 -81.284492 5.1590796 6
-36.596275 -86.965912 5.4107127 6.3445787
-36.575783 -86.732353 5.2394242 6
-36.579655 -85.744217 5.3829761 7
-36.496002 -89.530487 5.8272843 10.158
-36.543819 -87.252296 5.8630414 7
-36.638222 -87.052132 5.8974652 7
-36.466309 -86.581322 5.834393 8.0889997
-36.636776 -89.415237 6.2204657 10.585792
-36.636387 -86.971184 6.2225256 7.9749045
-36.630276 -86.765549 6.2498527 8.073
-36.564575 -89.866364 6.5236397 10.65375
-36.51556 -89.336548 6.7392964 10
-36.712124 -89.001312 6.4655333 10.089
-36.785931 -88.752464 6.7029486 10.164
-36.626213 -87.207642 6.4153528 8
-36.58947 -86.98793 6.6131377 8.2994375
-36.610508 -86.795219 6.6300039 8.0432501
-36.431061 -72.511063 6.7075863 8.0854998
-36.604034 -88.712029 6.9272952 11.1605
-36.614422 -87.281693 7.0578833 8.5441246
-36.617138 -87.056091 6.9586301 8.8736334
-36.534828 -89.764168 7.3613291 12.13575
-36.570915 -89.265488 7.2461925 12.116
-36.706665 -88.612747 7.2902379 11.657374
-36.473724 -87.667419 7.2722507 9.1674995
-36.548851 -87.34803 7.3451486 9.4374638
-36.525513 -87.027336 7.2815886 10.1235
-36.640202 -86.708527 7.2843432 9.75
-36.621338 -88.669632 7.6717939 9.1125002
-36.444874 -89.923477 8.3369942 12.0655
-36.613983 -89.307953 8.3280916 9.0089998
-36.685829 -89.089966 8.2797289 12.83
-36.738583 -89.297523 8.5568419 13.157
-36.755177 -88.975258 8.7095194 9.0015001
-36.41901 -89.825577 9.2821932 11.1155
-36.674828 -89.410667 9.4270763 11.1035
-36.782238 -88.975899 9.2821102 10.054
-36.616783 -89.301064 10.353547 12.166
-36.659515 -89.167435 10.205002 13.135333
-36.542023 -88.749481 10.374717 11.1705
-36.76524 -89.377151 10.54652 12.64325
-36.694519 -89.610947 10.935677 13.101
-36.616917 -89.38932 11.051812 12.1055
-36.592216 -89.044136 10.994668 12.2575
-36.442291 -89.767914 11.488195 15.16
-36.644646 -89.315689 11.466075 13.111
-36.563637 -89.088905 11.47601 12.392437
-36.560043 -89.396164 11.827847 14.116374
-36.697575 -89.070168 11.76121 14.11575
-36.507107 -89.388603 12.110888 12.509915
-36.509312 -89.066734 12.227055 12.023666
-36.503181 -89.020073 12.412512 12.177
-36.672707 -89.42112 13.072371 13.13825
-36.450535 -89.796371 13.37554 13.676001
-36.658031 -89.380318 13.496718 12.510167
-36.546936 -89.157593 13.215283 15.1735
-36.509811 -89.743217 13.837573 14.1765
-36.473419 -89.413948 13.755857 11.844666
-36.592201 -89.164413 13.665112 12.1795
-36.47464 -89.748421 14.290203 12.510667
-36.410561 -89.53614 14.424038 11.1785
-36.306831 -86.870605 -0.052584089 8.0955
-36.187897 -63.417809 0.32905295 6
-36.238144 -86.928963 0.63665628 8.088666
-36.370926 -85.831009 0.79144329 5
-36.392212 -84.758507 0.7546314 5
-36.336391 -84.257599 0.76366454 5
-36.320786 -83.75029 0.74400234 5
-36.276077 -83.258484 0.72149986 5
-36.122116 -82.840569 0.73013616 5
-36.374535 -82.691193 0.66946042 5
-36.239159 -82.271805 0.67908853 5
-36.198643 -81.79393 0.65536344 5
-36.121433 -87.054291 0.98209995 8.09025
-36.194897 -86.583649 1.0424991 5
-36.38488 -84.759094 0.81686938 5
-36.168545 -86.988045 1.4388647 7.3316426
-36.355511 -86.618011 1.2657412 6
-36.263264 -86.952713 1.73616 6
-36.250397 -87.423767 2.0559733 6
-36.114998 -86.878883 2.2387178 7
-36.122726 -86.899796 2.462075 7
-36.25687 -86.645203 2.7434523 7
-36.074421 -73.5439 2.7941084 7
-36.359608 -61.337772 2.7613623 5
-36.193924 -61.035954 2.7663 3.3333333
-36.206554 -60.51667 2.7586672 3
-36.251102 -60.184708 2.7518289 3.75
-36.230042 -87.30909 2.8743196 7
-36.263756 -86.916229 3.1718876 7
-36.256264 -86.627785 2.8627863 7
-36.087574 -71.555283 2.870995 6
-36.278305 -68.772659 3.1526544 5
-36.111874 -68.207947 3.1827979 3.5
-36.223759 -67.678604 3.1854317 2
-36.223686 -67.296539 3.139591 3.25
-36.19949 -66.969109 3.1276968 2.6666667
-36.170135 -66.618668 3.102252 3.25
-36.269974 -66.179558 3.086859 3.5
-36.128185 -65.784058 3.0671334 1.6
-36.213951 -65.338646 3.0379789 3.6666667
-36.201321 -65.019638 2.9488196 5.5
-36.145958 -64.6147 2.9877963 1.7777778
-36.118206 -64.2715 2.9914639 4.3333335
-36.262394 -63.73624 2.954464 1.6666666
-36.154827 -63.404644 2.9227784 3.1666667
-36.100128 -62.977962 2.9035544 3.8
-36.170174 -62.483101 2.8739328 1.75
-36.339451 -62.381084 2.8903153 2
-36.294086 -61.808781 2.841522 2.8333333
-36.207066 -61.377842 2.8231192 2.75
-36.325138 -60.973667 2.8013875 4
-36.380268 -60.227974 3.1717966 5
-36.145489 -89.794075 3.5190816 9.0885
-36.141323 -86.971786 3.4537184 8.0112085
-36.003445 -86.776222 3.5454443 8.1025
-36.319729 -79.222305 3.4294908 6
-36.32299 -76.869339 3.2948463 6
-36.039257 -76.012253 3.3710811 6
-36.059502 -75.467178 3.3379936 6
-36.242146 -74.867081 3.295064 6
-36.314304 -74.284134 3.256778 6
-36.154556 -72.45636 3.5580735 1
-36.216705 -72.207039 3.5472636 3.6666667
-36.159351 -71.774986 3.4894135 2.6363637
-36.279297 -71.422432 3.4138672 3
-36.246632 -70.991142 3.365139 2.5
-36.157398 -70.661583 3.2976413 4
-36.18647 -70.209732 3.2786279 3.2
-36.18853 -69.849335 3.3118577 2.75
-36.211872 -69.443413 3.2760844 3.1666667
-36.140934 -68.965286 3.2575321 3.75
-36.212772 -68.64959 3.251085 2
-36.160088 -68.290169 3.2205377 1.6
-36.094067 -67.992966 3.2313104 6
-36.363697 -64.965485 3.4314373 4.75
-36.332432 -64.598274 3.3629127 4
-36.330757 -61.02557 3.4090543 5.6666665
-36.357754 -60.548252 3.4474592 4.4000001
-36.37328 -60.242531 3.561974 5
-36.199463 -87.310257 3.7004619 8.0847502
-36.10321 -87.025925 3.6905172 8
-36.14679 -80.558952 3.9688835 3.5
-36.217354 -80.26506 3.9593375 2
-36.224796 -79.659492 3.9519174 2.6666667
-36.109505 -79.573967 3.9018383 3
-36.054272 -78.977997 3.8942702 1
-36.226818 -78.604103 3.8979721 1.875
-36.339603 -78.280426 3.8794279 2.4000001
-36.189007 -77.83136 3.8815775 2.25
-36.219711 -77.446144 3.8491285 2.2857144
-36.15052 -77.038124 3.8249767 1.5
-36.18399 -76.610054 3.853816 3.0526316
-36.173031 -76.187874 3.8952041 3
-36.247833 -75.784294 3.901943 2.9166667
-36.187286 -75.380432 3.8869607 2.3076923
-36.214378 -74.997711 3.8564618 2.7666667
-36.195957 -74.551628 3.8220425 3.5833333
-36.118881 -74.178726 3.7915497 4
-36.175896 -73.830383 3.7784159 3
-36.249374 -73.467972 3.7533367 3.25
-36.083328 -72.933357 3.8183048 3.3659334
-36.138054 -72.635483 3.8335891 3.9533076
-36.290298 -72.306252 3.7727439 3.5
-36.367275 -64.552391 3.6069806 4
-36.384598 -61.269104 3.6274104 5
-36.382786 -60.719028 3.6463232 5
-36.233047 -86.843605 4.284194 5.0132504
-36.344391 -86.66217 4.3380647 5
-36.157711 -86.057304 4.1893859 5.3333335
-36.071091 -85.777473 4.3306255 5
-36.117889 -85.276054 4.2464499 4.6666665
-36.274521 -85.00618 4.2861166 4.4000001
-36.195992 -84.502678 4.2171111 4.5
-36.150467 -84.117897 4.194757 4.5
-36.211105 -83.816154 4.2126207 3.6666667
-36.197033 -83.526398 4.1622276 3.5
-36.180954 -83.038849 4.1408758 4
-36.279549 -82.63987 4.0921969 5
-36.251175 -82.283325 4.1390686 4
-36.190475 -81.824089 4.1047888 3.25
-36.144207 -81.397705 4.0866523 3.3333333
-36.319633 -80.922447 4.0446143 2.8
-36.192207 -80.613327 4.0468497 2.3333333
-36.276897 -80.090599 4.0122952 2
-36.33408 -79.874115 4.0042591 2
-36.344566 -76.274635 4.0146489 2
-36.059063 -72.893181 4.2142482 3.2194014
-36.135784 -72.624298 4.215137 3.7940321
-36.235043 -72.390594 4.1852474 4
-36.243679 -87.31678 4.6169763 6
-36.159401 -86.917686 4.5222139 4.5
-36.120228 -86.671219 4.4357619 5
-36.034092 -72.883934 4.619123 4.5802469
-36.122807 -72.606628 4.6065388 5.3769093
-36.25959 -72.389816 4.5554285 4.75
-36.160927 -87.239517 4.8948464 5.6666665
-36.214867 -87.061684 5.0080237 5.6999998
-36.261074 -81.294975 4.8703794 5
-36.038662 -72.879906 4.9693065 6.5423083
-36.122959 -72.59996 4.997591 6.7461247
-36.256504 -72.385056 5.0715241 6.6999998
-36.202133 -86.99514 5.4070659 6.3928571
-36.093754 -86.780975 5.3160477 6
-36.012608 -81.352074 5.223001 6
-36.047043 -72.876411 5.365087 8.3076925
-36.122486 -72.601654 5.4174409 8.3174372
-36.222443 -72.369453 5.4539609 8.25
-36.121822 -89.311829 5.850615 8.0279999
-36.289379 -87.279556 5.9065952 7
-36.192482 -87.063805 5.8729048 7.0475001
-36.061928 -86.667702 5.8693738 7
-36.040245 -72.838348 5.7707267 10.537037
-36.123089 -72.604233 5.8141637 9.717638
-36.200958 -72.377243 5.855823 9.8974352
-36.190025 -86.928749 6.2261748 8.0064735
-36.277851 -86.734528 6.2589836 8.1210499
-36.061275 -72.856888 6.1752381 11.529411
-36.117821 -72.57811 6.2079492 11.374737
-36.194363 -72.364922 6.1922269 11.186971
-36.229324 -89.303131 6.6023664 10.66025
-36.145187 -89.170418 6.4922876 11.1505
-36.297871 -88.723358 6.4495192 10.1635
-36.291718 -87.285248 6.5150137 8
-36.186787 -86.96476 6.6486897 8.3145599
-36.137005 -86.628639 6.5433507 8.2174168
-36.043625 -72.848869 6.6148911 12.674916
-36.131882 -72.584686 6.5826182 11.001268
-36.140621 -72.3629 6.5946922 12.725
-36.323898 -88.870148 7.1645408 12.1185
-36.075016 -88.678482 7.063694 11.468834
-36.173115 -87.246414 7.0392914 9
-36.229038 -87.033112 6.9969239 8.6831541
-36.075397 -86.50383 6.8636785 9.1525002
-36.070942 -72.832054 6.9937229 14.25
-36.142467 -72.580795 6.976018 11.004383
-36.156315 -72.351242 7.0277476 13.514874
-36.22937 -89.045959 7.2883039 12.12775
-36.242329 -88.691605 7.2643223 12.1415
-36.269287 -87.652512 7.3802719 8.1794996
-36.175816 -87.415627 7.4285622 9.4759989
-36.169098 -87.0196 7.3530045 9.8747501
-36.028252 -72.844513 7.415976 14.333333
-36.118839 -72.573921 7.316658 12.242138
-36.12048 -72.34362 7.3225212 14.25
-36.200497 -87.487656 7.6296616 10.1285
-36.167988 -89.812637 8.2675257 12.0695
-36.190609 -89.544579 8.3356209 11
-36.273434 -89.798859 8.5893078 9
-36.078369 -89.830688 9.32969 12.548625
-36.167934 -89.391968 9.4642506 11.0895
-36.235889 -89.536942 9.7736864 9.0220003
-36.016594 -89.21154 10.270834 13.1665
-36.398952 -88.834267 10.004417 10.0345
-36.169254 -89.318832 10.53176 10.028
-36.306522 -89.020912 10.591492 12.622
-36.210697 -89.919182 10.80639 10.0235
-36.161964 -89.320663 10.976964 13.63025
-36.231808 -89.517403 11.25734 11.0785
-36.300632 -88.980865 11.385005 13
-36.351711 -89.425278 11.911962 13.456833
-36.180534 -88.959877 11.819867 9.803834
-36.062737 -88.586563 11.900411 14.63625
-36.059227 -89.631401 12.141083 14.0985
-36.40012 -89.213631 12.019709 10.1775
-36.335182 -89.088745 12.115486 13.17375
-36.107311 -88.54705 12.224258 12.109501
-36.048229 -88.398468 12.167809 12.67625
-36.391556 -89.223854 12.519947 14.1745
-36.208588 -88.907104 12.597789 11.178201
-36.045815 -88.682426 12.552926 13.091001
-36.377663 -89.177109 13.192259 15.098
-36.050037 -88.596649 12.995861 15.174
-36.19035 -89.292953 13.291433 12.67775
-36.137753 -89.148224 13.318699 11.1785
-36.023247 -60.503426 13.220857 15.07
-36.370487 -89.673004 13.792641 14.175751
-36.343044 -89.324394 13.83675 12.510666
-36.065174 -89.18689 13.78977 10.1775
-36.31015 -89.86335 14.201973 13.510667
-36.196407 -89.414742 14.218909 12.178166
-36.147942 -89.266449 14.420635 12.178
-35.983109 -64.371475 -1.1556025 7
-35.917095 -65.930779 -0.74457693 7
-35.630569 -65.293968 -0.72686666 7
-35.628891 -87.050552 -0.19266255 8.0900002
-35.76701 -86.973083 0.14234592 8.098875
-35.90715 -64.58506 0.36824605 6
-35.650253 -86.932632 0.70648515 8.0889997
-35.999153 -80.936607 0.64547908 5
-35.980743 -79.440758 0.57834834 5
-35.628174 -86.991516 0.87541592 6.5447502
-35.668148 -86.754303 0.9576934 5
-35.811264 -86.933601 1.4164327 7.2224998
-35.851616 -86.972649 1.8496227 6.3333335
-35.869976 -86.716644 1.945977 6
-35.903114 -87.392677 2.0573881 6
-35.969952 -87.010986 2.392998 7
-35.818054 -86.651268 2.0470068 7
-35.694923 -86.897079 2.5525455 7
-35.763638 -61.28936 2.7792306 1.2
-35.762772 -61.005642 2.7554703 3.5
-35.80875 -60.592159 2.7313631 5.3333335
-35.857395 -60.205231 2.7282631 2
-35.957855 -87.317558 2.883805 7
-35.812138 -86.838737 2.8151536 7
-35.721458 -75.333199 2.9247994 7
-35.753723 -74.441162 2.8629806 7
-35.6735 -73.004417 3.0793219 6
-35.903496 -69.680695 3.162698 5
-35.663483 -69.154762 3.1223373 5
-35.785759 -68.783455 3.1773906 2
-35.741165 -68.241119 3.1808405 2.5
-35.804726 -67.847511 3.1680448 2.1428571
-35.775738 -67.433075 3.1387203 3.5
-35.770596 -66.91468 3.1107459 1.8
-35.800404 -66.574005 3.0773902 2.3333333
-35.808899 -66.19912 3.0424259 4.5
-35.768227 -65.71846 3.0219829 1.5
-35.761894 -65.440376 3.0167034 1.8333334
-35.874607 -64.884361 2.9977589 1
-35.820972 -64.583542 2.964922 2.875
-35.746513 -64.283478 2.9520221 2.7777777
-35.801311 -63.835106 2.9466081 2.75
-35.782089 -63.419174 2.9185474 1.6
-35.778877 -63.001682 2.8834584 3.1111112
-35.833054 -62.593746 2.8602209 2.4000001
-35.804913 -62.126762 2.8429883 2.2
-35.840881 -61.902817 2.8095 1
-35.826843 -61.461777 2.8096642 3.75
-35.908932 -61.104866 2.8075082 2
-35.823196 -86.947769 3.4895296 8.1000624
-35.873535 -86.307281 3.4585311 8.1052494
-35.757626 -76.405151 3.2892103 6
-35.85252 -72.958206 3.5372379 5.25
-35.834606 -72.509781 3.5623019 4.5999999
-35.816895 -72.130424 3.4704423 3.4285715
-35.773136 -71.902809 3.4232841 3.625
-35.793175 -71.571846 3.2512419 5
-35.864307 -71.085724 3.3577292 2.75
-35.809399 -70.545135 3.3018637 1.25
-35.745796 -70.206482 3.3069239 2.4000001
-35.855091 -69.715508 3.2808554 2.3333333
-35.775669 -69.474709 3.2587647 2.5
-35.806702 -69.098022 3.2593079 3.5
-35.78627 -68.489357 3.2195127 2
-35.992462 -88.628365 3.6081078 9.1070004
-35.784569 -87.279526 3.8333597 8.14925
-35.849712 -87.016579 3.7805476 8.085
-35.814434 -86.703751 3.7420831 8.0194998
-35.726322 -82.513504 3.6259418 6
-35.772446 -81.441727 3.9996197 3
-35.725044 -80.954849 3.9674115 4.5
-35.843182 -80.61824 3.961199 3.6666667
-35.743706 -80.163414 3.9663367 4
-35.763721 -79.821625 3.9074202 3.5
-35.766174 -79.451691 3.92541 3
-35.839882 -79.005974 3.8805406 2.375
-35.766037 -78.636124 3.8803108 3.2857144
-35.782307 -78.216118 3.8547921 2.8
-35.750469 -77.731537 3.8076797 2.8888888
-35.760559 -77.393517 3.8041265 0.5
-35.843151 -77.014702 3.7672045 1.3333334
-35.840382 -76.583237 3.7288337 1.75
-35.80698 -76.19561 3.8535533 3.1333334
-35.827923 -75.783165 3.8799362 2.8461537
-35.808109 -75.371422 3.8718309 4.2857141
-35.80302 -75.044731 3.8323929 3.2222223
-35.757732 -74.651802 3.7671125 3.8333333
-35.718262 -74.23243 3.751523 4.125
-35.848911 -73.823723 3.7281916 3.4285715
-35.786674 -73.417999 3.6480076 3.5
-35.916443 -72.98674 3.7581344 5.1111112
-35.924866 -72.635712 3.6199396 2.75
-35.930706 -72.323761 3.6336758 5
-35.856621 -86.827408 4.3340578 4
-35.817146 -86.667992 4.3547835 5
-35.717731 -86.151573 4.2991886 4.6666665
-35.809513 -85.385178 4.2412224 4.5
-35.97081 -84.876549 4.2290421 5
-35.728111 -84.612335 4.1688981 3.5
-35.740818 -84.201828 4.2305741 4
-35.798779 -83.741188 4.1714301 3.5
-35.856007 -83.411095 4.1591349 3.3333333
-35.633865 -82.963783 4.0683837 5
-35.970589 -82.556625 4.0666146 4
-35.944454 -82.177185 4.0582051 3
-35.641933 -81.825935 4.033186 3.4000001
-35.718483 -81.477936 4.0639882 2
-35.857845 -81.04335 4.0413222 2.2
-35.822048 -80.613754 4.0003324 3
-35.939892 -72.903931 4.1857119 6.5
-35.98708 -72.718567 4.1682291 2.3333333
-35.877419 -87.266869 4.6700573 6.0193334
-35.718979 -86.977776 4.5755396 4.7857141
-35.789295 -86.733307 4.554564 5
-35.953068 -72.861763 4.5885968 7.0726004
-35.948025 -72.703392 4.5869756 5.6039686
-35.930759 -87.23761 4.9262772 5
-35.762257 -86.97113 5.0135131 5.742857
-35.718502 -86.704796 5.1338115 6
-35.723537 -82.707916 5.137773 6
-35.638725 -81.767998 5.0970192 6
-35.99025 -72.841644 4.9807167 7
-35.983784 -72.686455 4.99401 6.4732141
-35.923561 -87.262566 5.2998662 6
-35.755955 -86.984505 5.398366 6.5542583
-35.809139 -86.717552 5.2753577 6.5227499
-35.940647 -82.818237 5.2502608 6
-35.956268 -72.856468 5.4255695 8.2419996
-35.955704 -72.697922 5.4024763 8.4096155
-35.787613 -86.973228 5.8792224 7.061614
-35.915279 -86.690239 5.8279753 7.2408328
-35.999153 -72.825623 5.8311515 11.25
-35.988064 -72.719543 5.7926803 10.75
-35.823235 -88.859352 6.0051603 9.1365004
-35.976727 -88.378418 6.3403368 10.1635
-35.799805 -86.983261 6.2647085 7.9319
-35.741955 -86.758148 6.1592121 8
-35.973572 -72.844055 6.2193861 10.4
-35.969307 -72.709816 6.1697116 11.85098
-35.800465 -89.746193 6.6819043 10.113
-35.773483 -89.335297 6.6473246 10.09225
-35.726387 -88.717239 6.5659566 11.155
-35.77562 -88.351822 6.6218443 11.1585
-35.78307 -86.946663 6.6467266 8.4404144
-35.833069 -86.753899 6.5716352 8.2857141
-35.943981 -72.830978 6.5595493 9.3852501
-35.944134 -72.688911 6.5183873 12.403101
-35.944134 -88.62175 6.843133 11.16
-35.861469 -87.217865 7.0054202 9
-35.783226 -87.002144 6.9990511 8.9699392
-35.854015 -86.725777 7.1128521 9.3928337
-35.963844 -72.830948 6.8871689 10
-35.967598 -72.686279 6.9533648 13
-35.99707 -72.39489 6.8891726 13
-35.860573 -88.582108 7.5314283 9.0407495
-35.735279 -87.308273 7.2062206 9.1684999
-35.798439 -86.996796 7.2629647 9.7933235
-35.796551 -86.783005 7.2103138 8
-35.958275 -72.851341 7.2785125 10.666667
-35.974804 -72.68013 7.3550239 13.333333
-35.999645 -72.399773 7.4295712 14.17
-35.708164 -89.777519 7.6754899 11.658251
-35.947029 -88.348351 7.767889 9.0469999
-35.879215 -87.650314 7.7586107 10.474833
-35.832542 -89.70623 8.2392807 11.9069
-35.686741 -89.534439 8.340003 11.070499
-35.823078 -88.839035 9.1397562 9.0085001
-35.773701 -89.711021 9.2898388 14.029625
-35.690361 -89.530327 9.2866173 14.141
-35.624668 -89.162354 9.5404425 9.1789999
-35.718048 -89.424347 9.9151678 12.0985
-35.805119 -88.926842 9.8227291 14.1145
-35.683975 -89.813766 10.316385 15
-35.814251 -89.30159 10.212654 12.526929
-35.74094 -88.969368 10.230636 13.0321
-35.758251 -89.918068 10.613044 11.783333
-35.823139 -89.345367 10.503716 14.106
-35.746815 -88.998291 10.626334 12.302227
-35.66436 -88.721939 10.512597 11.111667
-35.908222 -89.54689 10.815022 10.1795
-35.916424 -89.070824 10.83544 12.1745
-35.78495 -88.519043 11.116051 11.078
-35.733181 -88.806633 11.596148 11.099
-35.751019 -88.679688 11.451619 12.09475
-35.812679 -88.271133 11.451336 11.5905
-35.706539 -89.514275 11.870135 15.167
-35.77734 -88.652504 11.885104 12.758501
-35.665215 -89.431404 12.15833 12.814334
-35.809326 -89.175385 12.240757 11.0975
-35.763893 -88.55513 12.116885 13.654501
-35.722439 -88.344887 12.275056 13.17525
-35.77467 -88.852242 12.593411 13.164249
-35.86813 -88.698174 12.542321 12.423333
-35.770222 -89.237778 13.067493 13.127501
-35.886784 -88.919472 12.896199 14.176
-35.810932 -88.700089 12.879555 10.674749
-35.831196 -89.434082 13.502121 14.176001
-35.852169 -88.984123 13.532227 12
-35.848537 -89.453621 13.834056 14.482667
-35.715157 -88.987991 13.773248 12.133751
-35.767353 -89.388718 14.143975 11.481583
-35.629265 -89.093727 14.14414 12.1785
-35.214977 -86.934105 -0.68587661 7
-35.413689 -65.60041 -0.75211078 7
-35.420383 -87.00914 -0.22380757 8.0979996
-35.427464 -86.956528 0.13392964 8.0892506
-35.350918 -62.88913 0.29515254 6
-35.506763 -87.044769 0.66397101 8.0885
-35.536961 -87.045525 1.156058 5
-35.371643 -86.535759 1.0094224 5
-35.388313 -86.949821 1.3996248 8.0691671
-35.517872 -86.615211 1.2878854 6
-35.515305 -86.912216 1.8453134 6
-35.287537 -87.385071 2.0360308 6
-35.459206 -86.92157 2.2589886 7
-35.403404 -86.896324 2.6814485 7
-35.531013 -62.935013 2.7909458 4
-35.339451 -61.308861 2.7611542 2.5
-35.460606 -61.021542 2.7698519 1.6
-35.496124 -60.544903 2.7054412 5.25
-35.407558 -60.175274 2.7142088 1.7777778
-35.409744 -86.897247 2.8100681 7
-35.553162 -86.269501 3.1955619 8.0939999
-35.367924 -73.668083 3.1338809 6
-35.471581 -70.52182 3.1710031 5
-35.334755 -70.186569 3.1462781 5
-35.202332 -69.840576 3.1197162 5
-35.428951 -68.565933 3.1330788 3
-35.248878 -68.318008 3.1302464 2
-35.408577 -67.848396 3.1610041 1.1666666
-35.397755 -67.495132 3.1326084 1.75
-35.435329 -67.013481 3.0802109 3.4000001
-35.410439 -66.644028 3.0611374 2.1666667
-35.474987 -66.259399 3.0395415 2.5
-35.385826 -65.777443 3.0268872 1.6666666
-35.315628 -65.395744 2.990473 2.6666667
-35.451096 -65.067528 2.9937465 1.3333334
-35.40654 -64.604416 2.9633477 3
-35.391266 -64.148003 2.9389975 2
-35.414398 -63.795219 2.8996017 3.8
-35.357552 -63.238113 2.8848825 3
-35.384895 -63.048851 2.8702486 1.5555556
-35.383083 -62.605083 2.8567638 4.3333335
-35.424915 -62.138653 2.8255794 1.5714285
-35.368713 -61.917061 2.8120899 2
-35.363953 -61.429897 2.8047183 5
-35.263229 -87.468575 3.3340342 8.0725002
-35.385048 -86.949295 3.4686937 8.1048193
-35.379616 -86.682541 3.4510961 8.1040001
-35.346359 -75.926361 3.2762113 6
-35.268829 -74.122253 3.5767212 1
-35.309551 -73.836342 3.5915785 4.3333335
-35.368622 -73.384544 3.5469375 3.5999999
-35.366409 -72.953239 3.5283837 3.4000001
-35.358524 -72.629051 3.5290909 3.1764705
-35.455204 -72.175133 3.4508696 2.2222223
-35.384327 -71.763458 3.3936892 2.5999999
-35.392559 -71.391251 3.3708591 2.5
-35.466923 -71.022797 3.3111293 2.5
-35.299202 -70.569092 3.3075292 0.33333334
-35.371151 -70.123856 3.2785871 2.3333333
-35.377499 -69.751251 3.2687471 2.4000001
-35.471672 -69.423798 3.2345293 1.75
-35.395195 -69.034027 3.2353587 2.8571429
-35.351265 -68.604324 3.2166004 3
-35.431255 -68.102448 3.2108316 4.6666665
-35.413338 -86.945068 3.8156638 7.7858753
-35.407467 -86.68457 3.7180791 8.0422001
-35.220329 -84.639091 3.7479601 6
-35.280361 -84.107315 3.7208066 6
-35.392757 -83.58239 3.6914175 6
-35.582157 -83.051231 3.65819 6
-35.33102 -81.672798 3.9912016 3
-35.51263 -81.585419 3.9944599 3
-35.322433 -80.942635 3.9691582 3.3333333
-35.36039 -80.65741 3.9493937 3.4000001
-35.288483 -80.115952 3.927933 1.5
-35.408436 -79.822533 3.9216585 2
-35.43121 -79.385918 3.9286337 1.2
-35.446018 -79.028938 3.8751543 1.6666666
-35.399376 -78.551628 3.8558402 2
-35.457268 -78.168945 3.8341231 1.3333334
-35.467438 -77.841743 3.8220584 1.5
-35.471546 -77.377167 3.8365381 4
-35.455887 -76.973595 3.7879641 2.5
-35.363758 -76.622177 3.7627821 3.1666667
-35.408573 -76.135742 3.7130511 3.4000001
-35.369869 -75.789467 3.7230968 3.5454545
-35.358074 -75.382805 3.7348456 3.8571429
-35.314701 -75.034676 3.7294681 3.8888888
-35.328724 -74.613388 3.7236309 3.75
-35.385014 -74.1651 3.7133105 2.8571429
-35.427288 -73.733253 3.6749732 3.2727273
-35.431637 -73.415901 3.6580012 2.8333333
-35.404057 -73.137245 3.6283801 2.6666667
-35.399818 -72.656273 3.6436584 6
-35.362774 -86.863297 4.3232775 5.6666665
-35.460793 -86.604652 4.3305821 5.1666665
-35.480717 -86.290352 4.2812009 5
-35.201118 -85.747612 4.3240299 4
-35.303093 -85.465683 4.2607546 4.5
-35.351952 -84.925224 4.2666321 3.5
-35.508636 -84.63475 4.2752271 3.5
-35.286182 -84.284958 4.156496 4.1999998
-35.406918 -83.819519 4.1124821 3.8
-35.39217 -83.329819 4.0784979 5
-35.290752 -82.989578 4.0813847 4.75
-35.415115 -82.622284 4.0802827 3.8571429
-35.252399 -82.135033 4.0860744 2
-35.434692 -81.751747 4.0665264 2.8
-35.412376 -81.309601 4.1480336 3
-35.545921 -80.970711 4.0483413 4
-35.588005 -80.535492 4.024178 4
-35.241169 -87.235138 4.7515254 6
-35.395107 -86.979309 4.6177864 4.5714288
-35.407051 -86.730843 4.550777 5
-35.302116 -81.259232 4.6141911 4
-35.317284 -87.246529 4.9334922 5
-35.409775 -87.007362 5.0000224 5.6322289
-35.584576 -86.784988 5.007834 6
-35.582493 -82.156227 5.1171083 6
-35.312664 -81.242149 4.9251432 5
-35.514156 -87.280533 5.2770414 7
-35.414433 -86.990456 5.4155402 6.409091
-35.432682 -86.702805 5.2423468 6
-35.426945 -82.64315 5.213635 6
-35.417484 -86.971085 5.8404903 7.0606108
-35.484253 -86.707245 5.8267384 7
-35.396912 -86.956261 6.2199063 8.0153275
-35.494957 -86.77227 6.1491771 8.0609999
-35.451828 -89.255577 6.6314692 10.103333
-35.269268 -89.138855 6.4532065 10.0895
-35.571289 -88.485535 6.4634514 11.1515
-35.396725 -86.999886 6.6245451 8.3982506
-35.404766 -86.756805 6.5120673 8
-35.3148 -89.280899 6.8071051 10.0915
-35.387875 -87.231178 7.0846529 9.3706665
-35.405373 -87.025917 7.0153723 8.9606972
-35.258858 -88.413399 7.3043189 9.0349998
-35.328411 -87.273872 7.2891426 10
-35.435757 -87.092911 7.2732925 9.7161112
-35.239128 -86.791809 7.2746744 9
-35.282089 -89.758575 7.8590579 10.593
-35.583645 -89.758148 8.0535307 10.589001
-35.524277 -89.306412 8.2819986 12.160999
-35.255478 -89.062851 8.2429237 11.164249
-35.356327 -89.795998 8.6284695 11.371666
-35.422054 -89.331535 8.6540184 11.07825
-35.393921 -89.096527 8.5230074 12.160126
-35.299946 -89.686325 8.9373522 9.0427494
-35.558155 -89.279968 9.1613665 14.123
-35.460526 -89.141167 8.9659977 10.706666
-35.257511 -88.70002 9.0345917 9.0019999
-35.318939 -89.721504 9.406045 10.408333
-35.388157 -89.33223 9.3929377 11.75025
-35.285336 -89.0271 9.3571806 11.585375
-35.240948 -89.740669 9.7988558 13
-35.468948 -89.319962 9.7407913 11.871125
-35.462914 -89.037422 9.8370295 13.143136
-35.327286 -89.763718 10.261138 13.455917
-35.451786 -89.358253 10.210238 13.984499
-35.481354 -88.987961 10.235254 12.474863
-35.358768 -88.63842 10.262134 12.013312
-35.378307 -89.8983 10.492658 14.1085
-35.49165 -89.420479 10.692739 10.019
-35.319252 -88.985283 10.703417 11.115833
-35.406849 -88.661491 10.571095 13.056945
-35.358822 -89.318039 11.022668 12.09275
-35.245861 -88.933105 11.052651 11.0785
-35.592525 -88.681442 11.122315 11.0785
-35.44442 -89.632248 11.537694 14.0995
-35.372192 -89.38736 11.5022 12.347799
-35.364922 -89.0513 11.437924 12.304851
-35.565228 -88.747864 11.247558 11.082
-35.436939 -89.674232 11.803188 13.8175
-35.350716 -89.399269 11.767485 13.55025
-35.362926 -89.013931 11.768896 13.6185
-35.505657 -88.547638 11.818961 12.6325
-35.267471 -89.438919 12.017952 12.636499
-35.332054 -88.941635 12.202202 13.953083
-35.409012 -88.655685 12.235364 12.299624
-35.393658 -88.945992 12.587338 12.145667
-35.48716 -88.692986 12.499851 11.8354
-35.416183 -88.870224 13.027051 12.8375
-35.357864 -89.337143 13.336585 14.38475
-35.437016 -89.064812 13.384021 13.138
-35.44014 -89.024193 13.715296 12.4275
-35.47538 -88.680229 13.707935 12
-35.385571 -89.398506 14.155751 12.451833
-35.426018 -89.107101 14.528459 11.501249
-35.069843 -86.923645 -0.10594522 8.0895004
-35.008751 -86.94619 0.091409706 8.097167
-35.074371 -63.846832 0.33419925 6
-34.891251 -86.950684 0.72053546 8.0892506
-34.962299 -74.319473 0.52084231 4
-34.934944 -86.972519 0.98908287 7.0601668
-34.906445 -86.68438 0.88284057 5
-35.18565 -83.524429 1.0675131 5
-34.930984 -86.971756 1.4664323 7.1889997
-35.126801 -86.965569 1.8456365 6.1666665
-35.009258 -86.741699 1.8382344 6.25
-34.843445 -87.208466 2.0082633 6
-34.988956 -86.882561 2.3369975 7
-35.08976 -86.70517 2.2239394 7
-35.04163 -86.91703 2.6963456 7
-34.975239 -86.767433 2.6891119 7
-35.107891 -62.735935 2.7650924 4
-34.904606 -62.071198 2.7964575 2
-34.941658 -61.80352 2.7947979 2.5
-35.006485 -61.443203 2.7794642 3.6666667
-35.035046 -60.937637 2.7479846 1.875
-34.955696 -60.46804 2.6790068 4.5999999
-35.028896 -60.241276 2.6994021 2
-35.059189 -86.959099 2.9233501 7
-35.077038 -75.412598 3.1669452 6
-35.015427 -74.855827 3.1336374 6
-35.027798 -74.272362 3.0951645 6
-35.062061 -73.677437 3.054558 6
-35.048508 -69.506287 3.0949318 5
-34.885338 -69.015663 3.1346786 2.5
-34.90802 -68.609154 3.1814263 2.2857144
-34.987663 -68.047256 3.1400218 2
-35.101456 -67.73999 3.146615 5
-34.999443 -67.422661 3.1018631 2.5384614
-34.952484 -67.033516 3.0937717 2.3333333
-35.046314 -66.756577 3.083312 1
-35.074669 -66.205238 3.0185342 1.8333334
-35.033035 -65.769676 3.0034702 1.8333334
-35.033722 -65.395241 2.9863977 2.5
-35.009834 -65.01429 2.9601707 2
-34.959404 -64.627274 2.945416 1.5
-35.024357 -64.065468 2.9181857 0.66666669
-35.007374 -63.831985 2.8914349 3.25
-35.008316 -63.326378 2.8866529 3
-34.959389 -63.015991 2.856508 1
-35.05447 -62.630825 2.8435256 3.3333333
-35.178516 -62.092941 2.8247416 1
-34.887775 -61.9431 2.8053484 2.3333333
-35.011448 -86.910248 3.4812338 7.9912505
-34.896606 -76.020485 3.2126231 6
-34.970753 -75.814003 3.5744388 5
-35.114483 -75.34417 3.3863008 5.5
-35.010525 -75.005836 3.5128961 4.3333335
-35.00375 -74.501678 3.5435805 3.2
-35.047886 -74.175522 3.5416079 3.6666667
-35.087132 -73.771996 3.4878445 4
-35.001728 -73.398705 3.4636648 3.1666667
-35.113499 -73.169098 3.4637768 3
-34.958241 -72.608238 3.391454 3.6666667
-34.975151 -72.28183 3.430099 3
-35.004276 -71.812744 3.3646255 1.8
-35.046665 -71.351189 3.3541293 1.8333334
-34.971027 -71.003487 3.3525214 3
-34.965683 -70.610641 3.3223293 1.6666666
-34.965744 -70.360527 3.2852881 1
-35.047382 -69.763741 3.2369628 2.2
-34.997257 -69.433426 3.2416823 2.8
-35.111423 -68.784477 3.2022097 1
-35.017998 -68.382462 3.2043562 4
-35.002438 -87.279373 3.7083709 8.0943336
-35.080864 -86.813431 3.8929665 8.0550003
-34.974689 -86.733574 3.9793386 8.0535002
-34.985798 -85.682617 3.8044095 6
-35.093884 -85.158409 3.7766783 6
-35.003536 -81.820076 3.9822698 4.25
-34.90567 -81.057281 3.9426641 3.5
-34.966457 -80.536072 3.9339361 3.4000001
-34.951355 -80.208717 3.9390104 1.8333334
-35.044292 -79.863953 3.9092646 2.2857144
-35.106098 -79.338852 3.8340123 3.6666667
-34.97826 -78.964912 3.8412504 1.6
-34.978218 -78.640251 3.834415 2.3333333
-35.050182 -78.174751 3.7919304 2.1666667
-34.998077 -77.743294 3.7721276 2.75
-34.97987 -77.330101 3.6873493 5
-34.943901 -76.966347 3.705225 3.8
-34.954067 -76.678291 3.6405642 5
-34.981606 -76.168236 3.6555362 4
-35.001003 -75.920868 3.6587603 3.3333333
-35.091145 -75.282318 3.623167 2.8
-35.132545 -74.922523 3.6328228 2
