# .PCD v0.7 - Point Cloud Data file format
VERSION 0.7
FIELDS x y z intensity
SIZE 4 4 4 4
TYPE F F F F
COUNT 1 1 1 1
WIDTH 1260
HEIGHT 1
VIEWPOINT 0 0 0 1 0 0 0
POINTS 1260
DATA ascii
1.5025569 -107.71179 8.1331244 9.3922501
1.3074607 -107.52791 8.2085133 10
1.3767211 -90.941658 8.1728277 12.637023
1.3775901 -90.672066 8.1261597 14.338051
1.2023441 -90.304306 8.1568909 10.0045
1.3133439 -112.9792 8.4231949 9
1.4681634 -107.69841 8.5595093 10
1.2539958 -107.56376 8.4025173 10
1.4733267 -104.18015 8.6435289 9.5827503
1.556643 -91.7146 8.760006 10.008
1.3991778 -91.307556 8.5524206 12.168
1.2869297 -91.103508 8.524642 13.788918
1.3200666 -90.452179 8.7975597 15.1605
1.3476294 -90.213982 8.5993462 11.214562
1.5423664 -112.89973 9.0374489 10
1.4806348 -107.75597 9.0653896 10.566626
1.2450219 -107.39714 9.1050739 11
1.496883 -104.83648 9.0641727 10.635
1.4175899 -104.14886 9.0493202 10.30275
1.3808733 -103.80572 9.0123892 10.585501
1.3972174 -103.43474 8.9876509 10.17
1.4141641 -91.323654 9.0702982 11.0015
1.345211 -90.938011 8.9664602 10.6268
1.4359597 -90.562035 9.025444 13.143399
1.4366559 -90.232559 8.9955997 12.9235
1.3827511 -112.92152 9.4071875 10
1.2005854 -108.7112 9.4379673 10.1655
1.3758756 -108.11538 9.2580862 11.133
1.4739932 -107.79887 9.308856 10.707166
1.3085905 -104.50192 9.4142151 11.153
1.3091429 -103.76292 9.466917 11.121583
1.29061 -103.56516 9.2226763 12.1355
1.4223434 -91.35508 9.4062443 14.476666
1.5398563 -91.103065 9.3925381 12.177999
1.4492615 -90.557121 9.4400311 14.633875
1.4838893 -90.176193 9.3102026 13.671499
1.4045553 -112.99506 9.6648779 10
1.5579826 -112.79988 9.7303925 10.159
1.3718313 -111.15156 9.730341 9.0085001
1.5237808 -107.73685 9.6603222 11
1.5200795 -105.40182 9.762064 10.115
1.2106174 -104.41194 9.6178646 11.1575
1.2500449 -104.37579 9.8479824 11.107
1.2841632 -103.83649 9.8147278 11.057125
1.4811532 -103.3432 9.68713 10.11475
1.4656271 -91.236618 9.689537 13.671249
1.3382555 -90.970581 9.8053627 12.7615
1.5441046 -90.325317 9.781601 11.009
1.288675 -112.01493 10.183311 9.007
1.4152849 -111.8858 10.211798 9
1.2407649 -107.14403 10.081276 11
1.3498524 -104.07753 10.399568 12.105
1.348278 -103.94804 10.163301 12.56525
1.2397954 -103.54691 10.209731 12.1535
1.4834682 -90.907974 10.201891 11.7925
1.522579 -90.725174 10.310248 11.009251
1.2973166 -111.92276 10.699716 10.17025
1.5763589 -108.10593 10.674661 11.166
1.2170483 -107.12631 10.512314 12
1.4135685 -105.39526 10.481324 10.1795
1.4802761 -104.31564 10.670835 12.628751
1.2782041 -103.73902 10.514389 12
1.5806092 -111.95293 10.815207 11.1575
1.5457158 -108.20622 11.038509 12.1075
1.2003649 -107.20468 11.05549 12.106
1.3605882 -107.08448 11.05176 12.474833
1.3858554 -104.12154 10.927606 13.139812
1.521245 -111.19315 11.395275 11.118
1.2991847 -110.52396 11.486115 10.58725
1.580201 -109.87897 11.381975 12.108
1.5670034 -109.51188 11.516041 12.107
1.4140373 -108.18988 11.354939 12.61275
1.3264829 -107.07782 11.424727 12.437167
1.286853 -106.50211 11.523426 13.1495
1.207544 -104.11026 11.295845 13
1.2333229 -103.88881 11.445242 12
1.3261157 -110.59805 11.924398 11.17
1.4294893 -109.78064 11.989097 13.117
1.4906951 -108.16211 11.715085 13.11275
1.3756491 -107.21474 11.963508 13.1515
1.5205125 -106.96599 11.95821 13
1.523607 -110.06696 12.036581 12.162
1.3207097 -107.47807 12.149191 14.121
1.5512402 -107.09535 12.383751 14.1465
1.4603162 -106.4688 12.020192 13.106
1.2098948 -103.07455 12.281292 11.014
1.3592881 -107.07835 12.65519 14.111
1.5944355 -106.60818 12.471982 14.1485
1.4457073 -103.25298 12.61246 11.016
1.4240849 -102.45049 12.446283 13.1705
1.3204502 -111.05898 13.159378 14.143
1.4242063 -107.39604 13.02749 13.07325
1.5702535 -107.1358 12.953147 15.1375
1.5075361 -103.79446 12.998792 13.107333
1.3552154 -103.52254 13.178946 13.08575
1.4394327 -102.9314 12.945489 14.164666
1.4557034 -102.60477 13.004343 15.129875
1.3398671 -111.17106 13.318147 14.144
1.3971624 -107.73489 13.238358 15.1405
1.5518969 -107.05703 13.406996 15.1165
1.2994928 -106.36353 13.243839 15.11475
1.4384607 -104.56024 13.243313 14.163
1.5155489 -104.05721 13.496508 14.63375
1.5854772 -103.70328 13.398863 13.6695
1.3218819 -103.48414 13.434323 13.0865
1.425881 -103.10577 13.378624 13.0875
1.3634682 -102.53293 13.331414 12.0065
1.2812656 -102.22883 13.375818 12.0085
1.5981232 -111.5771 13.631699 14.115
1.3390292 -111.19674 13.769415 14.1475
1.3503613 -107.04063 13.750246 15.111
1.4546318 -103.70576 13.693113 15.158
1.4750262 -102.27997 13.772359 15.163834
1.2296785 -102.11137 14.229456 14.173
1.477663 -109.35783 14.785337 15.1505
1.5686704 -104.00166 14.730505 13
1.4472997 -111.03617 14.808795 15.1465
1.2168143 -106.7565 14.908813 12.114
1.2874851 -103.94814 14.932337 15.168
1.297919 -103.35403 14.90882 12.009
1.3268652 -102.52907 15.626989 12.0185
1.4905682 -103.37305 16.22114 14.58875
1.3338408 -104.33249 16.442041 14.0035
1.2493232 -104.44595 17.140791 13.0175
1.3070393 -104.16914 16.952686 13.51225
1.2767177 -104.8801 17.376383 14.009
1.3190056 -104.74176 17.387766 13.0175
1.3826871 -104.13765 17.402205 14.011
1.3470598 -105.29168 17.669802 14.0105
1.3466196 -104.94271 17.689444 13.0175
1.4406875 -105.44205 18.163351 14.731
1.7476971 -93.272614 2.0511088 7
1.7883402 -90.833572 3.4682264 6
1.8317937 -90.731857 3.4340887 6
1.7959952 -90.177834 3.4734621 5
1.8396404 -98.002968 3.7952425 5
1.6355618 -97.817833 3.8722556 5
1.8124284 -92.519691 3.8667572 4.125
1.8721238 -91.747299 3.7394261 4
1.9061478 -91.333145 3.726716 3
1.7342495 -91.027519 3.6883209 3
1.807579 -90.603157 3.6801858 3.3333333
1.7455047 -92.461815 4.2760687 5
1.7029215 -92.240372 4.298408 7.0819998
1.9535462 -93.514969 4.7553916 6
1.8270799 -92.48938 4.5893049 6
1.6096847 -93.001724 5.1553965 7
1.8111731 -92.661697 5.0133996 7
1.8120853 -112.63217 5.4264169 7
1.8143865 -112.68288 5.8129635 7
1.8317653 -112.74852 6.7466378 8.0263004
1.9104756 -112.92863 7.1008062 8
1.8771542 -112.76761 6.9401755 8.0393753
1.7307985 -105.60416 7.4348664 9.1137505
1.6173912 -105.55863 7.5556264 9.1090002
1.6590838 -90.756714 7.4644856 9
1.816238 -90.063026 7.536871 9
1.8972275 -112.91146 7.8760729 9.0527859
1.6758436 -105.63049 7.6751976 9
1.6800708 -91.037476 7.912333 10.415333
1.6834881 -90.460594 7.8865757 10.0015
1.751812 -112.93798 8.2512312 8.8571424
1.8894169 -91.50106 8.3754044 11.176
1.8252094 -91.0429 8.2124815 12.500417
1.7563609 -90.529243 8.1700659 12.823583
1.8894502 -90.150284 8.3408308 12
1.8810021 -112.9948 8.5025311 9.0388336
1.6571515 -107.75387 8.6759205 10
1.8675299 -104.8569 8.7086926 10.1595
1.8635663 -104.27579 8.6987677 10.1375
1.704493 -103.87131 8.5861073 10.16
1.6974137 -91.395386 8.4554672 10.591249
1.8190466 -90.991745 8.6299706 13.354151
1.818352 -90.58165 8.5880041 12.101251
1.8517313 -90.275314 8.628768 12.1405
1.7646853 -112.91254 9.0785789 10.0295
1.7388353 -107.50356 9.1300125 9.0004997
1.8413391 -104.92755 8.9913483 10.1195
1.823758 -104.76849 8.9662046 10.121
1.8787137 -104.20255 8.9881153 10.118667
1.752815 -103.90289 8.9232407 10.377125
1.6690137 -91.663391 9.0819092 13.112834
1.7707392 -91.394325 8.9706964 11.255668
1.8151957 -91.034607 9.0241899 11.537417
1.6934949 -90.46978 8.9983454 13.834167
1.6445096 -90.089935 9.0388222 11.08875
1.899016 -112.84045 9.3078527 10
1.7505023 -107.83835 9.4305506 10.108334
1.9277346 -104.05262 9.3288078 11.1055
1.6928325 -103.88305 9.3597164 11.872499
1.8841467 -91.584541 9.2118168 13.1665
1.7648576 -90.986198 9.2616282 13.811666
1.7563702 -90.556763 9.3748007 13.13975
1.9984313 -112.79004 9.7419062 10
1.7351723 -111.27951 9.8433809 10.1435
1.8071892 -111.14163 9.8360672 10.123
1.8268261 -107.77731 9.6238232 11.1475
1.6534035 -105.08719 9.8152866 10.1145
1.6838236 -103.61 9.9810438 10.113
1.6426898 -103.59468 9.9260206 10.1125
1.9223703 -90.004669 9.7902002 11.011
1.925055 -112.79527 10.25026 11
1.7861404 -111.32893 10.217934 11.1465
1.8340937 -111.1424 10.272713 11.148
1.6602243 -110.68867 10.115872 9.0159998
1.839921 -107.8289 10.129721 11.63725
1.8322273 -105.97801 10.180881 10.113
1.6608543 -104.30966 10.02063 9.0165005
1.7184215 -90.552635 10.156156 13.1195
1.7805177 -90.195793 10.241234 12.260401
1.8182094 -110.53073 10.763767 12.122
1.7393551 -105.37422 10.47963 11.169
1.823169 -104.50201 10.691879 13.124
1.7619289 -104.38756 10.437056 12.1055
1.7860405 -90.66909 10.425743 14.173416
1.7560669 -90.201889 10.529744 13.08475
1.7283025 -108.1756 11.156069 13.13225
1.6717085 -104.82428 11.173008 14.131
1.8149116 -104.56528 11.018693 12.442833
1.8868746 -111.35374 11.368979 12.1465
1.7902712 -110.98519 11.397286 12.148
1.7167876 -108.23003 11.355985 12.614
1.6196624 -109.64243 11.80292 13.1195
1.9930483 -108.20631 11.660451 13.1465
1.6284894 -107.00082 11.959089 13
1.6318837 -110.25718 12.282434 13.147
1.7285632 -108.84648 12.350531 13.151
1.7407296 -107.0454 12.175221 13.61375
1.6169345 -103.00667 12.310585 12.1755
1.617332 -111.20691 12.526383 10.016
1.6841997 -111.14685 12.737564 12.166
1.7470793 -108.86961 12.718076 14.145
1.88585 -108.25706 12.505659 14.1195
1.7473525 -107.16945 12.557095 14.1475
1.7284405 -106.55142 12.715281 15.1395
1.6460769 -106.06032 12.44202 15.131
1.7015407 -104.05711 12.740173 14.158
1.6357418 -103.44829 12.657915 13.17
1.9028201 -103.05592 12.640624 14.407999
1.8096629 -102.50629 12.5347 11.0165
1.8723874 -102.25302 12.467678 12.67425
1.642213 -109.48206 13.040825 10.015
1.8059176 -107.07495 12.928288 15.136375
1.8099593 -106.49436 12.870284 14.754666
1.8043983 -104.06126 13.133547 12.55375
1.6761695 -103.56914 12.937278 12.59
1.8077214 -103.09063 12.938752 14.606501
1.7153136 -102.50523 12.915924 14.539599
1.8697402 -102.35596 12.933249 12.050667
1.7231089 -112.54607 13.41748 11.0025
1.6111966 -107.066 13.235692 15.1455
1.9899793 -106.51836 13.435124 15.148
1.8674144 -104.1271 13.288683 15.1065
1.9636487 -103.30393 13.431091 14.1675
1.8115113 -102.91357 13.545897 14.169
1.6774716 -102.10072 13.35841 14.16775
1.816938 -106.01091 13.941954 15
1.7739074 -105.93341 13.879893 13.00875
1.6918231 -104.32259 13.657427 15.1055
1.9631971 -103.86434 13.968129 15.16
1.6997209 -103.26693 13.754069 15.16025
1.8364991 -102.97024 13.72058 15.1605
1.8945105 -102.04318 13.623895 15.163
1.850077 -111.27328 14.12652 14.15
1.7596669 -110.55172 14.14148 15.13275
1.7188901 -107.20502 14.052918 14.1635
1.8542392 -102.93822 15.352128 12.0185
1.732018 -111.63695 15.890062 15.154
1.6643839 -107.31177 18.331591 13.017
2.2587149 -92.456375 3.5709591 5
2.1686382 -91.401459 3.4663777 6
2.1602776 -90.966164 3.5501256 5.5
2.0728729 -90.71859 3.5698607 5
2.2998004 -90.322479 3.4121423 6
2.2678652 -97.88063 3.7649848 5
2.0875115 -97.486168 3.7442782 5
2.3477926 -94.465843 3.7850628 5
2.2569888 -93.910774 3.7193952 4.5
2.1796024 -92.494164 3.8704672 4
2.0629063 -92.355515 3.955394 6
2.3380034 -91.606506 3.9201775 4
2.186054 -91.39782 3.8030002 3.8333333
2.2643948 -91.009346 3.8348849 4.2857141
2.1153817 -90.667442 3.7343364 3.6666667
2.2574205 -90.164497 3.7551432 3.3
2.1816282 -92.479843 4.2347355 5.5999999
2.3087368 -91.195549 4.0102391 4
2.2130609 -92.514069 4.6117744 6.2307692
2.3672504 -90.159698 4.6920624 8.1695004
2.0021729 -113.45007 4.9596057 8.1075001
2.2112758 -92.714401 4.9287004 7
2.2001953 -112.68212 5.7963171 7
2.3416305 -112.84026 6.3452835 7
2.1495211 -112.72575 6.7466755 8.0370998
2.2003632 -112.94235 7.1080675 8.0440559
2.2115464 -112.75905 6.9214792 8.0171871
2.3927863 -90.584236 6.9549761 9.0719995
2.2301149 -90.022484 7.0124493 10
2.2824514 -90.481201 7.5725541 9.0159998
2.2287793 -112.89461 7.8869009 9
2.1733241 -106.89235 7.7916803 9.1125002
2.3589544 -91.503494 7.8916378 12.1625
2.3273978 -90.536224 7.6683111 9
2.2461874 -90.197655 7.6604075 11.037999
2.1943595 -112.89697 8.195219 9
2.2607114 -90.15818 8.2118082 13.815214
2.2412889 -112.92023 8.4378624 9.0217857
2.0267015 -91.397743 8.651226 15.157
2.2717083 -90.714104 8.7305918 14.1625
2.0908911 -90.392044 8.798789 13.099
2.1326642 -112.92763 8.9592247 10.061251
2.2194948 -104.86676 8.8144188 10.1635
2.2572758 -104.61582 8.8490286 10.1655
2.2658396 -91.765434 9.0752954 13.1005
2.3701315 -91.145309 8.950161 11.0905
2.1074867 -90.519775 9.0450878 12.285999
2.3825531 -90.235764 9.06178 11.0935
2.3122935 -112.89027 9.2965069 10
2.1222422 -107.69235 9.5060797 10.168
2.0769069 -104.17104 9.3359575 12.1315
2.0165164 -103.9725 9.4162235 12.121
2.3410738 -90.943466 9.3510332 11.555
2.198349 -90.610229 9.5040941 12.13175
2.108634 -113.00824 9.6835146 10
2.215888 -112.75954 9.7937326 10
2.0256002 -110.99776 9.6554689 10.1635
2.3975482 -104.94388 9.7775335 10.1395
2.1757848 -104.59058 9.9251451 9.0174999
2.2955287 -90.889977 9.7468138 13.1125
2.336062 -90.676353 9.8437405 13.60875
2.1250801 -112.94006 10.081175 10.556499
2.0636113 -106.41337 10.03166 10.114
2.106426 -104.49772 10.073853 9.0170002
2.2581975 -104.34958 10.196169 11.1685
2.1236651 -90.418388 10.230246 15.167
2.0564995 -90.331787 10.396097 13.1795
2.1121638 -111.01358 10.644633 11.61725
2.2628126 -110.68409 10.481589 10.1705
2.3761027 -107.33809 10.60825 12.1485
2.3964059 -106.9467 10.594893 10.003
2.1131577 -104.49692 10.646878 11.63825
2.1351471 -90.094055 10.601755 14.424125
2.2657242 -104.9884 10.810412 11.08525
2.2157938 -104.66208 10.978959 13.12475
2.1086421 -108.63416 11.391084 13.122
2.283576 -106.80697 11.243308 13.1145
2.1121628 -104.92666 11.567006 14.119
2.0993493 -104.52469 11.440982 14.146
2.3719351 -108.19983 11.918736 12.165
2.1894262 -104.98674 11.764758 14.11525
2.2321553 -109.50114 12.097356 13.147
2.105011 -108.22224 12.166191 13.108
2.0685904 -108.81631 12.48582 14.122
2.0690868 -107.08087 12.664186 13.162
2.0732276 -106.49603 12.576852 15.1315
2.1324921 -106.28178 12.554914 14.479835
2.363492 -105.71933 12.428443 11.0075
2.3512793 -102.82693 12.690796 14.65675
2.2129972 -102.67522 12.652137 12.58975
2.2877553 -106.15034 12.857959 15.1455
2.081965 -104.04308 13.000628 15.1515
2.0284753 -103.99895 12.899238 14.16
2.1634789 -102.83344 12.985381 14.11
2.2568238 -102.43136 12.984933 14.66025
2.0944963 -112.2357 13.436408 14.1225
2.2236362 -109.40689 13.367883 14.6185
2.2529538 -103.2264 13.209945 11.0185
2.2844546 -102.46281 13.267161 15.105
2.1266541 -102.22407 13.255086 11.019
2.1711068 -111.65257 13.61839 14.1155
2.3364313 -111.41653 14.499923 14.153
2.2107742 -111.16177 14.658353 15.118
2.1937208 -106.33678 14.730322 13.1755
2.3301351 -105.32993 16.734848 14.0015
2.0969884 -103.83286 16.757338 15.175
2.2900906 -104.07079 16.968643 13.511749
2.5372331 -92.793518 2.1564844 7
2.4282184 -93.708664 3.6815312 4
2.5634625 -92.581047 3.9585304 4
2.6995862 -91.302185 3.9754324 4
2.6283984 -91.075981 3.8413656 4.6666665
2.5967329 -90.554932 3.8240876 5.2727275
2.5679107 -90.158012 3.7947657 3.4000001
2.789691 -93.51989 4.3550882 6
2.7824914 -92.961403 4.3548832 6
2.5932436 -92.525261 4.2157698 5.4545455
2.5072718 -91.231575 4.031014 4
2.6935735 -90.66272 4.1725898 6
2.6683905 -90.191628 4.3978362 8.1695004
2.5467196 -106.93562 4.5971169 6
2.7315476 -93.164673 4.5050859 6
2.5953009 -92.597786 4.5890961 6.2727275
2.6178734 -90.566246 4.4923043 6.5423751
2.4215491 -90.232445 4.4309287 8.1695004
2.5237105 -107.69016 5.0338674 8.1125002
2.6493902 -92.913277 4.8255711 7
2.5900588 -90.667091 4.928153 7
2.7673004 -90.487167 5.4107103 8.0562496
2.6229744 -112.63941 5.781033 7
2.7804859 -90.516388 5.622488 9.1125002
2.4829998 -112.58084 6.2247615 7.539
2.5801826 -90.573914 6.2383962 8.0007219
2.7004442 -112.92163 6.742753 8.1169996
2.6153603 -112.71379 6.724288 8.0596256
2.741466 -90.153397 6.4557395 9.1210003
2.5101318 -112.92848 7.1138582 8.0475998
2.7252111 -112.73257 6.9318933 8.0316
2.7682197 -91.662384 7.1339421 10.056499
2.6080537 -91.423111 7.129178 10.083
2.6204526 -90.423981 7.1546807 9.5025005
2.6991744 -90.321243 7.0262122 11.456555
2.4399748 -107.55315 7.5710897 9.1137505
2.6759734 -92.256981 7.5009356 9.0115004
2.6965539 -91.632233 7.4253874 12.367126
2.7483764 -91.477554 7.399528 11.10375
2.6349885 -91.046394 7.4766026 9.3743334
2.4486804 -90.621956 7.5959601 9
2.6995516 -90.217827 7.3930569 12.257199
2.5666361 -112.87828 7.8764644 9.0458126
2.514838 -107.61279 7.7187142 9.1125002
2.7222002 -92.541298 7.8067656 10.725499
2.6933057 -92.217194 7.7673898 10.092625
2.7357769 -91.612282 7.7831988 11.166
2.6676083 -91.301697 7.8271446 11.762417
2.7122889 -90.950951 7.7397475 11.113833
2.603127 -90.581993 7.7549272 11.0641
2.6094172 -90.195511 7.789104 12.180319
2.5373969 -112.88203 8.2245607 9.0180826
2.7104809 -104.42601 8.309351 10.152
2.6743045 -92.52317 8.1346617 12.8255
2.7291188 -92.195816 8.2353582 11.113
2.5923185 -91.916626 8.1137629 13.893063
2.5968835 -91.378395 8.1533365 14.901
2.71329 -91.003006 8.1420336 12.9125
2.6505837 -90.479561 8.2214184 12.435166
2.5573723 -90.131866 8.1935329 12.397368
2.6284361 -112.97273 8.4803734 9.0642147
2.6713862 -105.30745 8.748951 10.1565
2.5533602 -104.47253 8.7238579 10.16175
2.7326567 -91.757072 8.7820663 12
2.7529109 -90.400108 8.75735 14.1635
2.6261518 -90.202515 8.56598 13.672945
2.628402 -112.90724 8.9976988 10
2.7025573 -105.35803 9.1670856 11.1485
2.6232026 -104.81482 9.0744953 9.0118332
2.6260145 -104.60479 8.8884993 10.05725
2.604753 -104.18595 9.0718536 10.104
2.6138096 -91.758194 9.0177794 12.55175
2.6302798 -90.998924 8.9924879 11.773334
2.6401079 -90.620834 8.9093037 10
2.6188188 -90.079811 8.976881 13.444667
2.5537133 -112.89465 9.3110809 10.0219
2.5440264 -111.51234 9.5398092 10.1565
2.4416363 -90.954826 9.5973558 14.1
2.5961814 -90.578972 9.5285482 13.09575
2.5551326 -90.198303 9.3962889 10.717167
2.671279 -112.87453 9.6918793 10
2.7335598 -111.11555 9.731452 9.0074997
2.6541877 -106.65774 9.8933525 12.1345
2.7438369 -103.31083 9.983779 10.114
2.5547163 -103.06586 9.6785707 10.1595
2.4416914 -110.93846 10.115478 9.0159998
2.5457146 -110.79205 10.175008 9.0155001
2.4483652 -107.08414 10.371029 9.5957499
2.4723787 -103.43739 10.182384 10.1135
2.4191639 -91.149376 10.204059 12.002
2.5745497 -110.88218 10.729199 12.132
2.5015252 -107.2326 10.609469 11.167
2.5240662 -107.10159 10.774526 11.1685
2.6285291 -104.98631 10.669626 10.723
2.5192606 -107.29179 10.914248 13.132
2.7182367 -104.984 11.139836 11.1735
2.548588 -104.71666 10.897326 12.16
2.5320263 -107.5554 11.257306 13.12
2.5493231 -106.69201 11.402846 13.112
2.6889386 -105.34409 11.579334 10.018
2.5992479 -104.91827 11.399363 13.387625
2.7883856 -106.02393 11.992521 14.1175
2.6638346 -104.96199 11.744076 14.1475
2.6550817 -105.27689 12.219989 15.1345
2.5722485 -104.15331 12.331777 13.06625
2.6542397 -103.79778 12.113758 11.0075
2.6935768 -109.42813 12.793139 14.1205
2.7603731 -108.53088 12.553715 12.1155
2.5767002 -106.5322 12.414424 14.112
2.7215543 -104.24848 12.43857 15.117
2.5298007 -111.75229 12.996232 11.001
2.6221025 -109.19655 12.888186 14.118
2.6121194 -107.47725 13.091002 15.1385
2.6774769 -105.89761 13.030384 13.825833
2.4504001 -102.23644 13.070735 14.167
2.6644633 -111.68166 13.326894 14.1335
2.6488395 -108.75368 13.564062 11.0145
2.7567794 -105.66312 13.373957 14.65475
2.5490856 -104.72145 13.460485 12.003
2.6289093 -105.58449 13.813353 14.165
2.5428472 -111.74085 14.279647 15.135
2.4399414 -111.20612 14.344277 15.142
2.5432208 -110.71431 14.227435 15.12925
2.7305689 -105.31864 14.380754 12.0125
2.7973034 -103.2453 14.77298 15.168
2.7802193 -103.16912 14.689329 12.0175
2.5605619 -112.33755 15.011302 15.1185
2.5082662 -111.57369 15.004806 14.16
2.7993798 -103.58636 15.002384 12
2.7619247 -103.64656 15.292382 13.0065
2.7268 -104.26214 16.284525 13.733833
2.5456333 -104.50293 17.286671 13.018
2.9938755 -92.678658 2.1865175 7
2.9924088 -90.450432 3.5886686 5
2.9953511 -90.066956 3.4866114 5.5
3.0303016 -93.349892 3.6528659 4
2.8713205 -92.580292 3.9248431 4
2.8422365 -91.294464 3.9610822 4
2.8877411 -91.052849 3.9039237 4
2.9001698 -90.479187 3.8612502 4.75
2.9563997 -90.128662 3.7649639 3.8571429
3.1751392 -104.88223 4.3174772 6
2.8622518 -93.468536 4.3351288 6
3.0067518 -92.612694 4.2404361 5.5999999
2.897974 -91.174988 4.0259666 4
2.9555864 -90.517426 4.169857 4.8809524
3.1901948 -107.63451 4.5868711 6
2.9238219 -106.81168 4.5780458 6
2.8769906 -106.78314 4.5513797 6
2.8642085 -105.21474 4.5020604 6
2.9842122 -105.02901 4.5740662 6
3.1009076 -93.674309 4.6833439 7
3.0906258 -92.961166 4.6138196 6.6666665
2.8851645 -92.654251 4.5975623 6.5
3.0254438 -90.529312 4.5851951 6.0962963
3.0572977 -90.354477 4.7143302 7
3.0277238 -113.48919 4.997138 8.1084995
2.8242116 -93.258545 4.8434081 7
2.9772501 -90.524475 4.9345088 7
2.9729722 -90.391335 4.9456244 7
3.0450633 -103.00652 5.2369332 8.1645002
3.05318 -90.501251 5.3396478 8.0936718
3.178148 -90.395134 5.3416004 8
3.0479019 -112.57759 5.690558 7
3.0275075 -90.486603 5.7462721 9.0502996
3.0991447 -90.382805 5.7242532 8.4654999
3.0078106 -90.441544 6.2835431 9.6364002
3.013469 -90.29203 6.1982307 8.8125
3.0325539 -112.70707 6.763093 8
3.0708251 -91.533394 6.6914568 9.1367493
2.9587383 -91.004303 6.782043 9.0754995
2.9884608 -90.445602 6.5165725 10.5
3.0573869 -90.267731 6.6070857 10.724821
2.9993825 -112.89217 7.094739 8.0360708
3.0473585 -112.72078 6.9197612 8.0234995
3.0171273 -91.70826 7.1217346 11.882999
3.1402237 -90.467392 7.0473013 11.4
3.0685434 -90.286667 7.0110898 12.012099
2.8675585 -106.19809 7.4773421 9.1145
2.9511547 -91.740341 7.3982325 11.026596
2.9622376 -91.406082 7.4025846 11.128091
3.123435 -91.044594 7.5228348 10.123834
3.0875766 -90.527725 7.3860765 11.519111
3.0083845 -90.218651 7.4104176 12.71151
3.0452652 -112.86328 7.8590045 9.0628748
2.9140372 -111.35947 7.8642168 9.1140003
2.9379315 -106.25553 7.7398787 9.1009998
2.9974935 -92.500389 7.8716049 11.430165
3.0925303 -92.27475 7.8655486 11.292667
3.0353465 -91.731827 7.8159156 12.648362
2.9780531 -91.425613 7.7126679 10.908051
2.9814899 -91.008118 7.8181958 10.793071
3.0780113 -90.626045 7.7106767 11.463063
3.0666785 -90.191574 7.7780066 13.506361
2.9240081 -112.88182 8.2283983 8.791625
3.1373084 -112.77919 8.1489697 9
2.993082 -92.480377 8.0712395 14.149083
2.9605927 -92.223061 8.194725 12.967251
2.9787872 -91.823837 8.1626377 11.5253
3.0285213 -91.40921 8.2042894 12.4675
2.981993 -90.986984 8.1576662 11.897438
2.9696176 -90.181564 8.1715908 12.1747
2.9687204 -112.95853 8.4726963 9.0149374
3.0981069 -105.38787 8.6278114 10.154
2.8945088 -104.49196 8.6830482 9.6687498
2.8856106 -104.34622 8.5805664 9.6690006
3.0456266 -91.752106 8.5692348 13.396
3.030983 -91.377792 8.7232122 13.108584
2.9761605 -91.028046 8.5995808 12.481667
2.8316061 -90.704201 8.5028696 11.1785
3.0091596 -90.205246 8.5618792 12.901363
3.0119629 -112.94791 8.9664574 10.067249
3.0201919 -104.5126 8.9236193 10.095949
2.9149368 -92.11692 8.8254452 15.108
2.8794713 -91.603775 8.9012604 12.1135
3.1366723 -91.473969 8.9878645 15.15925
2.9117537 -90.881439 9.1495657 12.109
3.1617174 -90.415955 8.8233891 12.0515
2.9505141 -90.116081 9.0162706 12.3635
2.9395282 -112.8472 9.2948599 10
2.9128511 -112.77982 9.3467102 10
2.8439138 -111.42529 9.4676952 10.1535
3.107203 -106.29243 9.2420912 9.0130005
3.1106126 -105.84441 9.3606815 11.1495
3.052011 -105.40809 9.313488 9.0155001
3.0478284 -104.61183 9.4124975 11.469833
2.8466008 -91.357254 9.2011433 14.0985
2.862823 -90.032043 9.584713 10
3.0125506 -112.89405 9.7045879 10.038625
3.0444353 -112.74461 9.7498026 10.0316
2.9850981 -111.29776 9.6656971 10.404375
2.9339635 -111.16279 9.7533503 10.0725
2.9038851 -104.27647 9.8133345 10.1155
2.825259 -102.6813 9.6143761 10.1565
3.0945365 -90.556847 9.7861977 13.320799
2.8065877 -108.24173 10.283347 11.1565
2.8987122 -104.23734 10.122623 10.1135
3.1380861 -110.65018 10.639591 11.154
3.1596632 -109.09411 10.483101 11.158
2.8656504 -104.9532 10.76506 10.01075
2.942399 -110.75272 10.905001 11.64175
3.1391807 -108.08984 11.181131 12.1525
3.1346908 -105.39513 10.861084 13.115
3.1059501 -104.96616 11.135116 11.7033
3.0993624 -104.75484 11.082808 13.15
3.0518148 -90.051651 11.000982 15.113
3.1705258 -110.28423 11.39524 12.1495
2.959446 -106.28327 11.448833 13.1495
3.0027592 -104.97046 11.418427 12.512599
3.12588 -104.77243 11.581512 14.147
3.0430756 -104.3545 11.420873 10.303501
2.9080482 -110.29137 11.695518 13.1345
3.1563516 -106.28727 11.622072 14.135
2.892745 -104.95121 11.627731 13.154
2.9824481 -104.59145 11.898077 13.517099
3.0609288 -104.31824 11.898843 12.7705
3.0811763 -104.8548 12.057308 15.125
3.0070932 -104.30904 12.162284 14.9148
2.9933262 -103.75499 12.15978 10.80525
3.1562843 -102.8865 12.302422 15.1115
2.9844089 -109.3096 12.453043 14.133499
3.0358553 -106.20007 12.610468 12.08525
2.8698003 -105.65372 12.600888 11.011
3.1500752 -105.27822 12.709181 13.64425
3.0990059 -105.17928 12.757461 14.154
3.1364465 -104.50819 12.433624 13.166
2.8985503 -104.19543 12.591054 14.651751
3.02263 -103.86891 12.701523 14.158251
2.9787843 -103.57986 12.512012 15.1495
3.0647957 -110.13079 13.148615 14.116
3.0404825 -107.72743 12.991982 15.137
2.8793766 -105.70123 12.91902 13.660749
3.1585703 -105.30186 12.859417 12.175
3.010566 -105.01881 13.034649 14.102666
3.014503 -103.79892 12.85502 14.862101
2.8972085 -112.49813 13.267996 14.1255
2.9747348 -107.47393 13.302571 14.814
3.1412745 -105.67534 13.204784 14.1565
2.8284433 -109.9313 13.689513 15.1365
2.9025497 -107.46025 13.641804 15.1475
3.145648 -108.39768 14.199444 15.149
3.0899985 -105.35615 14.063841 15.155
3.1252158 -104.50111 14.268709 12.013
2.8342547 -103.31195 14.379085 12.0155
2.8727889 -111.6942 14.614239 15.121
3.0323794 -111.46234 14.670641 14.155
2.9297097 -103.36795 14.550828 12.0165
2.8198845 -103.18317 14.71941 13.001
3.0803266 -103.42744 15.040767 13.068667
3.1197939 -102.92619 15.192718 13.007
2.8558004 -106.76876 15.240097 14.17
3.1000209 -103.73161 15.489486 13.0085
3.1593168 -103.45886 15.590251 13.0105
3.1934719 -104.6038 15.828784 13.01
2.922374 -104.28886 16.559216 13.508249
3.0746171 -103.97253 16.534664 14.0025
2.9244576 -106.44328 16.951605 12.0165
3.0902674 -106.15534 17.005775 13.0155
2.8923557 -104.41529 16.839054 13.017
3.1594312 -106.11494 17.545439 13.0175
2.8322611 -104.99423 17.59495 13.018
3.3067102 -92.644676 3.5854044 5
3.4367955 -90.295296 3.4910724 6
3.4705479 -94.548515 3.7396421 4
3.2400806 -93.243286 3.6409209 4
3.5091712 -93.005135 3.825069 4.5
3.4963644 -92.55851 3.8518829 5.5999999
3.4260874 -91.067963 3.9551053 4
3.3927562 -90.550262 3.8011725 4.3333335
3.4680045 -90.139221 3.8148091 3.3333333
3.3381314 -106.72039 4.319304 6
3.5428388 -93.22953 4.0971155 5
3.4791095 -93.052849 4.2515202 5.625
3.5543213 -92.762032 4.2496195 5.5
3.2438791 -90.557709 4.1727138 5.4285712
3.3638237 -106.74473 4.5336614 6
3.3414516 -106.06293 4.5465393 6
3.2795281 -104.96345 4.511538 6
3.3787854 -104.7743 4.5575967 6
3.5591202 -92.593903 4.5138435 6
3.2659154 -90.533272 4.7157326 6.6666665
3.272326 -113.44975 5.1309104 8.1079998
3.3049927 -90.547432 5.1037064 7.7383332
3.2668676 -103.69901 5.3383098 8.1645002
3.3084943 -90.5364 5.3396044 8.1330004
3.3669624 -112.60632 5.7486701 7
3.206125 -90.412071 5.7729192 9.583334
3.2590358 -90.340401 5.8532004 9.1999998
3.2516344 -112.78286 6.3318095 7
3.3813279 -90.520355 6.1981621 9.1771669
3.31006 -90.354301 6.1703701 9.2857141
3.3562567 -112.6855 6.7597456 8.0481672
3.3833971 -92.065056 6.4218998 8.0214996
3.4653304 -90.508759 6.6189151 9.2980719
3.300508 -90.262047 6.5937819 10.348767
3.4474809 -112.86945 7.0851588 8.0459995
3.4170229 -112.70808 6.951901 8.0466671
3.4725702 -92.36483 7.1752896 10.115
3.3652327 -91.618294 6.9731884 9.0600004
3.4248862 -91.267464 6.9432454 9.0009995
3.4087803 -90.825485 6.8914113 11.106667
3.4548142 -90.502853 6.9809093 10.378824
3.3567371 -90.232231 6.9589353 11.205549
3.4283109 -103.66751 7.2866063 9.1285
3.2559836 -92.489342 7.4027061 9.0042496
3.3818614 -92.218521 7.4138618 10.767249
3.3072534 -91.78801 7.4363422 11.024334
3.4112966 -91.363747 7.5267177 10.741499
3.3113985 -91.193863 7.3412452 9.0059996
3.3129251 -90.496826 7.4414983 11.2365
3.3476987 -90.225044 7.397769 12.306355
3.3650002 -112.83672 7.8743744 9.0460835
3.3390412 -104.54901 7.9592538 8.0174999
3.5397024 -104.33875 7.8538618 8.0190001
3.3961432 -92.484566 7.907197 11.773833
3.323828 -92.216431 7.7920079 11.289542
3.3958449 -91.787682 7.7903962 12.429231
3.3828137 -91.361359 7.7741013 12.794333
3.2660379 -91.07888 7.7326398 11.642
3.4303663 -90.59774 7.8096776 11.837812
3.4422898 -90.201103 7.7985487 12.199304
3.2247648 -113.01295 8.1977367 8.0144997
3.3756022 -112.78093 8.1763945 9
3.252805 -111.25828 8.150876 9.1084995
3.3057337 -104.46746 8.334527 10.1525
3.2936788 -104.31662 8.2363262 10.1515
3.3691816 -92.52491 8.0990543 12.450833
3.3158224 -92.34436 8.1378622 12.2845
3.296659 -91.51963 8.2569046 10.003
3.4234164 -90.805611 8.359745 11.1065
3.4640214 -90.562103 8.1059132 14.6075
3.3924296 -90.183426 8.2072887 13.469855
3.431859 -112.94658 8.445715 9
3.5762148 -104.8802 8.7524958 10.159
3.272784 -104.42829 8.6711941 10.1575
3.4164188 -104.25137 8.6426849 9.7674999
3.4901977 -103.75256 8.7333374 11.113501
3.4738357 -91.632416 8.5839806 11.106
3.5391855 -91.499779 8.6540604 11.1045
3.5269692 -91.161476 8.7192812 15.105
3.4860208 -90.563316 8.6095486 12.054899
3.4414694 -90.224564 8.5077229 13.062438
3.2298269 -96.832954 9.1675053 10.155
3.3125594 -91.459946 8.8893929 14.13025
3.2729709 -90.557739 8.9730587 12.582251
3.5658791 -90.195999 8.9663706 15
3.3066254 -112.86885 9.3358593 10
3.5670595 -111.50463 9.537096 10.159
3.5123541 -110.65214 9.5908918 10.163
3.3290977 -109.36501 9.528285 9.0065002
3.5434301 -105.07407 9.55126 9.0123339
3.3245592 -104.64043 9.4694519 11.481667
3.3816659 -104.16715 9.2597408 11.12975
3.5391355 -103.94639 9.2318668 11.153
3.422044 -91.388565 9.309144 13.126249
3.4125957 -90.644501 9.3087864 11.783999
3.4839034 -90.351326 9.3169622 14
3.2430093 -113.01572 9.7190571 10
3.2785833 -112.74725 9.7337523 10
3.3953598 -111.47014 9.8852358 10.886375
3.4668343 -111.10462 9.77036 11.135
3.403616 -108.89857 9.9002237 9.0170002
3.5864253 -104.97324 9.801795 10.174
3.3203244 -111.5423 10.025776 11.119
3.2246981 -109.29967 10.253527 11.152
3.4095173 -105.63424 10.210945 9
3.5480549 -90.477058 10.069186 14.169
3.5717206 -110.2309 10.600031 11.1545
3.5691185 -109.69271 10.68523 9.0170002
3.2195375 -109.31815 10.428523 12.137
3.392103 -109.08816 10.727121 11.113
3.5472188 -106.56824 10.501376 12.1495
3.2809675 -105.61225 10.454334 10.004
3.4731474 -105.03754 10.738044 13.118
3.5387378 -90.61512 10.607881 15.1095
3.5965772 -90.128448 10.404569 14.1125
3.4186354 -110.86986 11.026568 12.119
3.5804012 -110.52708 10.86547 9.0155001
3.3963349 -105.43237 11.050496 13.1125
3.2844181 -104.7729 11.095263 13.097833
3.3020749 -90.496651 11.010187 15.11325
3.5452986 -110.53159 11.309983 12.1485
3.4427645 -105.72184 11.532056 10.01775
3.5398479 -104.93591 11.217805 13
3.2305946 -104.38205 11.517229 12.169
3.3976767 -102.91816 11.310483 11.178
3.4049115 -110.44431 11.742379 12
3.2674751 -105.60662 11.711641 11.1765
3.5270569 -105.51215 11.753542 11.009251
3.4029016 -104.7179 11.962272 13.0675
3.2370434 -104.18536 11.696686 12.1705
3.394949 -103.87093 11.927184 10.018499
3.5100529 -103.22388 11.72297 11
3.4574165 -102.92178 11.882069 15.132625
3.3428266 -111.41003 12.145877 12.157
3.3784263 -105.81393 12.064093 12.0785
3.4202955 -105.43752 12.153217 13.06975
3.5081201 -105.01009 12.292846 12.571
3.442055 -104.70907 12.38376 15.145
3.4152429 -104.22009 12.123346 13.402071
3.3493867 -103.7959 12.35669 12.6705
3.3349688 -103.26038 12.177357 15.1485
3.485188 -102.99202 12.255053 13.757167
3.4100964 -102.76373 12.071474 15.132
3.4358501 -110.83363 12.481057 13.1475
3.4076328 -106.31968 12.524299 10.56575
3.4922419 -105.63619 12.421647 11.006
3.4108858 -104.01572 12.56881 11.0145
3.2294002 -103.75404 12.457937 13.6615
3.2626376 -103.53188 12.630278 13.1695
3.2523148 -103.19146 12.431707 15.15
3.5443041 -111.86085 12.887138 13.149
3.3743937 -108.89034 12.832362 14.1465
3.2654257 -107.74811 12.957592 15.1255
3.233438 -106.12134 13.093166 15.1475
3.2774665 -105.48861 12.808893 13.167
3.2650685 -111.6796 13.241228 14.1235
3.5087512 -111.10044 13.229007 14.1215
3.2056179 -106.72735 13.557606 14.1575
3.5768366 -103.41045 13.207404 11.019
3.4495442 -103.04835 13.329041 15.1555
3.4909427 -111.68346 14.185357 15.126
3.4538524 -109.92481 14.346536 14.156
3.4325223 -108.25526 14.095641 15.1485
3.4915133 -105.2987 14.283586 14
3.4644628 -105.01989 14.226624 15.157
3.2270684 -111.95242 14.501497 15.1235
3.5936029 -111.42039 14.474553 15.143
3.4960763 -104.6556 14.423404 11
3.3384058 -102.94346 14.75491 14.113999
3.5086269 -102.63213 14.721082 13
3.4390459 -112.45939 14.836181 15.1415
3.4267461 -108.56828 15.037509 12.0115
3.3260906 -103.26734 15.072405 14.1745
3.5400002 -102.85779 15.024254 13.069167
3.2607894 -108.5898 15.258577 15.1565
3.2008562 -104.1303 15.413189 12.0185
3.4423246 -102.95797 15.210746 12.019
3.4983814 -110.97689 15.653089 15.1525
3.2876604 -103.39746 15.739203 14.1775
3.2608945 -104.36031 16.147881 15.1715
3.3494992 -106.20364 16.856861 13.0145
3.3726592 -107.82941 17.394636 13.015
3.2993505 -106.21877 17.269091 13.0165
3.2191088 -105.79224 17.449549 15.1745
3.6279876 -92.541328 3.8745968 5
3.7987497 -92.235802 3.9048548 5.625
3.6230814 -91.265877 3.9811218 4
3.6827176 -91.058876 3.9210536 4
3.644809 -90.732224 3.9164429 5
3.764538 -106.84942 4.2927909 6
3.6954181 -92.540047 4.2759781 5.8000002
3.8748729 -92.237709 4.1686878 5.4615383
3.712697 -107.58376 4.565762 6
3.7110953 -107.06161 4.6148005 6
3.8596992 -106.71291 4.5262427 6
3.9820485 -104.88369 4.5142512 6
3.6631715 -92.956268 4.4937735 6
3.8218753 -92.56765 4.4796176 6
3.8843901 -92.331917 4.4608688 6
3.9559848 -113.40656 4.9842963 8.1079998
3.8156536 -105.03104 5.4210258 7
3.8448958 -112.55074 5.7046657 7
3.8148289 -112.59213 6.1878214 8.0760002
3.8878732 -112.18668 6.2665696 8.0815001
3.7783897 -112.65607 6.6818604 8.0479994
3.7823701 -90.832672 6.6346245 9.0467501
3.6598716 -90.67894 6.5880785 9
3.8299484 -112.86906 7.0928707 8.1467857
3.7779994 -112.72455 6.99575 8.0394287
3.6205177 -92.228264 7.1623516 10.1145
3.7839463 -91.957321 7.1200252 9.0015001
3.6768553 -90.850922 6.9064093 13.1365
3.6423624 -90.627945 6.923583 10.605375
3.9519777 -97.197739 7.3610439 9.1665001
3.9795737 -96.757164 7.4466019 9.1669998
3.7232506 -92.191048 7.3637905 10.111611
3.7560256 -91.972488 7.2055206 10.1135
3.6155374 -90.513252 7.4435716 10
3.8259447 -112.82358 7.8672729 9
3.8426442 -112.79212 7.9275184 9.0240002
3.9020619 -106.34686 7.6328344 9.1514997
3.9883015 -96.641998 7.7149129 9.1669998
3.6745861 -92.054176 7.7042265 11.769
3.6828454 -90.46946 7.9754539 10
3.6636834 -90.152779 7.8594642 12.191667
3.7860003 -112.84922 8.1963243 8.8557501
3.7966821 -112.76655 8.1816854 9.0710001
3.6467338 -104.17701 8.3239431 9.6637497
3.8978465 -103.7011 8.2632904 10.1535
3.9982729 -90.995193 8.3611059 15.109
3.6494374 -90.493507 8.1337519 11.053249
3.6479619 -90.248985 8.101428 12.221499
3.8769913 -112.88696 8.5095043 9.0888329
3.6541774 -112.78101 8.4482279 9
3.8817604 -104.71896 8.7611303 10.641001
3.8277361 -104.20816 8.5913982 10.483167
3.7512169 -103.927 8.7538748 10.1205
3.8140728 -92.211212 8.6345749 11.609333
3.8647096 -91.660591 8.6022711 10.847875
3.8328183 -91.285706 8.611659 11.694285
3.7144084 -91.032524 8.6471968 12.356625
3.8611588 -90.075333 8.7928886 13.1065
3.694396 -112.88332 9.0034122 10.086333
3.7633345 -105.06344 9.0739489 9.0085001
3.7311561 -104.56751 8.8524599 10.641001
3.6854255 -104.18245 8.9050341 9.0082502
3.7507865 -103.96957 9.1448584 11.152
3.7376399 -96.589294 9.1722612 10
3.7968979 -96.267441 9.1504631 10
3.881983 -92.244339 8.9652796 13.105
3.9125128 -91.762733 9.0200186 12.113125
3.9191897 -91.49646 9.1181879 12.111
3.7813232 -90.897469 8.9096785 13.601749
3.7710452 -90.620369 8.9823685 13.439166
3.8749838 -111.68099 9.455884 10.109
3.8669028 -111.49025 9.4562178 10.115251
3.8507736 -104.99047 9.4768057 9.0087509
3.7564578 -104.06354 9.4338388 11.61375
3.6555886 -103.95547 9.3477898 12.129499
3.8840754 -95.630814 9.5522337 10
3.8806558 -95.519508 9.5067778 10.08325
3.9504695 -91.871872 9.3489733 14.105667
3.8113708 -91.398125 9.3304405 13.09675
3.8798184 -91.097252 9.3794928 11.0035
3.801548 -90.17411 9.4057083 12.756167
3.9160893 -111.5617 9.825098 11.1375
3.8226485 -111.0935 9.7318373 10.1645
3.8927019 -106.33497 9.7040548 9.0174999
3.8238168 -104.98424 9.8796864 9.7888327
3.738462 -104.21058 9.6852121 11.795667
3.9055169 -96.169136 9.7487736 10
3.9549406 -95.898911 9.6922922 10
3.8011746 -91.421143 9.7475395 13.11375
3.7352259 -90.931938 9.6369829 15.1635
3.819478 -90.593872 9.940918 13.444667
3.709698 -90.028191 9.8513632 14.55575
3.8807445 -111.51167 10.005761 11.1195
3.6547794 -108.51916 10.268689 10.114
3.8132427 -106.52824 10.282468 11.1635
3.7162039 -105.48641 10.197377 9
3.7696764 -104.93576 10.18378 11.9443
3.874011 -90.461655 10.353053 15.107
3.7540679 -110.93262 10.622092 11
3.7894676 -110.60143 10.695337 11.156
3.6840038 -109.45128 10.575278 10.6335
3.9346998 -105.71301 10.754052 13
3.8755491 -105.30637 10.785674 13.1185
3.7993808 -105.02619 10.564131 12.866875
3.8986435 -90.978401 10.495061 15.1075
3.8502276 -90.799278 10.606308 15.11
3.6544528 -90.361801 10.739102 14.1115
3.8592374 -108.18005 10.829126 12.149
3.8314102 -105.80805 11.044616 10.014
3.9245687 -90.444794 10.825364 15.1135
3.8678045 -108.10491 11.4692 13.119
3.7053442 -106.15648 11.2079 13.113
3.9312096 -102.98179 11.458732 10.0195
3.6312931 -111.65655 11.9808 13.133
3.8902855 -110.86211 11.855216 12
3.9801445 -110.76297 11.96008 12.1545
3.8700714 -110.25146 11.632375 12.152
3.6466947 -106.5295 11.939612 14.121
3.7466865 -105.5088 11.875567 13.14425
3.7023239 -103.31686 11.855158 12.66625
3.6633537 -102.96536 11.791739 12.403168
3.8226321 -102.70784 11.799745 12.08475
3.7320869 -104.57047 12.362683 15.144
3.8321657 -104.27561 12.330679 12.58175
3.7407484 -103.68176 12.169446 11.59025
3.8615243 -103.2977 12.20575 12.447833
3.7595766 -103.01551 12.221738 11.5935
3.724242 -105.75856 12.61564 12.374167
3.6400409 -105.32715 12.464351 12.1725
3.8938043 -104.99551 12.610114 13
3.6912279 -104.60483 12.431136 15.1465
3.9641142 -103.35587 12.594792 12.092501
3.7203467 -103.0387 12.623094 12.781667
3.9005704 -110.62986 13.060229 14.13475
3.8471396 -107.3088 12.903842 13.163
3.8345957 -105.25147 12.897315 15.1485
3.8628676 -104.13778 12.95824 15.151
3.9866891 -103.78658 13.126163 14.1615
3.9044993 -103.40569 13.015521 14.16175
3.7486765 -103.07423 12.966121 12.0774
3.996069 -102.64807 13.181763 13.173
3.730819 -107.26614 13.313536 15.1465
3.8904181 -105.82081 13.496701 15.150499
3.7521787 -104.97957 13.588855 13.1715
3.600177 -104.57122 13.320354 11
3.9716511 -103.99062 13.464978 12.003
3.8342984 -103.17319 13.282346 13.1007
3.9179838 -102.71715 13.273149 13.578
3.6909113 -110.66116 13.76901 15.1285
3.889565 -108.27607 13.915261 14.1555
3.6288664 -104.99115 13.617747 12.0005
3.8926256 -103.17826 13.627178 15.157
3.6511779 -111.47013 14.350855 15.1405
3.799257 -111.71793 14.408851 15.124
3.6935422 -111.26744 14.529302 15.14425
3.8901343 -109.17208 14.613824 14.162
3.6543865 -104.4003 14.400769 11.0175
3.7611599 -102.5366 14.757625 13
3.9886825 -111.06103 14.817296 15.147
3.6591361 -104.16882 15.946998 13.012
3.6366441 -103.50195 15.601576 12.019
3.7668555 -103.95596 16.141157 15.172
4.3921914 -92.338562 3.4919024 6
4.0608845 -90.016151 3.5871289 4
4.1316233 -106.93053 3.8421383 6
4.031671 -94.813271 3.7424376 4
4.0990462 -92.161705 3.8690319 4.75
4.3738608 -91.184036 3.6160495 3
4.3086848 -90.632736 3.644223 3.3333333
4.0419188 -90.177803 3.6026337 3
4.0962296 -106.9715 4.3938498 6
4.0869641 -106.68678 4.2806077 6
4.2458601 -106.27863 4.3782802 6
4.3080873 -104.70885 4.2291646 6
4.3274693 -92.52076 4.2303143 5
4.1515579 -92.176521 4.2775736 5.75
4.0647984 -108.93677 4.5284176 6
4.0517678 -108.69678 4.5691271 6
4.0520134 -108.28273 4.5258532 6
4.2090573 -107.26439 4.5442138 6
4.2751274 -106.50217 4.4920354 6
4.1939101 -104.9085 4.5116754 6
4.195715 -104.72208 4.5132308 6
4.1140943 -93.519707 4.6297116 6
4.124929 -92.715088 4.6415925 6
4.2221971 -92.267784 4.5186009 6
4.2750039 -113.47671 4.8970995 8.1090002
4.0743155 -110.91724 5.322598 8.1120005
4.2481365 -107.14872 5.5991683 7
4.3238602 -104.90343 5.4081616 7.5819998
4.257937 -112.53867 5.7063742 7
4.1729603 -112.91066 6.0552163 7
4.3291073 -112.71444 6.0761628 7.53725
4.2756581 -107.04882 6.2629523 8.1164999
4.2569818 -112.65114 6.7534041 8.0361252
4.298943 -107.06505 6.7606974 8
4.2173772 -112.70967 6.9251842 8.0834541
4.0854068 -98.493507 7.0963511 9.1545
4.3682952 -97.191673 7.0290775 9.151
4.2590842 -96.548477 6.9749656 9.0755568
4.2668133 -96.221947 6.9987855 9.0166426
4.3927803 -95.590477 6.8550296 9
4.2723584 -107.0169 7.2955728 9
4.2185235 -103.26893 7.3847098 9.1166677
4.1815591 -98.192444 7.4813457 9.1665001
4.131319 -97.325844 7.4485579 9
4.1824608 -96.924347 7.391921 9
4.2157683 -96.55986 7.3370552 9
4.0297198 -92.427895 7.4165368 13.1205
4.3534241 -112.827 7.8327122 9.1225004
4.2627544 -112.7851 7.8908625 9
4.3239303 -107.03693 7.8917303 9
4.1392884 -106.17123 7.6636281 9.1434994
4.0049357 -103.86886 7.9408512 8.0190001
4.0607347 -96.810532 7.9190888 9.1669998
4.1083193 -96.55542 7.8531079 9.1669998
4.1903005 -90.498512 7.9356422 13.474
4.1749945 -112.88851 8.3110123 8.5625
4.1826034 -112.74825 8.1135874 9
4.1358352 -111.23678 8.0429392 9.1120005
4.1864409 -111.12581 8.036747 9.1084995
4.3193712 -106.95831 8.2418575 10
4.2675214 -90.985611 8.1807127 12.775749
4.3748026 -90.539894 8.0295925 12.1045
4.3715305 -90.114029 8.3970041 13.1655
4.1143374 -112.90189 8.5098066 9.1498747
4.3323975 -104.87052 8.6938839 10.1565
4.0501337 -104.65766 8.7691221 10.163
4.2506456 -104.10668 8.7247181 10.1348
4.081789 -103.85896 8.6913509 10.303749
4.1413097 -92.410164 8.4938841 10.6285
4.0707378 -92.203308 8.6386051 10.596
4.1581049 -91.744484 8.7357302 12.426333
4.2032003 -90.08181 8.59198 13.134
4.200069 -112.89822 8.9700422 10.0249
4.1539779 -111.53637 9.157403 10.148
4.3248086 -106.93732 9.1091671 10.5
4.2422833 -104.85649 8.8804712 10.039333
4.2642193 -104.69379 8.8766775 10.26175
4.3492408 -104.18046 8.8796339 10.12
4.1463656 -96.4272 9.1986103 10
4.2147737 -96.25444 9.1619606 10
4.2330518 -95.834694 9.1677647 10.05925
4.1885996 -95.536873 9.1325111 10
4.2664847 -94.989449 9.1454201 10
4.2593713 -92.217461 8.9374723 13.260142
4.1837931 -91.808846 9.083847 13.474299
4.2546906 -91.486122 8.992053 11.3385
4.3051028 -90.674614 9.1771526 14.13825
4.251483 -90.171806 9.1509943 13.13675
4.1221895 -112.78574 9.3135271 10
4.0540414 -111.46087 9.4756012 10
4.1701384 -110.29469 9.3690186 9.0024996
4.0173955 -104.05803 9.3744068 11.1315
4.2871618 -97.873611 9.3479071 10.118999
4.2279453 -97.426903 9.4548244 10.1165
4.0851426 -97.146637 9.3523788 10.117333
4.1728878 -96.567276 9.2387714 10.078834
4.1798015 -96.157143 9.508791 10
4.1817875 -95.713425 9.4426804 10.058001
4.1937337 -95.404373 9.4946594 10
4.2967196 -92.210716 9.2546368 12.1105
4.2757092 -91.805359 9.382473 13.260786
4.268785 -91.438545 9.4256201 13.738667
4.3601856 -90.582085 9.244668 13.60825
4.2443581 -90.256966 9.4583807 13.113
4.2660217 -111.75108 9.9227438 10.4605
4.320415 -111.21351 9.6947985 10.122
4.3172998 -106.64545 9.8527231 9
4.2668943 -106.17062 9.8186398 9.5862503
4.0085201 -104.86637 9.632638 11.155
4.1578407 -95.778893 9.654376 10
4.3131719 -92.386642 9.7444248 10.1685
4.2027397 -90.265083 9.8805361 13.779834
4.2791486 -106.81044 10.148651 12
4.3007021 -106.66994 10.135645 11
4.1225076 -106.27553 10.124985 11.63525
4.3479996 -105.66597 10.286093 11
4.157639 -105.14988 10.266395 12.109
4.1701412 -90.877861 10.091755 12.56175
4.206007 -90.634941 10.105293 14.1145
4.1260395 -90.144737 10.042306 15.104
4.1110649 -105.64803 10.623733 12.056749
4.3569102 -105.4439 10.781622 10.0065
4.2587113 -104.97393 10.403868 13.1365
4.2953176 -91.041512 10.449831 15.108
4.0829024 -111.43074 10.886401 11.1575
4.2281122 -106.64627 11.053549 13.0405
4.0208206 -105.62715 10.872981 13.116
4.3752055 -105.48279 10.821462 10.0085
4.2940912 -93.452858 11.171024 11.1525
4.069262 -92.251633 11.037808 11.153
4.3541775 -91.370087 11.042118 11.12125
4.3434715 -91.097282 11.132327 11.1195
4.2510176 -105.66785 11.59977 13.1525
4.3938355 -105.59745 11.345726 11.174
4.2080216 -103.03398 11.530663 13.1575
4.1389508 -102.69925 11.436447 10.0195
4.3608899 -96.6409 11.476475 11
4.1853004 -95.73114 11.370175 11
4.2696018 -92.598 11.202735 11.12
4.3192391 -92.259117 11.208141 11.1195
4.2951531 -91.827271 11.441615 11.118
4.2150912 -91.55098 11.308695 11.1185
4.337225 -91.076042 11.355755 11.059
4.0963082 -110.31081 11.936969 13.12075
4.1407261 -109.97567 11.877277 12.1565
4.3234754 -108.10279 11.910883 10.017
4.0557513 -106.57561 11.716987 14.136
4.1414332 -105.71909 11.763319 13.107333
4.3073492 -105.22693 11.952974 14.149
4.3393416 -105.18408 11.677343 14.119
4.1330991 -103.01608 11.80535 13.161374
4.1889019 -102.7235 11.76201 12.577499
4.3810287 -92.598686 11.628099 11.117
4.3027458 -111.2521 12.119311 12.156
4.2501183 -110.33274 12.251949 12.114
4.2032008 -105.73241 12.330301 14.15
4.0677924 -105.36263 12.318766 12.1715
4.3436799 -105.0659 12.39537 15.141
4.0662565 -104.49234 12.202735 13.163
4.1406002 -104.08246 12.259423 13.1645
4.1729035 -102.91762 12.111703 12.611751
4.2574244 -102.64719 12.234454 11.400001
4.0356646 -111.41824 12.765683 12.1205
4.2760811 -108.63538 12.652021 14.1195
4.3976727 -107.93559 12.404254 13.1535
4.1991715 -106.03422 12.528386 12.457667
4.1235228 -105.74171 12.626495 13.753667
4.2766757 -105.12538 12.458916 15.1215
4.2118649 -104.63753 12.43009 13
4.2052941 -103.38851 12.592395 14.5545
4.1577749 -102.99063 12.562674 14.1605
4.0386219 -110.52238 12.831351 14.1355
4.3829336 -110.281 13.027105 13.1535
4.1109328 -109.30142 12.99562 14.147
4.1513987 -108.95018 13.075565 14.148
4.3545804 -104.51279 13.104251 14.158
4.0836797 -104.28899 13.037514 14.489334
4.2786746 -103.31747 13.066835 14.162
4.1743441 -103.03242 12.897008 14.40975
4.1235514 -109.76644 13.57236 15.1265
4.11166 -107.22507 13.236374 13.1665
4.0263753 -105.9321 13.212676 14.1555
4.2160234 -104.522 13.55954 13.172
4.2267532 -103.97233 13.44367 11.019
4.1297102 -103.22289 13.320876 12
4.0755 -103.02389 13.291628 12
4.2532148 -111.17019 13.814632 14.148
4.1398711 -109.61799 13.96545 15.144501
4.1245899 -111.18678 14.283817 15.141
4.3526177 -109.68903 14.008635 15.143
4.2612853 -109.44504 14.188335 15.146999
4.2123199 -108.6218 14.28644 15.149
4.2942181 -111.15831 14.581165 15.1445
4.1803474 -104.34557 16.207262 12.019
4.5839562 -92.43718 1.9930973 7
4.4013767 -92.670258 2.239244 7
4.6589017 -90.247849 3.5966918 3
4.6624784 -92.086319 3.8898664 5
4.6222901 -91.985764 3.7788537 6
4.5784826 -91.03289 3.62359 3
4.706203 -90.725815 3.6093953 4
4.7468796 -90.352631 3.6008022 3
4.458806 -106.23389 4.2571487 6
4.4356675 -92.438072 4.2585235 5
4.5633955 -92.11805 4.2845659 5.8000002
4.6542888 -109.02923 4.479187 6
4.5966144 -108.60424 4.5459166 6
4.7232208 -106.37213 4.4752584 6
4.5583682 -92.182129 4.5437078 6
4.6670079 -113.4866 5.1024971 8.1094999
4.6706991 -113.09891 4.8527088 8.0574999
4.7525001 -97.013069 5.1288056 8.1669998
4.5913963 -92.266731 4.8470898 7
4.6527085 -107.03258 5.4946012 7
4.6328931 -105.49873 5.3851156 8.1630001
4.614769 -112.53729 5.7068605 7
4.4722004 -107.09393 5.7696137 7
4.4334545 -112.76794 6.0088539 7
4.7065916 -112.82975 6.7292686 8.118
4.6276588 -112.64299 6.7448564 8.0223331
4.7113853 -106.96701 6.5902405 8.0182066
4.5192533 -112.86002 7.1244354 8.0769997
4.5219374 -112.69199 6.9111905 8.051055
4.6026826 -106.90475 7.1034369 8.08675
4.6466832 -97.928757 7.1305528 9.1645002
4.4129229 -97.410568 7.039628 9.1549997
4.4881363 -96.14183 6.9809785 9.0481672
4.5206432 -95.8004 6.8971958 9.0400839
4.5356283 -95.413788 6.8812971 9.0301876
4.6622624 -95.180122 6.8779869 9
4.68823 -106.95257 7.468421 8.8570004
4.4710937 -105.69566 7.4682541 9.1280003
4.5729499 -105.32352 7.5392499 9.0774174
4.4151011 -103.21404 7.3372126 9.1160002
4.6075001 -102.48164 7.3913288 9.1529999
4.6392503 -102.22344 7.3756676 9.1335001
4.5096407 -97.073952 7.4747295 9
