# .PCD v0.7 - Point Cloud Data file format
VERSION 0.7
FIELDS x y z intensity
SIZE 4 4 4 4
TYPE F F F F
COUNT 1 1 1 1
WIDTH 722
HEIGHT 1
VIEWPOINT 0 0 0 1 0 0 0
POINTS 722
DATA ascii
0.16676626 184.68884 -5.7253685 6
0.2543633 184.89314 -5.6343379 6
0.027031137 180.59233 -5.3903732 6
0.29654175 183.25148 -5.2581053 6
0.3444699 184.31654 -5.3662815 6
0.30259272 184.54947 -5.3898768 6
0.18761723 184.92451 -5.3634944 6
0.13916624 185.22983 -5.3924828 6
0.20412989 180.59534 -5.0701547 6
0.14909987 185.01425 -4.9136925 6.8000002
0.2308988 185.29262 -5.0110135 7
0.029138004 187.22701 -4.9332943 7
0.16923021 180.59615 -4.5006175 7
0.018647352 184.4391 -4.5262904 7
0.086216457 185.09737 -4.5014749 7
0.21042781 186.24344 -4.7522359 7
0.22756459 187.06332 -4.6091094 7
0.24669221 180.54781 -4.1729426 7
0.22857049 184.19209 -4.2924047 7
0.29729754 180.22041 -3.7432454 8.0048752
0.25824651 180.47298 -3.7938352 8
0.014769714 180.99527 -3.8331895 8.0270004
0.11868373 184.5296 -3.8163993 8.0424995
0.24187231 185.14244 -3.7029278 8.0459995
0.1204067 180.15518 -3.4786546 8.0527496
0.25844231 180.47787 -3.3973904 8.0620003
0.037590239 181.86761 -3.3780313 8.0345001
0.12471676 183.96188 -3.3708358 8.1324997
0.2312905 184.21706 -3.3795733 8.0755835
0.085073844 184.505 -3.3751724 8.0591669
0.20522799 185.51872 -3.4318731 8.033
0.041756868 186.47324 -3.308785 8.0299997
0.14046538 180.49561 -3.0267656 8.8654995
0.079246461 181.52538 -2.9397614 9.0465002
0.12073434 184.88979 -2.9687161 9.0424995
0.74905789 184.80646 -5.6264105 6
0.44743857 182.16144 -5.4278994 6
0.59793985 183.71329 -5.5572248 6
0.56882542 184.78972 -5.3142767 6
0.53602409 185.0446 -5.2827454 6.6666665
0.58569336 180.2818 -4.8033261 7
0.72720784 180.90428 -5.1854539 6
0.52077883 184.72754 -5.0075326 7
0.62178701 185.14795 -5.034462 6.5999999
0.57914865 180.1916 -4.4126754 7
0.48541027 180.52225 -4.5980649 7
0.74847496 183.44568 -4.5480437 7
0.61689961 183.79297 -4.4050565 7
0.43775642 184.83435 -4.6731334 7
0.7815612 185.32596 -4.5108371 7
0.75952363 183.66783 -3.6748469 8.0454998
0.66955864 184.57404 -3.7266862 8.0371666
0.42805862 184.85614 -3.6159871 8.0380001
0.55207342 180.17676 -3.3395593 8.07125
0.45058882 180.78586 -3.2576923 8.0074997
0.60810632 184.23552 -3.5938902 8.0115004
0.65303248 184.75616 -3.4555008 8.0745001
0.57914704 185.34825 -3.2639625 8.0314999
0.61340034 181.39139 -2.861949 9.0165005
0.53985852 184.83348 -2.9590521 9.0419998
0.97732836 180.54875 -5.3331714 6
0.93531817 181.32468 -5.377059 6
1.0919125 181.69185 -5.2970486 6
0.93768233 182.07558 -5.4181681 6
1.1282684 184.27832 -5.4305663 6
0.89801943 184.98286 -5.323329 6.3333335
0.81049842 185.38477 -5.3429422 6
1.0631553 184.00891 -4.895988 7
1.0112958 185.05731 -4.9535489 7
0.92387456 184.10001 -4.5020409 7
1.0950168 185.02199 -4.6884933 7
1.0462306 185.28876 -4.5088553 7
1.0693887 183.19565 -4.38696 7
1.1369746 183.9782 -4.2573686 7
1.1352909 184.30896 -4.3097625 7
1.0686255 184.96321 -4.2779512 7
0.82982749 183.864 -3.6319592 8.0629997
0.97975445 185.03847 -3.7968743 8.0295
0.89337313 185.32314 -3.984056 8.0310001
1.0807244 183.03294 -3.3858926 8.0649996
1.0521619 183.39098 -3.4784465 8.0998335
1.0445677 183.86867 -3.5892019 8.0369997
1.0306692 184.09532 -3.5239391 8.0524006
1.0066757 184.56335 -3.493609 8.0745001
1.1114244 183.25461 -2.9992852 9.0264997
0.94428825 184.53636 -2.9539022 9.0415001
0.86727381 186.25266 -2.9653714 8.0059996
1.1782453 182.91841 -2.7624159 9.0365
0.80100548 182.83539 -2.3592448 9.0299997
1.3711969 183.33173 -5.6147194 6
1.5939776 182.32127 -5.2913971 6
1.5909635 183.71707 -5.2309918 6
1.3397287 184.31866 -5.3158488 6
1.4584219 185.12408 -5.4394236 6
1.4457338 185.24281 -5.3223734 6.25
1.3594042 186.17975 -5.3904524 6
1.513747 183.45065 -5.1659203 7
1.3393095 184.28134 -5.0903687 6
1.5986199 183.25546 -4.4487305 7
1.5552689 183.75848 -4.4510269 7
1.2418342 184.95798 -4.6246996 7
1.5913213 186.07005 -4.588233 7
1.2512006 184.34357 -4.3894 7
1.3962237 185.00255 -4.3062806 7
1.5707716 183.44049 -3.6503584 8.0445004
1.3322314 183.79143 -3.837297 8.0365
1.5548155 184.59274 -3.6375086 8.0485001
1.4379513 183.32098 -3.4356594 8.1254997
1.5818092 183.91681 -3.5434873 8.0570002
1.2141483 185.10135 -3.5156541 8.073
1.455969 183.47548 -3.156471 8.0225
1.3724402 185.02805 -2.618345 9.0244999
1.9916403 180.62305 -5.3693542 6
1.9387847 183.32141 -5.2474055 6
1.8511879 183.72508 -5.3273835 6
1.918075 185.43553 -5.2250013 6
1.7387736 185.96318 -5.307178 6
1.9092045 183.17111 -4.8901644 7
1.8088781 183.39091 -5.0789084 6
1.8266069 183.81528 -5.1332836 6
1.9493475 182.83719 -4.4577274 7
1.913069 183.457 -4.6350698 7
1.7232151 183.71582 -4.790144 7
1.980508 184.01675 -4.4717083 7
1.695989 184.50864 -4.6082797 7
1.6147377 185.92354 -4.5677156 7
1.8128097 183.27364 -4.2822185 7
1.9385642 182.992 -3.6942835 8.024375
1.7333976 183.3558 -3.8392437 8.0225
1.6751121 183.77213 -3.6864803 8.0442505
1.9276856 184.08163 -3.9227357 8.0295
1.6869534 183.14087 -3.5333817 8.0504999
1.7346705 183.31108 -3.4703243 8.0456667
1.6380755 184.96103 -3.5727551 8.0574999
1.8573673 182.62268 -3.0279768 8.571166
1.895434 183.14397 -3.1136627 8.0212498
1.8056203 183.31078 -3.0990374 8.6845007
2.0138457 182.4016 -5.3441238 6
2.0887432 183.5034 -5.2875323 6
2.326663 183.3735 -5.0533018 6
2.1310244 185.51463 -4.8580666 7
2.2084725 185.63138 -4.80793 7
2.0150979 182.3887 -4.6675396 7
2.3001287 182.4989 -4.6145959 7
2.1308856 183.30449 -4.7284436 7
2.1007102 183.9241 -4.7572336 7
2.338279 182.52234 -4.2286601 7
2.1475284 182.93823 -4.2574739 7
2.0482078 183.39938 -4.3993053 7
2.0240889 183.18832 -3.8381155 8.0255003
2.1248548 183.43782 -3.8587773 8.0221672
2.0841858 185.6868 -3.8212554 8.0380001
2.2187545 181.74629 -3.2192533 8.0279999
2.306443 182.39114 -3.2902853 8.0299997
2.2910445 182.51176 -3.3137655 8.036334
2.2096775 183.00519 -3.5515189 8.0340004
2.1158762 183.40479 -3.4086952 8.1023331
2.2739787 183.00441 -2.9547899 8.2637501
2.1288927 182.86414 -2.7017355 9.0340004
2.4816897 182.66833 -5.3602138 6
2.7018418 183.09789 -5.2447767 6
2.4086473 183.38617 -5.2152791 6
2.4008613 183.71817 -5.2549567 6
2.4410574 185.35791 -5.2278357 6
2.7832391 180.2495 -5.0231137 6
2.7540104 183.09619 -5.0878267 6
2.6410899 183.88463 -5.0360608 6
2.7450759 181.36263 -4.6132474 7
2.7570612 182.45956 -4.678081 7
2.5045159 182.81816 -4.6248803 7
2.579725 183.5802 -4.4022055 7
2.6938844 183.8156 -4.5894895 7
2.6096077 182.32935 -4.3082504 7
2.6710799 182.4942 -4.218493 7
2.6329494 182.91631 -4.271615 7
2.7424581 183.51529 -4.3101287 7
2.6413324 182.4417 -3.731796 8.04
2.4171875 183.1321 -3.7585952 8.0369997
2.5828364 183.37297 -3.8568161 8.0267496
2.6301754 182.2603 -3.3838391 8.0354996
2.4548976 182.68393 -3.5336969 8.0342503
2.545836 183.44658 -3.4291399 8.0690002
2.7436926 182.16507 -3.0292399 8.1680002
2.6499712 182.61412 -3.058161 8.0127506
2.5913742 183.02002 -2.9339094 9.0380001
2.7690763 183.89673 -3.0084627 9.0284996
2.6076546 180.05626 -2.7279131 9.0319996
2.5248079 182.37953 -2.6907089 9.0319996
3.0210924 180.12292 -5.3198495 6
3.0951409 182.392 -5.2470431 6
2.9192984 183.72809 -5.2173419 6
3.0522838 180.2511 -5.0556235 6
3.1586041 180.44841 -4.9721308 6
3.1486692 182.43924 -5.1320758 6
3.1757436 183.29425 -5.1677861 7
2.8574121 183.64656 -5.0225735 6.5
2.8367064 181.53505 -4.5544538 7
3.1671157 182.23582 -4.5153403 7
3.0587983 182.75227 -4.6739902 7
3.0091574 182.97086 -4.6322002 7
2.9290016 183.59532 -4.725606 7
2.9463227 183.69695 -4.781054 7
2.8552377 182.25172 -4.2318234 7
3.0988801 182.51814 -4.2752013 7
2.8836143 182.81329 -4.2844276 7
2.8523371 182.19958 -3.7223547 8.0159998
2.9521399 183.19159 -3.8135502 8.0244999
2.9874496 181.7612 -3.3631413 8.1304998
3.0129449 182.20393 -3.4897799 8.0482492
2.9618113 182.56665 -3.4071374 8.0500002
2.9940875 182.90308 -3.4236009 8.0358753
2.9066958 183.45828 -3.4869764 8.1245003
2.8446128 183.68269 -3.458282 8.1204996
2.8461745 184.76514 -3.5742648 8.1155005
2.9918971 180.97437 -2.948247 8.0041666
2.8848913 182.93292 -3.0088847 9.0279999
2.9134071 183.79703 -3.0579035 8.0019999
3.3533418 180.23474 -5.2731786 6
3.294205 180.23367 -4.9851837 6
3.478545 180.48634 -5.1078033 6
3.2617455 181.57706 -5.0111451 6
3.2490222 181.74203 -4.8771729 6
3.4005561 182.52078 -5.1092057 6
3.5437958 181.42415 -4.5810447 7
3.5908761 181.95448 -4.63797 7
3.3084755 182.24493 -4.6406093 7
3.312274 182.69534 -4.6131287 7
3.2814498 182.96893 -4.6913137 7
3.2308567 183.8923 -4.7365026 7
3.4691417 182.53265 -4.2416892 7
3.4210422 181.13333 -3.6995764 8.0394993
3.4027913 182.59518 -3.7530479 8.0240993
3.3959811 187.68832 -3.6508942 8.0745001
3.4157662 180.94386 -3.5142939 8.0423326
3.4181578 181.9057 -3.3054783 8.0620003
3.5395758 182 -3.336468 8.0644999
3.4937932 182.58017 -3.5068333 8.0317497
3.4372585 181.02267 -3.0029721 8.5229998
3.3529334 182.26834 -3.1950116 8
3.2219055 186.99112 -2.8380806 9.0190001
3.3087058 180.79019 -2.7273743 9.033
3.4518738 180.89101 -2.6811271 9.0314999
3.6218591 180.5495 -4.9596853 6
3.8495338 182.23022 -5.1002259 6.1666665
3.8429415 182.64178 -5.1780963 6
3.682209 182.2027 -4.6538467 7
3.9468462 182.40114 -4.4601502 7
3.6768641 183.11832 -4.598588 7
3.688292 181.27582 -4.2142105 7
3.6692855 182.46417 -4.3258009 7
3.8056283 182.16727 -3.7417178 8.0165005
3.6803019 182.57356 -3.8325248 8.0270004
3.6092067 184.44006 -3.7474282 8.0360003
3.8090816 180.57045 -3.3984807 8.0404997
3.753068 180.92114 -3.3956347 8.0951252
3.8288729 181.86734 -3.489615 8.1184998
3.7707467 182.17274 -3.477869 8.0651674
3.7236569 182.56526 -3.3949747 8.0687504
3.9185266 182.24255 -3.1289775 8.0240002
3.7042949 186.44403 -2.9329183 8.0039997
3.6612399 187.59735 -2.2336349 9.0649996
3.9713228 188.06445 -1.2716763 10.0655
4.3226304 181.12561 -5.4115729 6
4.3274441 182.67926 -5.1376576 6
4.3895264 180.65289 -4.5361772 7
4.2253122 182.1963 -4.6253242 7
4.0842886 181.14345 -4.1158438 7
4.0704179 182.18715 -4.3193679 7
4.3284936 182.62044 -4.2120786 7
4.1083274 180.01443 -3.6413958 8.0365
4.2224321 181.71674 -3.7293229 8.0314999
4.241096 182.24316 -3.8419449 8.1129999
4.2299976 180.33755 -3.2201669 8.0310001
4.1107674 180.68181 -3.3896077 8.0771008
4.2123747 180.84628 -3.5573738 8.0614996
4.2557521 181.45908 -3.3491402 8.0360003
4.1954718 181.88287 -3.3016129 8.0627499
4.2083993 182.26753 -3.3964512 8.0536661
4.2870855 182.45387 -3.3093579 8.1464996
4.3999538 187.46175 -3.4626527 8.1199999
4.0935407 181.461 -3.0128262 8.0073328
4.1646791 181.64955 -3.0927486 8.0004997
4.0797267 187.48389 -2.6721947 9.0155001
4.7715788 182.28729 -5.5061297 6
4.7989507 182.75371 -5.1916151 6
4.7158494 182.84167 -5.1251111 6
4.4465642 182.3595 -4.685935 7
4.4394727 182.58913 -4.620729 7
4.5307865 181.12294 -4.2143302 7
4.554688 181.23717 -4.2240167 7
4.4818964 182.88371 -4.2649431 7
4.4694815 180.0025 -3.6312735 8.0360003
4.5559916 180.75125 -3.6820405 8.0150003
4.5654664 182.50235 -3.6378021 8.0129995
4.7368975 180.58008 -3.392309 8.0424995
4.7111139 181.04913 -3.4293664 8.0445004
4.540616 181.87921 -3.3788629 8.0967503
4.6026921 182.55605 -3.4553089 8.0438337
4.4182186 187.62686 -3.5404158 8.1225004
4.6917644 182.42569 -2.9456735 8.0030003
4.4640465 183.46677 -3.1431103 8.026
4.41505 186.91512 -2.5800686 9.0345001
4.6696157 180.64574 0.83505505 14.0445
5.0571017 181.71765 -5.4663243 6
4.8630033 182.23997 -5.2908282 6
5.0192437 182.53036 -5.1902056 6
4.8607559 181.9447 -4.6070228 7
5.034833 182.86838 -4.4886327 7
5.0990357 181.05296 -4.2300444 7
5.0372939 181.7897 -4.2423124 7
5.0436435 182.68819 -4.3264832 7
5.040669 182.86548 -4.2507453 7
5.1861281 180.69489 -3.735621 8.0244999
5.1154685 181.06697 -3.6291029 8.0342503
4.8977561 181.27136 -3.288152 8.0264997
4.9426188 182.67426 -3.4575458 8.0587502
5.1736789 180.58821 -2.8879819 9.0352497
4.9620366 180.99345 -3.0762479 8.0194998
5.5928936 180.94058 -5.3964267 6
5.5385098 181.66991 -5.2682428 6
5.3703027 182.47598 -5.4156876 6
5.5374861 183.29904 -5.2388988 6
5.4104395 180.54527 -5.0673108 6
5.4787517 181.01797 -5.0842657 6
5.5327353 181.84966 -5.1401715 6
5.5090895 182.16504 -5.1304011 6
5.3807793 182.62048 -5.1203399 6.3333335
5.5280867 180.49757 -4.7554874 6
5.2413135 181.11465 -4.5045228 7
5.4473505 182.69669 -4.526041 7
5.546186 180.58846 -4.1337948 7
5.3707871 180.94876 -4.2107358 7
5.4209142 182.74789 -4.2815332 7
5.3480535 180.58794 -3.612864 8.0337505
5.5094671 180.28146 -3.3788776 8
5.419991 180.55945 -3.3074756 8.0838327
5.258944 182.27821 -3.3492284 8.1065006
5.3795462 182.53178 -3.2200456 8.0714998
5.2990608 183.09364 -3.3657701 8.0284996
5.8458929 180.52794 -5.3771763 6
5.6184196 180.94353 -5.3890858 6
5.6081915 181.93484 -5.2569585 6
5.6755486 182.12372 -5.4943089 6
5.8376031 182.92247 -5.2116151 6
5.9910865 200.95815 -5.3492131 7
5.7307935 180.66971 -5.0363421 6.5
5.7073393 182.20355 -5.0799637 6.3333335
5.877727 180.16652 -4.4048457 7
5.9424124 181.33578 -4.5710378 7
5.7555728 181.64517 -4.6110721 7
5.6245871 182.70941 -4.7324471 7
5.886579 182.91115 -4.6763129 7
5.7225304 180.49525 -4.2509265 7
5.6814251 181.01239 -4.2280326 7
5.6503258 181.50952 -4.3145809 7
5.6486177 182.31299 -4.3524933 7
5.7153215 180.42307 -3.8250375 8.1120005
5.7938638 180.21948 -3.5784683 8.0105
5.8591042 180.58669 -3.4713004 8.0356665
5.9933872 180.33502 -3.1517079 8.0019999
5.8239613 180.44398 -3.0636499 8.1785002
5.9492364 180.30641 -2.5813279 9.0142498
6.1770635 180.30846 -5.3413181 6
6.3075471 180.45459 -5.3498816 6
6.2429137 180.28743 -4.9456944 6.5
6.1473203 180.54401 -5.030539 6.125
6.142879 182.85367 -4.9224887 6
6.0550814 181.18835 -4.4544616 7
6.3350515 180.29788 -4.1559062 7
6.2003427 180.59727 -4.2806106 7
6.1522255 180.85028 -4.2237787 7
6.2318234 180.16295 -3.6286881 8.0162497
6.107964 180.78188 -3.639035 8.0135002
6.193706 180.16214 -3.3973718 8.0251493
6.0791345 180.64116 -3.2689302 8.0345001
6.0544333 180.14108 -2.9956696 8.0205002
6.4494109 180.19633 -5.3536029 6
6.7594767 180.48576 -5.3391619 6
6.5235405 180.57001 -5.0446801 6
6.4260592 182.58557 -5.086236 7
6.4367194 195.7303 -4.8483806 7
6.6134953 180.08987 -4.4350758 7
6.6148062 182.74661 -4.6658545 7
6.4006667 196.55193 -4.7801819 7
6.5146923 180.21429 -4.1869435 7
6.5263457 181.64738 -4.0528593 7
6.7160301 182.30786 -4.3456388 7
6.4532285 180.12643 -3.3346429 8.0355005
6.5074801 180.45628 -3.5658655 8.0310001
6.5437694 180.17795 -3.0241284 8.1333752
6.7509928 181.06062 -3.1236761 8.1514997
7.031384 180.26764 -5.3429766 6
6.8536863 180.48233 -5.3744736 6
7.1332183 180.35767 -5.0181379 6
6.9445028 180.57207 -5.0494256 6
7.0623507 180.13908 -4.4524436 7
6.923245 182.25363 -4.6438022 7
7.0344105 180.24245 -4.1581411 7
7.140244 180.51654 -4.2993722 7
7.1723566 180.35597 -3.3592362 8
6.8842711 181.66592 0.033476256 12.065
7.3354197 180.28804 -5.356688 6
7.2791557 180.56943 -5.3231034 6
7.2121196 180.26607 -5.1240091 6
7.4241424 181.38148 -5.0106554 7
7.3152585 181.7915 -5.0762305 6
7.2319565 180.03952 -4.4265919 7
7.2271328 180.09482 -4.3183646 7
7.3433452 180.56641 -3.2733557 8.0679998
7.4863181 181.44412 -3.3897207 8.0655003
7.6901879 180.63921 -5.4033442 6
7.8787341 181.48947 -4.8657994 6
7.6029763 180.86763 -4.7440505 7
7.8102446 180.98009 -4.2125869 7
7.8623672 181.78496 -4.3891325 7
8.1506634 180.59766 -4.8843331 6
8.1008072 181.21469 -5.093646 6
8.0409479 181.34856 -4.5892143 7
8.1465302 180.01213 -4.0725865 7
8.1881733 180.06871 -1.0045556 11.0645
8.4184017 181.09546 -5.4921403 6
8.6502724 180.52531 -5.0676985 6
8.6237345 180.99968 -5.1193395 6
9.1802845 180.46004 -5.3393874 6
8.8604851 180.87772 -5.2064991 6
9.1502905 180.4801 -4.9029379 6
8.858696 180.69232 -4.1744885 7
9.1619415 182.46498 -4.2716384 7
8.9938335 180.1944 -3.3837764 8.0644999
9.1509161 180.65184 -3.3656991 8.1274996
9.0542669 180.20845 -3.017566 8.0194998
8.841095 182.29659 -2.2912416 9.0249996
9.9829407 193.39995 -5.3815446 7
10.152722 198.32219 -5.4619217 7
10.46156 192.89868 -3.6821203 8.0474997
10.608853 193.11543 -3.4084973 8.06775
11.083706 197.51324 -4.0886159 8.0939999
11.045158 193.38222 -3.3327081 8.0664997
11.406143 197.60194 -3.89622 8.0939999
11.642941 197.35265 -4.0459766 8.0939999
11.830572 192.86931 -3.8452494 8.0912495
11.833227 193.41855 -3.7276387 8.0922499
11.656501 194.09236 -3.6911035 8.092
11.822468 181.13698 -0.62588197 12.0405
11.68114 180.03633 -0.093943097 13.0405
11.699113 180.25221 0.64223152 14.0405
12.232897 180.09819 -5.0053844 7
12.171921 193.40448 -4.0173407 8.0944996
12.311306 193.05391 -3.8407409 8.0895004
12.165272 193.50688 -3.9368823 8.0924997
12.125024 193.89735 -3.7929969 8.092
12.232745 196.95013 -3.80638 8.0810003
12.076845 180.3129 -1.9379357 9.0955
12.664863 193.80501 -3.7630949 8.0815001
12.622998 180.92792 -1.8175007 10.0585
12.485184 180.8364 -1.3482503 11.0395
12.846676 181.4751 -1.7856826 10.058
13.354899 196.11342 -3.7954917 8.0804996
13.876072 197.19789 -3.0174809 8.0264997
14.376258 183.08316 -2.4775224 9.0664997
14.163093 182.91495 -1.1244344 11.051
14.551172 183.11076 -4.9132533 6
14.54512 195.48473 -4.598352 7
14.647215 195.02086 -3.7231805 8.0904999
14.677941 195.06108 -3.3448133 8.0539999
14.414674 182.97914 -2.7557144 8.0150003
14.600124 183.16212 -1.8767184 10.0505
14.970173 194.99614 -3.8754015 8.0930004
15.172462 183.39723 -1.6210605 10.0655
15.20058 194.93175 -4.5982795 7
15.407429 194.46883 -4.0586538 8.0930004
15.322513 194.59801 -3.3395979 8.0535002
15.78855 193.88887 -5.6290579 6
15.937892 194.20428 -3.3345597 8.0529995
16.534962 193.81425 -3.3294804 8.0524998
16.419031 195.36443 -2.0743196 9.052
16.955812 181.17259 -5.3583994 5
16.903454 193.70816 -4.6086917 7
17.119867 193.4337 -3.3243372 8.052
16.999243 194.8634 -2.1471567 9.0690002
17.573395 193.10217 -4.5984206 7
17.456795 193.33559 -4.5868945 7
17.344784 193.2426 -3.7112086 8.0895004
17.59934 192.94708 -3.435482 8.0469999
17.602707 193.16051 -4.3537526 7
17.652056 193.12624 -3.2566209 8.0509996
17.677961 195.59044 -2.2444952 9.0469999
18.121849 192.69452 -4.3230152 7
18.237902 192.35616 -3.3504434 8.0494995
18.155928 192.3821 -2.2187808 9.0865002
18.148996 193.12888 -2.3112638 9.0465002
18.623699 191.77643 -3.4161727 8.0459995
18.745432 191.58989 -3.1799991 8.0434999
18.574276 193.11293 -2.2310641 9.0860004
19.180401 188.2104 -5.2666626 6
19.142706 191.11221 -3.3930612 8.0402498
18.845116 191.76497 -3.2442296 8.0500002
18.904282 192.6937 -2.3955419 9.0775003
18.864153 192.98174 -2.0591254 9.0434999
18.943815 196.71747 -2.1920946 9.0459995
19.13283 192.9919 -1.9074857 9.0885
19.494238 186.48389 -5.6726437 6
19.57128 190.49963 -3.3967121 8.0450001
19.44235 190.99672 -3.5417073 8.0155001
19.210899 191.03723 -3.1656377 8.0430002
19.308008 192.67583 -2.287257 9.0655003
19.486071 192.8295 -2.2212944 9.0599995
19.467756 192.79512 -1.8816645 9.0885
19.928493 186.40141 -5.703198 6
19.914949 192.30978 -3.1432314 8.0424995
19.803116 192.17053 -2.1830528 9.0437498
19.612963 192.97467 -2.2212684 9.0854998
20.011145 189.83778 -3.3870976 8.0445004
20.321033 191.38736 -3.1304941 8.0419998
20.005699 191.81525 -2.2302926 9.0345001
20.349955 192.00317 -2.2883668 9.085
20.387238 192.50235 -2.1357245 9.0485001
20.379601 193.11411 -2.22474 9.085
20.205019 194.09955 -2.1157191 9.059
20.547272 189.46152 -4.9312229 7
20.460045 189.24367 -4.5983434 7
20.416361 189.15121 -3.377702 8.0439997
20.427139 189.32968 -3.3106179 8.059
20.458303 193.70593 -2.2556984 9.0445004
20.635098 193.5753 -1.9748044 9.0419998
21.095896 188.32684 -4.4130073 7
21.153721 188.48253 -4.7636776 7
20.817154 188.51324 -3.3684747 8.0434999
20.880167 191.49222 -3.1125629 8.0415001
20.933706 192.46912 -2.2352505 9.0592499
20.994268 193.92099 -2.2135382 9.0845003
21.236897 188.15297 -5.0452366 6
21.222887 187.95795 -3.101583 8.0404997
21.466408 191.73112 -3.0935836 8.0410004
21.90102 187.43555 -4.9192777 6.5
21.618874 187.68167 -5.0057874 6
21.806534 187.52681 -4.598011 7
21.987144 187.44302 -3.6731927 8.0760002
21.863249 190.47278 -3.2135582 8.1014996
21.711613 192.92349 -2.2833138 9.0839996
21.998507 193.86511 -2.1082494 9.0334997
21.71262 193.15538 -1.9481776 9.0410004
21.777367 196.84442 -1.8185893 9.0415001
22.05595 182.83157 -5.6026406 6
22.053385 187.34706 -4.9766989 7
22.254221 187.17557 -4.4710894 7
22.288439 190.47665 -3.066608 8.04
22.419231 187.00032 -4.9455099 6
22.437752 186.7243 -4.1456413 7
22.619387 186.88969 -3.5617673 8.1155005
22.67873 189.86862 -3.053565 8.0395002
22.504875 194.23584 -1.8798392 9.0404997
22.846027 186.34319 -5.2177987 6
22.876287 186.59299 -3.29808 8.0565004
22.829615 190.61411 -2.994354 8.1009998
23.467415 183.34935 -5.6221542 6
23.570744 185.93854 -3.8150055 8.0915003
23.320841 186.20934 -3.2953453 8.0559998
23.677141 182.05055 -5.6305976 5
23.954718 185.69986 -5.0885534 6
23.652731 185.15182 -3.4183431 8.1029997
23.749668 185.78249 -3.2925878 8.0555
23.945059 185.65729 -3.1793945 8.0439997
23.904518 190.49164 -2.4633424 9.0740004
23.746391 193.76389 -2.1069016 9.0559998
24.266541 185.46266 -5.0137234 6
24.299461 185.48521 -4.1130595 7
24.294798 184.24727 -3.802623 8.1049995
24.337372 184.98143 -3.2009425 8.0279999
24.185507 185.45499 -3.294421 8.0275002
24.379835 185.50186 -3.1725833 8
24.397673 191.70877 -2.4369309 9.0734997
24.332897 192.85196 -2.1925604 9.0690002
24.002872 193.33452 -2.2889872 9.0825005
24.590734 183.27481 -5.7414527 5
24.464247 182.92964 -5.5401011 5
24.69656 184.53888 -5.1468697 6
24.494181 184.7567 -4.0222702 7
24.564104 184.95085 -3.2869592 8.0544996
24.695616 184.62114 -3.1879086 8.0275002
25.034843 184.17567 -5.1261091 6
25.089108 184.5639 -5.0109973 6
24.888319 184.69205 -4.0009351 7
24.949074 184.56519 -3.2841043 8.0539999
25.053328 184.28436 -3.1749635 8.0270004
24.999531 192.10004 -2.4280803 9.073
25.011503 191.96454 -2.3175056 9.0819998
25.17347 192.68619 -2.2568402 9.0819998
25.101202 195.60106 -2.0295212 9.0550003
25.42939 183.37793 -5.7890792 5
25.280079 184.27707 -3.9779453 7
25.388897 184.10834 -3.2794335 8.0482502
25.394812 183.92914 -3.1621366 8.0264997
25.399565 192.58002 -2.1320369 9.0544996
25.933086 183.67931 -5.6184726 6
25.615715 183.92702 -5.5707521 5
25.648911 183.9635 -4.9927797 6
25.762007 183.77821 -3.3539636 8.0625
25.750221 183.59055 -3.1489432 8.026
25.658613 183.87947 -3.1528778 8.0415001
25.723104 191.0739 -2.4497943 9.0725002
25.949911 192.45865 -2.1298106 9.0539999
26.325151 182.96674 -5.7185507 5
26.264563 183.29239 -5.5134058 5
26.285091 183.35223 -4.9355407 6
26.288103 183.38208 -4.0942512 7
26.065615 183.65662 -4.3860707 8.0944996
26.391312 183.18578 -3.6044006 8.0725002
26.183134 183.45 -3.2689927 8.0174999
26.02412 183.66737 -3.2697001 8
26.114704 183.6814 -3.1454823 8
26.288509 192.21819 -2.4231944 9.0719995
26.566011 182.91458 -5.7183094 5
26.467627 183.13165 -5.5681286 6
26.630939 182.99937 -4.8972759 6.3333335
26.572128 182.98988 -4.6321626 6
26.55995 183.23289 -4.7833209 6
26.64905 182.99675 -4.1600237 7
26.688251 182.93535 -3.8582621 7.6594
26.561413 183.24683 -3.9602168 7
26.760874 182.74742 -3.2688305 8.0515003
26.573517 183.05331 -3.2631423 8.017333
26.771664 183.05009 -3.1344764 8
26.480072 183.34483 -3.1394637 8
26.544079 192.49287 -2.121103 9.0535002
26.876305 183.55238 -5.8383803 5
26.902824 182.60953 -5.5046759 5
27.036991 182.57542 -4.8768835 6
26.925777 182.69492 -4.7198582 6.3333335
26.8043 182.96677 -4.7676196 6
26.995049 182.65538 -4.0712833 7
27.07107 182.48344 -3.8020039 7.9154167
26.988371 182.6189 -3.2523768 8.0127497
27.097282 182.71091 -3.1287394 8
26.931541 192.34232 -2.4184253 9.0714998
27.255087 183.12061 -5.7549081 5
27.365492 182.2641 -4.8592458 6
27.481918 182.27756 -4.7286305 6
27.24078 182.53204 -4.742929 6
27.405092 182.25601 -4.058969 7
27.412746 182.2639 -3.782207 7.5407505
27.206627 182.57564 -3.9351807 7
27.421984 182.17921 -3.311748 8.0243998
27.270216 182.40111 -3.2474222 8
27.421068 182.38916 -3.1229494 8
27.587143 192.02545 -2.4228194 9.0710001
27.500845 192.23468 -2.268147 9.0804996
27.310814 192.89374 -2.3050492 9.0804996
27.908508 181.73228 -5.6561565 5
27.864573 182.74498 -5.5938015 5
27.8514 181.74176 -4.8433437 6
27.677704 182.08069 -4.7178726 6
27.756207 181.84702 -4.0419583 7
27.803534 181.97697 -3.9133003 7
27.602669 182.16455 -3.9201131 7
27.885935 181.567 -3.2965748 8.0822496
27.742231 181.86057 -3.2359648 8.0124998
27.879303 181.9119 -3.11445 8
27.673416 182.11795 -3.1182773 8
27.725481 192.64493 -2.0992944 9.0524998
28.168058 181.36194 -5.6267881 5
28.381924 181.1089 -5.3347831 5
28.128897 182.34651 -5.5614524 5
28.189886 181.34802 -4.8340678 6
28.38924 181.33452 -4.6779561 6
28.077534 181.67451 -4.6960497 6
28.238279 181.34387 -4.0207734 7
28.274979 181.24649 -3.791899 7.8238754
28.081511 181.70253 -3.9034166 7
28.347178 181.17627 -3.5692556 8.0705004
28.229284 181.37201 -3.2093084 8
28.245718 181.49535 -3.1073046 8
28.058071 181.73259 -3.1110795 8
28.401011 181.10194 -5.6329937 5
28.573605 180.99417 -5.4109578 5.5
28.584856 180.92589 -4.8107481 6
28.671013 180.76549 -4.3269157 8.0939999
28.505821 181.04584 -4.0084467 7
28.605856 180.83562 -3.7201815 8.0950823
28.666365 180.666 -3.4344769 8.1091995
28.473747 181.00967 -3.2119162 8.0190001
28.645277 180.89488 -3.1966937 8
28.76045 185.55592 -2.4409134 9.0799999
28.66184 185.44302 -2.2618332 9.0445004
28.943693 180.55328 -5.4106631 5.25
29.183752 180.27321 -4.7758312 6
28.933979 180.54034 -4.7898507 6
29.181715 180.28877 -3.977632 7
28.973476 180.49937 -3.7985525 7.5593748
29.067795 180.12244 -3.0148427 8.0209999
28.962833 180.53891 -3.155329 8.0120001
28.998463 183.53302 -2.8215368 8.0310001
28.969624 183.82655 -2.293427 9.0334997
28.984989 185.2872 -2.1892359 9.0384998
29.052582 195.28413 -2.3422029 9.0699997
29.046776 183.99963 -1.3751981 10.0335
28.98044 183.77576 -0.98414946 10.031
29.396448 180.07529 -4.7449379 6
29.342342 180.08884 -4.1478114 7
29.355658 180.13007 -3.9938362 7
29.311884 180.1329 -3.4074564 8.076333
29.226433 180.25281 -3.178812 8
29.473751 184.55838 -2.8951745 8.0209999
29.444275 183.28841 -2.5445728 9.0745001
29.574104 192.84274 -2.7955422 8.0240002
29.344746 183.53091 -2.3430109 9.0384998
29.251774 183.72752 -2.2247353 9.0375004
29.449341 183.61377 -1.8831906 9.0305004
29.327957 184.31084 -1.8707023 9.0310001
29.389622 194.91446 -1.9952321 9.0515003
29.470425 195.70465 -1.870492 9.0415001
29.519108 183.9045 -1.434846 10.0385
29.754213 182.97789 -2.701354 8.5494995
29.880318 183.47716 -2.7344129 8.0190001
29.741867 183.86874 -2.7937896 8.0305004
29.759794 183.40237 -2.2730546 9.0325003
29.634014 183.79718 -2.2647791 9.066
29.614634 184.05042 -2.2638457 9.033
29.741322 194.08124 -2.0301287 9.0419998
29.974199 183.41885 -1.8584443 9.0299997
29.944244 195.13409 -1.8760468 9.0410004
29.834219 183.87079 -1.4460622 10.04325
