# .PCD v0.7 - Point Cloud Data file format
VERSION 0.7
FIELDS x y z intensity
SIZE 4 4 4 4
TYPE F F F F
COUNT 1 1 1 1
WIDTH 1243
HEIGHT 1
VIEWPOINT 0 0 0 1 0 0 0
POINTS 1243
DATA ascii
13.434813 -44.883465 2.5991852 9.0174999
13.450246 -33.79258 3.1172042 9.0579996
13.433739 -33.493565 3.0446854 9.0191116
13.384556 -44.735409 3.6433599 8.1020002
13.581641 -44.255985 4.2841253 9.0249996
13.422748 -33.937965 4.5374784 9.0695
13.226712 -45.178658 4.9244685 9.0780001
13.642015 -34.350548 -0.32963735 7
13.980354 -45.177361 0.2434742 7
13.93741 -43.646275 0.084123276 6
13.918513 -43.058147 0.04052186 6
13.783066 -44.863644 1.0737336 8.04
13.93469 -38.306026 0.92867637 8.0502501
13.96021 -34.462933 0.9978593 8.0296249
13.868644 -34.304054 0.94990331 8.033
13.906276 -34.511806 1.4691663 8.1754999
13.953782 -34.341198 1.4244492 8.1754999
13.79262 -32.29557 1.3337227 8.0705004
13.895789 -34.912071 1.9822421 8.1715002
13.892554 -34.723675 1.8608482 8.1724997
13.687928 -44.461452 2.1662056 8.0445004
13.842768 -34.973923 2.1323969 8.7721672
13.945148 -34.591305 2.0711055 8.8973999
13.889332 -34.110607 2.1291342 9.1239996
13.802213 -33.890549 2.0917032 8.5099173
13.805188 -44.862194 2.6141846 9.0257502
13.743165 -44.510239 2.9859614 8.0415001
13.788825 -33.498825 3.0380883 9.0120001
13.663645 -34.587372 3.4323287 9.7201662
13.974994 -34.342968 3.3462095 10
13.9487 -33.129284 3.3165309 9.0965004
13.868122 -32.697227 3.3673513 9.0325003
13.989776 -30.23781 3.4163024 9.0314999
13.606364 -34.519527 3.7116272 9.1014996
13.799949 -44.922207 4.0468144 8.0959997
13.964459 -34.578938 4.0494442 9.0509996
13.755476 -33.260143 4.0667777 9.0360003
13.731151 -44.413692 4.6714129 9.0415001
13.608281 -42.366238 4.8066673 10.048
13.871957 -44.43927 5.6198606 9.0235004
14.390227 -34.661411 0.37294668 7
14.224143 -34.40012 0.75514299 8.0570002
14.02693 -34.394733 0.7721318 8.0559998
14.232798 -44.852833 1.0049505 8.0141668
14.069535 -38.294453 0.8445521 8.0550003
14.051364 -34.489761 0.97195953 8.1304998
14.2087 -34.355114 0.93337542 8.0292501
14.055875 -44.754387 1.2641269 8.0115004
14.203648 -34.958397 1.4795181 8.0507498
14.199496 -34.450916 1.5193418 8.0820007
14.013826 -32.035477 1.2497066 8.0799999
14.355369 -31.919893 1.317561 8.0710001
14.326684 -34.215061 1.8815753 8.0522499
14.091523 -33.825535 1.7418754 9.0690002
14.149527 -44.468281 2.2054563 8.0528336
14.12939 -34.724247 2.1102817 9.1599998
14.173143 -34.381626 2.111557 9.0374374
14.147355 -33.881489 2.0847144 8.0095005
14.2879 -33.48119 2.2340565 9.0214996
14.34283 -44.880314 2.6189251 9.05375
14.030364 -35.3866 2.6739194 8.0695
14.168956 -34.231186 2.9695714 8.5732498
14.207555 -33.469032 3.0389328 9.0111494
14.177658 -44.685776 3.2756073 8.0229998
14.040321 -33.819553 3.3039227 10
14.130109 -33.371967 3.2674112 10.053
14.355774 -34.276161 3.7071455 9.1020002
14.337154 -43.671795 4.20821 9.0255003
14.296807 -43.408962 4.2466426 9.0255003
14.2382 -44.356022 4.6867552 9.0384998
14.395283 -43.400723 4.7727981 9.0450001
14.031316 -33.517574 4.6059089 9.0670004
14.243732 -44.861687 4.9909601 8.0974998
14.278321 -34.670052 5.0383153 9.0985003
14.196809 -44.529297 5.5374084 9.0229998
14.252237 -34.693695 5.9895802 10.0535
14.324633 -32.502415 5.7738667 9.0380001
14.523201 -35.165634 -0.83075589 7
14.556566 -34.488583 0.11847303 8.085
14.669116 -34.267586 0.77405512 8.0565004
14.521161 -44.848751 1.0611974 8.0290003
14.654369 -38.270935 0.88618642 8.0544996
14.60037 -34.272823 1.021138 8.031642
14.770976 -44.691677 1.2564555 7
14.665197 -34.868877 1.3325694 8.0795002
14.582459 -34.21133 1.4727222 7.5035
14.597297 -33.998512 1.2170299 7
14.523242 -34.553997 1.8234435 8.1145
14.551565 -34.166565 1.8161136 8.1682863
14.604131 -33.977898 1.8251183 8
14.591214 -45.071846 2.2162828 8.5697498
14.535817 -44.442249 2.2149863 8.0483332
14.650662 -37.873722 2.0324607 8.0500002
14.637676 -34.616005 2.216238 8.7309999
14.652143 -34.270729 2.1126549 9.0635004
14.658049 -33.82431 2.1066232 8.2729998
14.712132 -33.469219 2.1792133 8.5429993
14.776069 -31.227467 2.2608995 9.1739998
14.448445 -44.85265 2.6243982 9.026
14.744171 -44.368156 2.5681274 8.0085001
14.705049 -38.54578 2.7035055 8.0500002
14.655512 -37.829334 2.6572654 8.0509996
14.576139 -34.622597 2.6284385 8.3661671
14.637548 -34.278645 2.5757089 7.5349998
14.760638 -33.967651 2.6925502 9.0825005
14.47141 -30.144659 2.4447091 9.1274996
14.74249 -44.444923 3.064146 8.0459995
14.719147 -34.520149 2.8510325 9.0889997
14.672866 -33.926533 3.0912952 9
14.547091 -33.450424 3.041857 9.0205908
14.787506 -33.125679 3.3344657 9.0970001
14.483728 -32.770016 3.4477444 9.1049995
14.411678 -44.715172 3.6357975 8.1025
14.487026 -44.378899 3.7811654 9.0450001
14.608714 -34.189552 4.2230787 8.5555
14.452014 -33.899059 4.5449677 9.0699997
14.462585 -43.070351 5.2453504 9.0249996
15.002026 -35.33107 -0.88785255 7
15.1118 -44.978626 0.38902375 8.1350002
14.84566 -38.45488 0.54612917 8.0950003
15.16031 -44.851269 0.97192711 8
14.924493 -38.562382 0.85470641 8.0555
14.93214 -34.273239 1.0775912 8.0594997
15.133112 -44.850697 1.2067473 8.0010004
14.851937 -44.541595 1.3143514 7.2506247
15.054505 -44.395401 1.3134557 7
14.94725 -34.725819 1.4527994 8.0749998
14.93292 -34.377155 1.2869879 8.0345001
15.098574 -33.905197 1.4513311 8.0728331
14.873721 -38.301628 1.8523369 8.059
15.153501 -37.793049 1.764367 8.0597496
15.070225 -34.808182 1.6263796 8.0170002
14.812245 -34.017288 1.7043948 8
14.947721 -33.943909 1.7720838 8
15.136287 -45.069523 2.290334 8.5695
15.055142 -44.427315 2.2035472 8.052
14.887848 -44.358742 2.1714096 8.0559998
15.08989 -34.08321 2.1559591 8.6129999
15.076316 -33.910252 2.046828 8.3664999
14.920272 -33.457458 2.2377999 9.0220003
14.863115 -32.265293 2.2872505 9.1735001
15.012574 -44.856316 2.6124713 9.0275002
14.95603 -44.563885 2.4909842 8.0529995
14.893718 -38.930241 2.6239536 9.0529995
14.887438 -37.876774 2.5338659 9.0559998
14.982037 -33.882282 2.5796332 8.5410004
15.137425 -34.430256 2.8001392 8.0644999
14.818118 -34.254066 2.8567173 8.5877495
15.052202 -33.866535 3.0704195 8.9197273
14.914618 -33.393673 2.9909339 9
14.810171 -31.340412 3.1728797 9.0799999
15.063026 -44.745468 3.4564507 8.0235004
14.841913 -44.369171 3.5297143 9.0702496
14.994375 -34.386044 3.4294722 8.099
15.15541 -33.381435 3.3242424 8.0024996
15.016517 -30.55394 3.2781081 9.1059999
14.8526 -44.550533 3.6696298 9.0539999
14.846766 -33.409275 4.3577199 9.0319996
14.847148 -32.461826 4.3513942 9.0290003
15.170707 -43.902298 4.6845212 9.0454998
15.182652 -42.812054 4.7445569 9.0389996
14.845496 -33.784168 4.7623463 9.0644999
15.064597 -33.438717 4.6127639 9.0675001
15.003269 -34.361023 5.02423 9.099
15.197859 -43.904327 5.4848452 9.0235004
15.115529 -42.532635 5.2127542 9.026
15.098177 -34.761116 5.9883356 10.052
15.182664 -42.664387 10.706904 11.086
15.261703 -35.371994 0.13781378 8.0845003
15.298035 -34.533627 0.33977798 8.0909996
15.417523 -44.840015 0.99333948 8.0267506
15.246147 -35.100262 1.1133475 8.0065002
15.290276 -33.918056 1.3771507 8.0825005
15.421984 -33.444248 1.4543347 8.0325003
15.451021 -39.088528 1.7263647 8.0299997
15.411736 -37.827988 1.8222731 8.0580006
15.546708 -36.495419 1.7650172 8.0290003
15.260481 -34.019852 1.876251 8.0970001
15.345085 -33.869724 1.7543669 8.0234995
15.561775 -44.402367 2.2156105 8.0530005
15.410222 -44.399223 2.1198385 8.0579996
15.574785 -35.688961 2.2692146 8.1374998
15.348535 -34.011444 2.0486865 8.1055002
15.367534 -33.874622 2.1809237 8.1812506
15.467961 -33.50462 2.2253985 8.5427504
15.234401 -44.847248 2.631999 9.0267506
15.406325 -44.472057 2.4837046 8
15.424036 -35.064434 2.5078988 8.1424999
15.455962 -34.611206 2.6178179 8.3741674
15.311988 -33.884731 2.6117437 8.5510006
15.538731 -34.272587 3.0979145 9.0555
15.41935 -33.785915 2.9601319 8.8957853
15.513627 -33.39175 3.0520926 9.0594997
15.439633 -44.356113 3.4014244 9.0775003
15.364143 -32.738743 3.4560986 9.1055002
15.501584 -30.023428 3.2621975 9.0024996
15.52121 -44.432648 3.6370494 9
15.205508 -34.128441 3.7474959 9.0039997
15.589355 -33.94994 4.1489611 8.0395002
15.54046 -31.528809 4.0476108 9.0345001
15.424691 -44.274471 4.6861682 10.047
15.303877 -43.805763 4.6658502 10.046
15.59584 -43.29982 4.7248211 9.0465002
15.581323 -42.824821 4.6098084 9.0395002
15.580713 -41.975117 4.6816645 9.0485001
15.568973 -30.463171 4.6869187 9.1005001
15.410829 -42.999462 10.150869 11.08475
15.319253 -42.893299 13.866374 13.123
15.475918 -42.630749 14.441414 13.13275
15.231413 -42.575916 16.351326 14.123
15.844931 -44.543346 0.21844387 6
15.733285 -44.343334 0.2419869 6
15.893262 -35.295776 0.21004438 8.085
15.690437 -35.328449 0.53961992 8.1000004
15.865091 -33.986088 0.53919089 8.1350002
15.834165 -44.843559 0.975631 8
15.785758 -35.134655 1.0459983 8.0102501
15.959044 -33.999622 1.1942983 8.1365004
15.662248 -32.947258 0.8953802 8.0485001
15.763209 -44.408508 1.3334858 7
15.837281 -33.860489 1.398645 8.0506668
15.703459 -38.942699 1.8788382 8.0279999
15.626937 -37.780407 1.8378773 8.0279999
15.994336 -36.642117 1.8886933 9.0679998
15.707003 -36.171974 1.9064845 8.3977499
15.958879 -35.549267 1.828258 9.0684996
15.894553 -35.168591 1.8865701 9.073
15.630401 -33.802868 1.6651567 8
15.849629 -44.397243 2.1300321 8.0559998
15.710855 -38.899269 2.0219619 8.0275002
15.817085 -38.58075 2.1778474 9.1332502
15.746422 -38.172596 2.3540905 8.1352501
15.733951 -37.621677 2.3367798 8.1359997
15.689041 -37.360153 2.2023418 8.9648333
15.712243 -36.980854 2.3000164 8.3816252
15.693428 -36.479725 2.2923443 8.3883753
15.670613 -36.232868 2.2484672 8.6415005
15.662164 -35.74752 2.3389492 8.1373339
15.685721 -35.314323 2.1823003 8.1207504
15.760653 -34.639812 2.1367757 8.0225
15.722091 -34.046394 2.1453886 8.0262499
15.884059 -33.875237 2.1689324 9.041667
15.645332 -44.831039 2.6220865 9
15.684081 -44.568409 2.4941337 8.0530005
15.611773 -44.333069 2.5318267 8.0065002
15.726744 -38.022743 2.4215145 8.1355
15.705874 -37.718929 2.4142454 8.1382504
15.709895 -37.380402 2.4230113 8.1405001
15.788048 -34.675526 2.6479881 9.1285
15.702932 -33.685955 2.5821621 8.5415001
15.797245 -33.449833 2.6324019 8.5412502
15.825324 -34.163143 2.9853754 8.0080004
15.7642 -33.45005 2.9689164 9.0507002
15.933727 -44.64706 3.2340777 8.0235004
15.961534 -34.102509 3.2452443 9.0295
15.900287 -33.348583 3.3324945 8.0037498
15.621922 -44.533401 3.6244652 9.0530005
15.624948 -34.430763 4.2441683 9.0535002
15.658409 -31.775702 4.1371021 9.0404997
15.642293 -31.467575 4.0328622 9.0299997
15.863072 -44.496712 4.6760249 10.049
15.775428 -42.969398 4.6837873 10.053
15.873232 -34.62722 6.0827546 10
16.251499 -35.097523 1.0126425 8.0229998
16.017254 -39.125858 1.2822129 8.0579996
16.322803 -33.944347 1.3566574 8.1437502
16.127279 -38.049232 1.6590259 8.0625
16.29542 -37.073765 1.9689343 8.052
16.051525 -34.769077 1.8527929 8.0530005
16.077322 -33.902252 1.655395 8.0015001
16.266022 -32.74062 1.8296164 8.0979996
16.263943 -32.368217 1.7553964 8.052
16.224722 -45.020084 2.225255 8.57125
16.291222 -44.359348 2.1063521 8.0585003
16.186682 -34.721012 2.0755727 8.0091667
16.208937 -34.034843 2.2189562 9.1096659
16.191072 -33.865532 2.2749898 8.265625
16.179577 -33.441238 2.2329211 8.5122499
16.220152 -32.933983 2.2630615 8.03475
16.227098 -32.68969 2.3508415 8.033
16.124546 -44.885193 2.5833817 9.0561247
16.330275 -44.340019 2.4247556 8.0295
16.379463 -36.631886 2.5631597 8.0515003
16.369335 -35.749176 2.5124035 8.017333
16.356173 -35.04652 2.4674141 8
16.122692 -34.665363 2.6812775 9.0015001
16.393803 -33.768192 2.6785796 9.0019999
16.370426 -33.425583 2.6150973 8.5462503
16.13846 -44.719578 2.8420019 8.1035004
16.20886 -34.503559 3.0861442 9.0600004
16.021523 -34.256561 3.0856822 9.059
16.286213 -33.366108 2.9470985 9.0574999
16.099308 -32.96067 3.1643114 9.0249996
16.125639 -31.163771 3.1367602 9.0200005
16.322533 -35.242477 3.4852951 8.0994997
16.235891 -34.65419 3.4450324 10.0575
16.240974 -32.387371 3.4617589 9.0030003
16.066603 -44.269299 3.6456673 9.0609999
16.018255 -34.178375 3.7582493 9.0045004
16.382141 -35.676582 4.1713619 9.0465002
16.383608 -35.387989 4.1985974 9.0491247
16.370548 -35.028194 4.1259127 9.0467491
16.344357 -34.567799 4.1703897 9.0368748
16.101448 -42.522999 4.586307 10.052
16.15729 -33.445332 4.6276731 9.0679998
16.785036 -38.898705 0.17922054 6
16.776421 -38.668442 0.16022353 6
16.74926 -38.255024 0.16399686 6
16.722214 -37.853325 0.19639944 6
16.419098 -34.662262 0.37884423 7
16.751095 -35.137253 0.78686941 8.1289997
16.707966 -38.168102 1.1855156 7
16.778004 -37.716934 1.1745874 7
16.677902 -35.239258 0.95294768 8.1339998
16.624407 -35.109097 0.98413336 8.0155001
16.789646 -39.32563 1.2353539 7
16.770536 -38.975319 1.2246366 7
16.744011 -38.599159 1.2268393 7
16.725571 -38.347427 1.2329226 7
16.698959 -37.867573 1.2325693 7
16.771967 -36.328171 1.3724434 8.0340004
16.56934 -34.68335 1.4434581 8.0760002
16.609373 -33.855373 1.4057394 8.0085001
16.444983 -35.287735 1.7410157 8.059
16.506639 -34.873146 1.9179413 7.5507498
16.510071 -34.698048 1.8147268 8.0454998
16.499884 -45.070843 2.0578601 8.0255003
16.623257 -44.362164 2.1473343 8.0555
16.768095 -39.436932 2.2712836 8.0320005
16.75178 -38.994465 2.2604759 8.0237503
16.737003 -38.598469 2.2704966 8.0069284
16.699759 -38.18718 2.2307963 8.0095997
16.674522 -37.802628 2.2442923 8
16.485802 -34.959991 2.1852245 8.1029997
16.49951 -34.699982 2.2081742 8.6129999
16.791252 -34.078033 2.1237786 9.1204996
16.586981 -33.859287 2.2513082 8.5257502
16.529646 -33.053703 2.2654428 9.0194998
16.6542 -44.861729 2.5704994 9.0398331
16.552244 -44.587563 2.4922519 8.0480003
16.404041 -36.187267 2.5462015 8
16.723242 -34.659225 2.6658754 9.1289997
16.537071 -33.809326 2.4339347 8.0030003
16.673923 -33.354034 2.77966 9.0719995
16.431877 -38.459244 2.9234693 8.0264997
16.537764 -34.180103 3.032145 8.0054998
16.47719 -33.749744 2.8527589 8.1059999
16.629038 -33.369541 2.9970756 8.8556995
16.423075 -44.559219 3.5620127 9.0480003
16.469681 -34.614216 3.4499512 10.0585
16.542183 -33.369236 3.328402 8.00175
16.590929 -30.626064 3.3140712 9.0340004
16.548708 -44.675858 3.6211786 8.1035004
16.465296 -37.405533 4.2837496 9.0445004
16.440374 -36.962013 4.2348251 9.046876
16.429857 -36.63121 4.2660203 9.0466251
16.431807 -36.174854 4.2405033 9.0308332
16.414753 -35.882038 4.2349086 9.0308332
16.411488 -35.511257 4.253561 9.0222502
16.436253 -35.058575 4.3026619 9
16.50428 -34.615547 4.1611333 8.6954994
16.638178 -42.170582 4.7319498 9.0395002
16.454182 -37.300907 4.4045448 9.0504999
16.712486 -43.270493 17.188055 14.163
16.725227 -42.620064 17.306335 14.16
16.938925 -35.185013 -1.1287718 7
16.856384 -40.045555 0.16099492 6
16.858261 -39.859982 0.21517371 6
16.815626 -39.357758 0.17261526 6
16.811535 -39.152851 0.17197677 6
17.027784 -37.634411 0.1511184 6
17.117382 -34.565887 0.39753205 7
16.982929 -35.131344 1.0050349 8.033143
16.874233 -40.90477 1.298539 7
16.836685 -40.739712 1.2817603 7
16.873985 -40.348862 1.2420317 7
16.818182 -39.847691 1.2537831 7
16.799961 -39.512836 1.2436982 7
16.968943 -44.264297 1.8981863 8.0614996
16.969994 -34.706116 1.8265018 8.0457497
16.800049 -39.558708 2.2968745 8
16.992149 -34.712276 2.1979446 8.7620001
17.019192 -33.866028 2.2256582 8.6253576
16.86054 -33.40406 2.2422495 8.5127506
16.90888 -44.88607 2.5911231 9.0749998
17.116917 -44.791145 2.6461704 9
16.937517 -35.348381 2.420208 9.0524998
17.058369 -33.448929 2.4772024 8.0120001
17.087824 -34.210258 3.0570648 9.0614996
17.107494 -33.322334 3.0399425 8.7084999
16.839779 -44.661739 3.4150157 8.0240002
17.106815 -37.51907 3.2321336 9
16.90308 -34.09827 3.3733835 9.0205002
16.848011 -33.373714 3.3261476 8
17.036831 -32.309715 3.4622986 9.0035
16.807251 -31.920326 3.245182 10.0555
16.976656 -44.211567 3.6426127 9.0614996
16.943928 -34.234699 3.7352378 9.0490007
17.020864 -44.050415 4.6287656 10.05
16.886173 -43.940708 4.6787128 9.0395002
16.857649 -42.387207 4.69591 9.0469999
16.927526 -34.590862 5.0839534 9.1000004
16.854361 -33.252144 5.8800225 9.0404997
17.583525 -34.346851 -0.70594472 6
17.351664 -34.633282 0.38818851 7
17.208858 -34.62001 0.41473657 7
17.536406 -35.145004 0.97909206 8.0509996
17.555492 -44.333286 1.4114696 7
17.473009 -35.0242 1.9906397 8.1059999
17.445681 -34.662766 1.9143322 8.0276251
17.396269 -34.925819 2.1884704 8.1035004
17.511438 -34.650684 2.1755712 8.3511667
17.475304 -34.020916 2.2601562 9.1239996
17.428671 -33.825893 2.2845175 8.0132504
17.41044 -33.132195 2.2460916 9.0240002
17.387598 -44.802315 2.6517787 9
17.383451 -44.558746 2.4766579 8.0524998
17.205648 -34.640823 2.7432306 9.0024996
17.243313 -33.790081 2.4476097 8.0035
17.398827 -33.316574 2.7736557 9.0769997
17.564583 -44.334976 3.1357229 8.026
17.200151 -34.464783 3.1237891 9.0600004
17.271025 -34.17334 3.0328317 8.0060005
17.494034 -33.348763 2.8981977 9.0743332
17.359047 -32.655346 3.12111 9.026
17.202879 -35.154736 3.4842017 8.1000004
17.406145 -34.181404 3.3090138 9.0326662
17.238621 -33.360111 3.325002 8
17.454384 -32.583206 3.2379346 9.0209999
17.305614 -33.14706 3.6830001 9.1040001
17.272326 -44.914883 4.1016836 9.0305004
17.487322 -37.698414 4.315999 10.0385
17.552914 -32.01712 4.2629561 9.0334997
17.466202 -30.476196 4.1671009 9.0319996
17.348993 -33.818546 4.7947364 9.0655003
17.404745 -44.738625 4.9993052 8.099
17.392441 -42.599831 14.13275 13.074
17.480265 -43.043259 15.153234 13.156
17.84067 -35.208908 -0.81227767 7
17.895037 -35.163185 -1.1043203 7
17.858688 -35.131588 -0.68621147 7
17.818682 -34.530003 0.30307317 7
17.860846 -44.281979 0.51461661 7
17.633078 -34.737736 0.61221772 7
17.66065 -33.903419 0.59892672 8.1355
17.75573 -35.209507 1.0677252 8.1324997
17.800247 -35.118382 0.97305834 8.03825
17.730944 -35.149826 1.2731555 8.0255003
17.756037 -33.948601 1.2521013 8.1370001
17.674173 -44.90205 1.64144 8.1470003
17.827734 -35.305344 1.7276652 8.0295
17.816532 -34.673721 1.8716139 8.0472507
17.607204 -33.875641 1.6914481 8.0024996
17.865532 -45.492664 2.0251057 8.0279999
17.829672 -34.634438 2.2394395 8.8173008
17.699251 -33.860714 2.2449441 9.0527496
17.672075 -33.458675 2.2506607 8.0024996
17.740191 -44.486565 2.4793532 8.0535002
17.702133 -34.673294 2.7029984 9.066
17.956514 -33.768314 2.4615195 8.0039997
17.725185 -33.409527 2.4699159 8.0124998
17.790638 -44.596378 3.1898291 8.0240002
17.809734 -33.288441 3.0343068 8.7957497
17.727636 -44.478859 3.5311418 9.0529995
17.786058 -34.194267 3.2272329 9
17.688944 -33.346066 3.3711543 8.5492496
17.639433 -44.65646 3.614229 8.1040001
17.905489 -44.172943 3.6417749 9.0620003
17.659887 -34.092148 3.7665334 9.0054998
17.907223 -44.770412 4.050436 8.0979996
17.675358 -41.814632 6.4284878 10.041
18.229982 -35.124687 -0.71934605 7
18.114317 -35.132702 0.42950976 7
18.145174 -34.669262 0.51943225 7
18.278019 -44.785561 0.86881226 8.1300001
18.135458 -35.117302 1.0460398 8.0310001
18.207111 -44.371101 1.3129741 7
18.257376 -35.832268 1.5497528 8.0319996
18.113163 -35.047848 1.20073 8.0135002
18.177526 -33.910896 1.2721925 8.1394997
18.349072 -45.97633 1.9150676 8.0305004
18.177303 -34.664429 1.8904386 8.0299168
18.368261 -33.857559 1.7095807 8.0030003
18.129431 -44.968216 2.2971935 8.026
18.177164 -34.881996 2.2421987 8.6142502
18.247709 -34.594444 2.16711 8.5146666
18.238743 -33.853245 2.2298057 8.4284992
18.043173 -33.095409 2.252038 9.0244999
18.276789 -45.072491 2.4863279 9.1170006
18.300011 -44.640347 2.4566405 8.1040001
18.103392 -34.741943 2.6280768 8.5179996
18.165777 -33.28001 2.7744043 9.0819998
18.190804 -34.233948 3.1515622 9
18.156109 -33.350079 3.0137384 9.0555
18.115612 -32.61153 3.1077349 9.0264997
18.129183 -35.12579 3.4870045 8.1005001
18.278124 -34.196285 3.2224422 9
18.11587 -33.300823 3.3145735 8.342
18.380129 -37.655571 4.2668118 10.04
18.315893 -34.670151 4.208528 8.0410004
18.018929 -44.403976 4.5786729 10.0535
18.15155 -43.11768 4.4278641 10.0455
18.109781 -42.3484 4.490346 10.054
18.775637 -35.571785 -0.79791832 7
18.611429 -31.806067 -0.7095713 6
18.791952 -43.214867 0.40580651 7
18.690325 -35.172199 1.0903909 8.1330004
18.658163 -35.155838 1.2938148 8.026
18.627855 -33.798145 1.4324318 8.0100002
18.640228 -34.644493 1.8644636 8.0110998
18.443632 -45.016705 2.041306 8.026
18.565796 -34.667801 2.2576869 8.6122999
18.416878 -33.813766 2.3057995 8.0144997
18.415112 -33.482967 2.2682378 8.0030003
18.664812 -33.068596 2.2589347 9.0249996
18.57972 -34.650364 2.6316226 8.7218332
18.66272 -34.576759 2.8065629 9.0185003
18.558981 -34.129704 3.1247416 9.019166
18.551758 -33.258804 3.1034195 8.5322504
18.732643 -32.570538 3.097007 9.0270004
18.739029 -44.607632 3.3736796 8.0244999
18.65794 -44.233517 3.5354304 9.0776672
18.702742 -34.187149 3.217664 9
18.460171 -33.302277 3.3206167 8
18.574409 -42.354156 4.3981385 10.0525
18.491659 -44.693771 5.0026007 8.0994997
18.782034 -43.620636 5.3405142 9.0264997
18.744835 -42.804264 5.2732396 9.0290003
18.530386 -42.258884 18.826021 15.0765
18.559311 -43.470757 19.838573 15.123
19.084852 -44.808704 -0.88607496 7
18.800795 -43.756866 -0.95881653 7
18.848261 -35.15052 -1.0805113 7
18.807098 -35.174095 -0.53966725 7
19.178928 -31.536415 -0.71652752 6
18.912523 -44.218117 0.54604298 7
18.870531 -44.729309 1.1587719 8.0185003
18.825706 -35.303947 1.1629074 8.0240002
19.186625 -44.731426 1.2125021 8.0205002
18.92469 -34.631359 1.8422697 8.0188332
19.143955 -33.817371 1.7276328 8.0035
19.082548 -34.71233 2.0917952 8.0174999
19.002218 -34.139172 2.2400248 9.1547508
19.053474 -33.759308 2.2540886 8.2685003
19.121538 -33.425064 2.1846507 8.0255003
18.83213 -44.914898 2.5821779 9.1204996
18.986731 -44.453564 2.4367793 8.0544996
18.929377 -34.65097 2.6004815 8.5162506
18.943666 -33.71051 2.4126728 8.0059996
19.058985 -34.142937 3.1190097 9.0289993
18.905354 -44.434052 3.4679825 9.0544996
19.145029 -34.163502 3.2117984 9
18.864252 -33.279526 3.3190167 8
18.829823 -33.172203 3.2995505 8.5135002
18.835314 -44.130447 3.6414561 9.0625
19.116047 -34.445637 3.6431501 9.1070004
18.94862 -44.729225 4.0519295 8.0985003
19.126535 -44.161972 4.4350772 10.05025
19.088774 -42.125103 4.6378846 9.0430002
19.151567 -52.748184 5.3727584 9.0354996
19.135891 -42.171608 20.476456 15.1605
19.243805 -31.816477 -1.4198958 6
19.277643 -30.467709 -1.3684886 6
19.223293 -44.506355 0.21280389 7
19.211916 -44.227684 0.13336506 7
19.337715 -36.405365 0.2850036 6
19.315842 -35.948879 0.25159711 6
19.286423 -35.584274 1.1862074 7
19.533354 -34.943787 1.1804752 7
19.505608 -34.65831 1.1722522 7
19.295317 -44.688889 1.3813609 8.0139999
19.387417 -37.441883 1.303115 7
19.364214 -36.530533 1.2703989 7
19.299997 -36.312584 1.2501229 7
19.381124 -35.812756 1.225077 7
19.4077 -35.452522 1.2161558 7
19.42535 -35.184574 1.2182887 8.0050001
19.533176 -33.890533 1.3098025 8.1374998
19.326376 -34.60944 1.7315996 8.0579996
19.586288 -36.199505 2.2133594 8
19.58872 -35.894245 2.2038071 8
19.56086 -35.412994 2.1744561 8.0066671
19.527489 -34.983368 2.1442776 8.0056429
19.466082 -34.663116 2.1689129 8.1459284
19.336212 -33.40731 2.2116992 8.0295
19.295225 -33.052063 2.2670567 9.0255003
19.583496 -44.400345 2.4657457 8.0539999
19.201908 -44.154415 2.5708041 8.0214996
19.357756 -34.581261 2.7567852 9.0035
19.298466 -33.749748 2.4472878 8.0025005
19.599653 -36.967644 3.1918135 9
19.58511 -36.601028 3.1300907 9
19.56439 -36.19883 3.1250117 9
19.547901 -35.835442 3.1191006 9
19.529562 -35.417641 3.1014318 9.0044441
19.507839 -35.029217 3.077533 9.0049381
19.486229 -34.633129 3.1013014 9
19.442266 -34.286911 3.0758584 8.8020992
19.309225 -33.260338 2.9786084 9.0515003
19.301296 -33.159256 3.1824996 8.0085001
19.389414 -32.529736 3.0864227 9.0275002
19.348997 -44.418453 3.4602101 9.0570002
19.301239 -44.165272 3.4429131 9.0795002
19.580839 -34.131386 3.2055395 9
19.36655 -33.249695 3.3868825 8.5497494
19.525013 -33.175838 3.2986026 8.5139999
19.314222 -32.202301 3.477412 9.0050001
19.529119 -44.374321 4.3971195 10.0495
19.400915 -42.308907 4.3822765 10.0535
19.387405 -37.576874 4.1762867 10.038
19.590572 -36.982925 4.0969219 10
19.578344 -36.628239 4.0867 10.005214
19.554821 -36.200317 4.0859084 10.0036
19.531004 -35.868599 4.0944781 10
19.521358 -35.561623 4.1634264 10.01725
19.427799 -35.106636 4.1594825 8.0419998
19.478838 -34.428612 4.140233 10
19.355906 -42.856613 4.4211078 10.054
19.579243 -42.621113 5.0121083 9.1330004
19.335978 -48.945541 7.2300916 11.0255
19.315262 -42.581032 10.977381 11.0865
19.801733 -40.933762 -1.5576392 6
19.668005 -30.284018 -1.3316398 6
19.853365 -43.773052 -0.95507514 7
19.805845 -44.788044 -0.69520324 7
19.685534 -37.395477 0.36542585 6
19.672777 -36.996555 0.3063927 6
19.84586 -43.184105 0.41424358 7
19.945517 -44.718693 1.1832156 8.0190001
19.998222 -44.287338 1.023964 7
19.955584 -43.64056 1.051793 7
19.947548 -43.542099 1.0530488 7
19.62772 -44.820118 1.4740082 8.0264997
19.895651 -44.772358 1.3207144 8.0275002
19.672501 -37.375767 1.2746952 7
19.652946 -37.036297 1.2666409 7
19.666834 -36.782223 1.2764226 7
19.627094 -35.297176 1.2246822 7
19.975851 -33.815182 1.3911101 8.0755005
19.907314 -33.812584 1.7466937 8.0039997
19.946947 -44.969036 2.1677949 8.0264997
19.648184 -37.305664 2.1914923 8
19.652763 -37.003376 2.1916754 8
19.658878 -36.60429 2.1778522 8
19.653973 -36.171776 2.1565013 8
19.644192 -35.796513 2.129899 8
19.623611 -35.395351 2.1167693 8
19.606747 -35.167835 2.0873215 8
19.992765 -34.467873 2.347692 8.0039997
19.902485 -34.227322 2.3310637 9.08675
19.705574 -33.798183 2.2052796 9.0535002
19.986187 -33.267288 2.1240091 8.0144997
19.994127 -32.102531 2.2392676 9.1225004
19.97543 -31.227186 2.2853467 9.1265001
19.952435 -30.941324 2.2197287 9.1230001
19.965649 -30.131256 2.2641568 9.1269999
19.882441 -44.232906 2.5242519 8.0054998
19.707747 -33.724644 2.4197021 8.0021667
19.823132 -42.444462 2.8917544 9.0500002
19.630554 -37.334564 3.1357825 9
19.612185 -36.997932 3.129319 9
19.603764 -36.583103 3.1149659 9
19.842852 -34.48695 3.1405683 9.0365
19.853914 -34.049004 3.162221 9.0187502
19.915977 -33.149303 2.8398774 8.7226667
19.776829 -44.426525 3.4405921 9.0530005
19.736141 -44.238956 3.5191848 9.0644999
19.715662 -33.227577 3.3155503 8
19.629477 -37.308521 4.0884881 10
19.614138 -37.059895 4.0609045 10
19.774427 -43.992924 4.4179101 10.0505
19.799841 -42.691628 4.6634469 9.0415001
20.385954 -30.56386 -1.6266187 5
20.135382 -43.750637 -0.84735972 7
20.278931 -44.720829 -0.67046571 7
20.331486 -44.887569 0.72940433 8.1365004
20.007927 -44.19965 0.5455699 7
20.379938 -43.338791 0.61640233 7
20.197674 -44.668556 1.3898667 8.0117493
20.299334 -35.382858 2.3905044 9.0579996
20.07966 -34.611252 2.3592424 9.125
20.065203 -33.783669 2.2066011 8.7311668
20.116913 -33.371922 2.2402794 8.5760002
20.074406 -31.421644 2.1190271 8.1610003
20.326868 -45.022388 2.5405235 9.1184998
20.284647 -44.177376 2.4971876 8.0100002
20.158789 -34.490845 2.5454867 8.0054998
20.087128 -33.64764 2.7284021 9.0039997
20.283379 -33.411133 2.9911458 8.7171669
20.082098 -33.134777 3.0294883 8.5437498
20.180574 -44.199341 3.421818 9
20.114849 -33.222248 3.3155389 8
20.275312 -33.144543 3.3546667 8.7096663
20.08852 -32.182987 3.4853606 9.0054998
20.082548 -44.28923 4.3956099 10.053
20.387823 -43.812222 4.3754907 10
20.37859 -41.689816 6.5391159 10.042
20.398228 -42.285358 17.616116 14.0745
20.516649 -30.570168 -1.148394 6
20.758417 -44.760731 -0.78010577 6
20.590475 -30.523323 -0.41137177 7
20.745472 -44.278484 0.65773505 7
20.540751 -43.343277 0.50641388 7
20.518501 -44.732224 1.3596555 8.017333
20.750332 -44.265007 1.4665887 7
20.648518 -33.747902 1.4611642 8.0115004
20.670589 -33.78656 1.7653337 8.0045004
20.533541 -33.838409 2.1584208 8.5819998
20.628584 -33.270046 2.2422314 8.0050001
20.435564 -32.816387 2.1119938 8.0089998
20.482388 -44.196678 2.4203973 8
20.608461 -42.258724 2.4914937 9.1195002
20.561827 -38.679226 2.5617571 8.1374998
20.48089 -33.471954 3.0776839 9.0380001
20.772879 -33.129601 2.8205483 9.0790005
20.674875 -30.790733 3.1396635 8.0080004
20.563995 -44.257957 3.3941708 9.015667
20.791 -33.660728 3.2242985 8.0094995
20.609352 -33.155346 3.2801261 8.5117502
20.52667 -44.180344 4.3618498 10.0196
20.425516 -43.759178 4.3572426 10
20.415442 -44.11768 4.7967796 9.04
20.949512 -43.765625 -0.94721824 7
20.98881 -30.156364 -0.98616117 5
20.923685 -44.728359 -0.63018447 6.6666665
21.089415 -30.135918 -0.68043888 6
20.834888 -30.104366 -0.27276027 6
21.050262 -30.111835 0.34105939 8.0454998
20.869272 -44.822773 0.55938166 8.1365004
21.165075 -30.190323 0.96152443 8.0375004
20.994682 -44.733612 1.3139656 8.0371666
21.038271 -44.237804 1.4736786 7
21.1099 -35.901512 1.2847745 8.0349998
20.983032 -45.9832 1.874308 8.0310001
21.190533 -31.836649 1.613459 9.0710001
20.877028 -44.18885 2.278795 8.0369997
21.101641 -34.766216 2.1940167 9.0629997
20.971226 -33.773212 2.2352636 8.5273752
21.11227 -33.397961 2.2717922 9.059
20.826214 -33.197773 2.1293602 8.0150003
21.1127 -32.49744 2.0613899 9.0640001
21.067766 -32.338425 2.2585955 9.0270004
20.983929 -44.202732 2.5394816 8.0164003
21.127003 -33.243721 2.4379423 8.0150003
20.892185 -30.038296 2.6914833 8.0120001
21.075348 -44.307415 3.1449046 8.0290003
21.104757 -34.492634 3.0735655 9.0349998
21.052109 -33.378708 3.0436146 8.7075005
21.028088 -33.081287 2.8878901 9.0790005
21.050562 -30.099609 2.8680959 9.0340004
20.991411 -44.17701 3.4196448 9
20.959814 -30.504366 3.9620476 9.0354996
21.172678 -43.841522 4.3624372 10
21.054234 -43.057236 4.2394967 10.0495
21.076691 -42.585541 4.2387304 10.051167
21.041693 -42.299564 4.2116442 10.04825
20.842548 -37.876808 4.382668 9.0434999
20.940269 -37.52206 4.2596316 9.3758335
21.065981 -31.106022 4.0373631 9.0380001
20.995266 -41.31691 4.6575813 9.0438337
20.96839 -40.962543 4.5999093 9.0447502
20.95879 -40.565434 4.6648221 9.0457001
20.947609 -40.249706 4.5879278 9.0453749
20.915874 -39.752571 4.5641718 9.0439997
20.918648 -39.439949 4.5601225 9.046072
20.898529 -39.027737 4.4737949 9.0457497
20.871469 -38.57671 4.5003262 9.046299
20.859377 -38.308846 4.4725895 9.046833
20.833332 -37.654003 4.5470114 9.0504999
20.860683 -37.489513 4.5066066 9.0497503
21.039042 -41.554314 4.821538 9.0459995
21.534267 -43.493713 -1.6890182 6
21.537218 -44.726467 -0.90631557 6
21.389336 -44.727024 -0.61875349 6.5
21.431536 -34.390572 -0.26822701 7
21.511566 -33.966736 -0.26059175 7
21.502319 -33.484444 -0.25262779 7
21.245428 -43.379898 0.17492092 6
21.455717 -31.763252 0.12235753 7
21.405922 -44.804379 0.61391717 8.1365004
21.291119 -44.285984 0.7276153 7
21.347218 -43.292046 0.55510777 6.6666665
21.459888 -31.097717 0.76106191 7
21.453909 -44.785858 1.1490016 8.1359997
21.368164 -34.68005 1.0082086 8
21.437439 -34.245522 1.0185176 8.0089998
21.488787 -33.690025 0.99346131 8
21.472494 -32.738934 0.97722965 8.0489998
21.498737 -32.280331 1.0260698 7
21.43824 -31.726706 1.0295525 8.0235004
21.579639 -30.488995 0.93246657 7
21.59915 -30.052742 0.94547695 8.0795002
21.431679 -44.688721 1.3541971 8.0136671
21.205532 -34.248806 1.2359002 8.0100002
21.326275 -33.779324 1.4198269 8.0749998
21.444187 -33.768227 1.7847056 8.0050001
21.314249 -44.32233 2.3383496 7
21.318119 -34.37999 2.1997421 8.0094995
21.386265 -33.774944 2.2464862 9
21.397552 -33.227795 2.2474623 8.0054998
21.467283 -32.791691 2.1990929 9.0489998
21.403236 -30.94948 2.2287993 9.0235004
21.391348 -30.701607 2.1802151 9.0275002
21.374151 -30.144266 2.095207 9.0314999
21.409243 -44.136868 2.5236824 8.0136671
21.259712 -33.421093 2.962821 9.0772495
21.293266 -33.195427 2.8929913 9.0509996
21.426498 -44.224751 3.3951912 9.0272503
21.434021 -44.200356 4.3190637 10.035666
21.540314 -41.994595 4.1410427 10.043
21.527781 -43.890362 5.119802 11.048
21.227579 -43.85009 5.270545 9.0275002
21.840145 -44.721985 -0.64885169 6.3333335
21.881392 -39.613018 -0.34761727 7
21.904202 -44.790924 0.26453331 7
21.794704 -35.447632 0.34582591 7
21.748047 -44.226929 0.66964662 7
21.678736 -33.541988 1.1189867 8.1745005
21.673298 -32.20739 0.96588993 8.0535002
21.626158 -30.239407 0.94070798 8.0672503
21.913647 -44.760342 1.3866773 8.0625
21.752132 -34.310352 1.2249171 8.0314999
21.713961 -33.73201 1.4892687 8.0857506
21.611713 -31.162266 1.4106311 8.0124998
21.989302 -30.525232 1.4029427 7
21.891766 -30.140272 1.5316304 9.0777502
21.820929 -33.445072 1.8291647 8.6245003
21.688261 -32.335793 1.9402974 8.1745005
21.67907 -30.95627 1.805636 8.1754999
21.654396 -30.602989 1.9511908 8.1735001
21.761347 -44.154083 2.2249703 8.0447502
21.701941 -35.486599 2.3062077 9.1304998
21.722486 -33.675652 2.1455026 8.3614998
21.772078 -33.382328 2.2641208 9.1110001
21.805929 -32.432621 2.0767441 8.1735001
21.761805 -32.332726 2.2832394 8.6324997
21.660255 -31.867939 2.1915245 9.0543337
21.658554 -31.597488 2.1769574 8.5799999
21.782505 -30.908539 2.1250319 8.6490002
21.643747 -30.48772 2.2141187 9.1035004
21.634878 -30.278843 2.1741166 9.0880003
21.909542 -44.178997 2.5594966 8.0211248
21.816582 -33.217381 2.4325211 8.0155001
21.648174 -34.499397 3.0718393 9.0360003
21.844648 -33.08876 2.8760846 9.0716667
21.872519 -44.309898 3.3521779 9.0555
21.90019 -33.931015 3.5689149 9.1005001
21.930117 -37.423985 3.9693377 10.0435
21.839338 -35.828781 3.8476751 10.044499
21.762495 -35.424248 3.8610556 10.043625
21.983259 -34.885742 3.9416142 10.034
21.836449 -34.635284 3.8201332 10.044
21.860838 -44.268517 4.2873783 10.0555
21.844757 -42.562099 4.1382785 10.0465
21.723846 -42.5131 4.9060702 9.0454998
22.093786 -39.690891 -0.35203835 7
22.154284 -43.215027 0.17430529 6
22.030357 -33.922569 0.32858899 7
22.317879 -44.768787 0.79477137 8.1370001
22.294024 -44.229691 0.73337609 7
22.240395 -43.274059 0.69508499 7
22.25676 -32.668083 0.41472518 7
22.239271 -43.328003 0.8538087 7
22.019342 -39.691288 1.1040947 8.0480003
22.037205 -32.643002 1.0325644 7
22.005997 -44.674328 1.4029095 8.00525
22.237869 -32.010609 1.5544895 8.052
22.132122 -30.72336 1.5375912 7
22.158873 -30.211138 1.5805109 8.0564995
22.15641 -33.918301 1.7045971 7.5257502
22.04204 -33.593491 1.6500002 9.0780001
22.04529 -31.934282 1.8006324 7
22.2384 -30.927935 1.6337147 8.0570002
22.101177 -30.463648 1.8001198 7.5035
22.324509 -34.125317 2.3456664 8.0340004
22.311729 -33.968788 2.3151567 8.0334997
22.175224 -33.179012 2.2526686 8.0059996
22.291359 -30.553991 2.0565238 8.0349998
22.321383 -30.185217 2.1548433 8.0419998
22.181528 -44.110958 2.5136178 8.0059996
22.340101 -40.337181 2.5213931 8.1353331
22.32814 -30.791746 2.7445924 8.0129995
22.177197 -30.375616 2.7678506 9.0550003
22.045637 -33.831711 3.1065993 9.0559998
22.087994 -33.379284 2.9247272 8.0124998
22.329021 -32.761536 3.0235219 9.0565004
22.254389 -32.021137 2.80688 9.052
22.327925 -31.487539 2.917206 8.0065002
22.177277 -31.028772 2.8743632 9.0591249
22.216972 -30.280487 2.819715 9.0600004
22.25676 -44.282444 3.3474197 9.0524998
22.392284 -38.417458 3.9039438 10.046
22.3911 -37.986038 3.8867228 10.0455
22.344156 -37.572987 3.8743045 10.045
22.263391 -36.064857 3.9324405 10.0395
22.065649 -35.910679 3.8475153 10.0455
22.242785 -35.29166 3.8770742 10.0395
22.256136 -34.838123 3.9455099 10.035
22.290571 -30.780077 3.8826873 9.0369997
22.181795 -44.259815 4.2554531 10.0525
22.265652 -31.804087 4.1142263 9.0295
22.160496 -43.748726 4.7750282 9.04
22.651245 -44.386623 -0.43420902 7
22.580286 -44.24173 0.09506052 6.5
22.473299 -42.950333 0.56650996 6
22.519413 -39.309334 0.41945055 6
22.599787 -44.720997 1.18665 8.0932503
22.797588 -44.253433 1.0687425 7
22.533209 -39.66544 1.0676706 8.0600004
22.411142 -44.680141 1.3219991 8.0292501
22.682974 -39.193771 1.7011416 7
22.431234 -44.270481 2.4442222 8.0565004
22.466856 -33.0359 2.4182887 8.0159998
22.440767 -46.394711 3.1653478 9.0489998
22.660572 -34.691212 2.9132576 9.0415001
22.644741 -32.636635 2.9020784 9.0939999
22.419794 -38.830822 3.9190989 10.0465
22.439909 -35.757133 3.8715594 10.04
22.41501 -34.857578 3.7865438 10.043
22.68162 -34.655746 3.75403 10.0415
22.541218 -44.252537 4.2457547 10.05375
22.495441 -42.632458 4.1228299 10.052
22.612463 -42.074181 4.0625563 10.04525
22.505011 -41.679447 4.0660067 10.0472
22.506876 -41.378815 4.0322537 10.0495
22.503939 -40.951317 4.0107903 10.049
22.530895 -40.34761 4.0161514 10.0425
22.479614 -32.248337 4.2580509 9.0434999
22.520748 -42.957504 4.9518452 11.0455
22.59248 -42.044987 4.9287248 11.04675
22.454222 -41.693127 5.1901646 9.1339998
22.413877 -41.229553 5.1649356 9.1350002
22.410814 -40.861317 5.1619692 9.1344995
22.603081 -42.339203 20.527723 15.1695
22.814949 -44.244377 0.39249194 6
22.918848 -44.140434 0.58159417 6.5
22.899399 -34.544704 1.2331623 7
22.962055 -39.028324 1.8437879 8.0509996
23.112507 -34.688858 2.1310742 8.0372505
22.993624 -44.077442 2.584878 8.0081673
23.026001 -39.634453 2.7339737 8.0469999
23.105423 -39.312813 2.4318721 8.1049995
23.152954 -34.66214 2.98436 9.0372505
23.035103 -44.238129 3.3150773 9.0555
23.080538 -39.816029 3.9302647 10.049
23.006832 -35.823967 3.8795898 10.03825
22.893452 -35.286381 3.7634192 10.0435
23.006569 -35.081181 3.7436166 10.04325
23.05304 -44.212315 4.1977105 10.054167
23.138672 -37.57954 4.4002848 9.0465002
23.097162 -42.440063 4.8698616 11.045
22.941923 -35.829735 5.0939956 9.1385002
23.084024 -40.763695 5.2270498 9.1339998
23.094824 -34.443043 6.2350469 10.048
23.023651 -41.38427 6.6912007 10.042
23.145634 -39.207111 6.5428739 10.045
23.112766 -39.0914 6.6382747 10.04575
22.896629 -37.098717 6.5575376 10.04975
23.007744 -41.378391 6.8727522 10.046
23.496017 -39.018875 1.801473 8.0609999
23.215702 -44.242928 2.085413 7
23.424227 -38.9916 2.203809 8
23.575895 -34.661346 2.1160369 8.0384998
23.388941 -44.247108 2.4243059 8.0564995
23.321796 -38.975807 3.0333481 9
23.523417 -44.198235 3.329674 9.0570002
23.569351 -38.976997 3.867326 10
23.519918 -35.704033 3.8642685 10.0355
23.262915 -34.611526 3.7901902 10.039249
23.418674 -44.198227 4.1796813 10.055
23.587759 -41.224716 4.7827373 11.042749
23.573498 -40.952156 4.7770834 11.0457
23.559198 -40.608929 4.7577882 11.046801
23.547403 -40.277225 4.7574935 11.04525
23.586267 -38.968861 4.6795907 11
23.454035 -38.60622 4.68751 11.022875
23.432816 -38.227901 4.6815677 11.031214
23.404238 -37.761707 4.6412168 11.0277
23.38957 -37.387009 4.6393814 11.029583
23.36805 -37.01067 4.6234074 11.025071
23.355171 -36.606655 4.6140003 11.021417
23.330378 -36.149052 4.5696449 11.022625
23.312702 -35.88303 4.5850739 11.032125
23.297073 -35.495293 4.5550804 11.0425
23.273666 -34.946167 4.5434203 11.043751
23.587259 -41.064571 4.8032169 11.048
23.200222 -38.866383 6.5179815 10.0435
23.824627 -42.924835 0.61666113 6.3333335
23.731764 -39.610588 0.58438259 6
23.707895 -39.45747 0.62083191 6
23.686636 -39.136562 0.60167634 6
23.68425 -39.403435 1.4246188 7
23.646875 -39.084419 1.4024475 7
23.610235 -44.076939 2.136724 8.0570002
23.664577 -39.605881 2.2558632 8
23.662663 -39.389229 2.2377427 8.0074291
23.644262 -39.075012 2.2261908 8
23.724241 -34.689415 2.1524904 8.0354996
23.653046 -39.389339 3.0560956 9
23.620338 -39.033531 3.0369415 9
23.675554 -34.651291 2.9667735 9.0369997
23.716352 -40.052826 3.9213271 10.04125
23.773689 -39.813141 3.9003856 10.040562
23.632412 -39.344807 3.8865447 10.010292
23.621109 -39.09264 3.8554721 10
23.754749 -34.62944 3.8293452 10.03425
23.70426 -44.18594 4.2418189 10.058
23.966223 -41.655552 4.7581754 11.0425
23.769346 -40.015453 4.7278786 11.042
23.755194 -39.83469 4.7170458 11.042834
23.671911 -39.510883 4.7187891 11.013833
23.774342 -39.041504 4.675015 11
23.762161 -43.846298 4.8613935 11.047501
23.691902 -42.737808 4.8464594 11.0485
23.711477 -42.260601 4.8490233 11.052
24.03993 -42.934532 0.65910476 6
24.025021 -38.961819 0.58884376 6
24.204647 -34.664513 2.1195581 8.0340004
24.341564 -44.238731 2.4055588 8.0565004
24.217232 -34.638775 2.9622989 9.0340004
24.263611 -44.185165 3.2669582 9.0559998
24.297325 -35.235043 3.8034475 10.036
24.104504 -35.158287 3.73736 10.039749
24.21319 -44.169174 4.1216068 10.056
24.272165 -41.375954 4.7428775 11.0485
24.198179 -39.512978 4.6568289 11.0415
24.12402 -38.982323 4.6120958 11
24.275429 -43.916367 4.8516574 11.0515
24.129946 -43.232388 4.9103231 11.0545
24.059631 -43.013248 4.8638678 11.053
24.783987 -42.947506 0.70642167 6
24.520763 -34.55785 2.07022 8.0212498
24.703535 -44.176605 2.4298606 8.0580006
24.567266 -34.526093 2.8382516 9.0212498
24.653898 -44.162003 3.294584 9.0580006
24.666948 -34.415508 3.5951519 10
24.692911 -35.220074 3.7780101 10.0345
24.657188 -34.577225 3.6841514 10.0375
24.641747 -44.121372 4.1609974 10.058001
24.661282 -34.381607 4.3656197 11
24.758055 -42.222359 4.7284265 11.0505
24.564135 -43.808441 4.8541622 11.0515
25.084389 -38.218735 -0.026669892 5
25.06484 -37.84642 -0.041467365 5
25.031952 -37.469246 -0.058311202 5
24.902582 -43.463398 0.71675622 6
24.945051 -42.985241 0.71317732 6
24.872583 -44.008812 0.87310702 6
24.913689 -43.238243 0.85716605 6
25.065716 -44.110321 1.4671487 7
24.868572 -43.405586 1.5413668 7
24.816345 -42.953846 1.5700393 7
24.827005 -34.541676 1.3081996 7
25.088037 -34.596596 2.1069131 8.0383749
25.118832 -44.461746 2.4226282 8.1070004
25.111807 -34.570107 2.8786576 9.0383749
24.905918 -44.157341 3.9880052 10.0505
24.993214 -34.547146 3.6892331 10.037499
24.877817 -44.168892 4.0202351 10.0535
24.872044 -43.150406 4.7000771 11.046
25.04644 -41.623562 4.6284213 11.044
25.154648 -41.508553 4.6156349 11.0455
24.951872 -39.149727 4.5519977 11.05025
24.847282 -38.434525 4.5502739 11.04225
24.85285 -34.848488 6.395153 10.0465
24.845213 -34.586769 6.3597512 10.0455
25.462345 -38.28138 -0.026395768 5
25.544981 -37.797867 -0.046411023 5
25.456188 -37.541473 -0.058855332 5
25.388256 -37.176224 -0.075973399 5
25.585314 -39.390953 0.0366273 5
25.316633 -39.392181 0.72846293 6
25.360252 -34.424553 1.3297952 7
25.247131 -34.619663 2.1146526 8.0334997
25.492321 -44.179169 3.1800556 9.0489998
25.26783 -34.594372 2.9235828 9.0334997
25.435112 -44.134411 3.2337584 9.0570002
25.224113 -34.540134 3.5613172 10.041
25.4053 -44.165161 3.9429426 10.049
25.313572 -34.539276 3.7701995 10.032249
25.426821 -44.100971 4.05335 10.057
25.212694 -42.002903 4.7046981 11.0535
25.388605 -41.369949 4.5935102 11.04925
25.459368 -39.492851 4.5464535 11.0395
25.454559 -39.109894 4.4891391 11.05
25.26511 -43.657269 4.8263593 11.0555
25.627481 -38.817318 -0.010075389 5
25.766405 -38.589863 -0.012175979 5
25.692825 -38.041073 -0.03033421 5
25.845625 -37.744507 -0.026199322 5
25.838554 -37.38221 -0.038334716 5
25.828516 -36.981045 -0.03893308 5
25.755301 -39.757191 0.065010294 5
25.810392 -39.344986 0.019146139 5
25.941786 -39.114628 0.01430009 5
25.948332 -38.498993 0.012486924 5
25.981064 -38.142666 0.0050106365 5
25.861694 -34.643105 2.1233993 8.0115004
25.997049 -34.318844 2.0940094 8
25.651842 -44.141064 2.424644 8.0585003
25.742664 -34.608994 2.8969615 9.0106668
25.636763 -44.139656 3.2669704 9.059
25.753883 -34.281807 3.5976403 10
25.877569 -35.144627 3.7659559 10.032
25.816868 -34.571411 3.6936154 10.016624
25.6831 -44.492115 4.0698977 8.1014996
25.625252 -44.100094 4.1107459 10.059
25.937895 -38.667999 4.3952341 11.048
25.955383 -38.343094 4.3911786 11.049
25.840715 -35.7757 4.3606663 11.040251
25.778488 -34.936878 4.2678895 11.0415
25.992668 -34.34454 4.3283954 11
25.667221 -42.965557 4.6193972 11.0475
25.784964 -42.088211 4.5934162 11.04775
25.681902 -41.99258 4.6201963 11.0495
25.824423 -41.409283 4.5972848 11.053
25.87602 -39.423889 4.4701624 11.0435
25.976757 -38.52319 4.4516096 11.0415
25.972162 -38.342342 4.4783406 11.0365
25.909164 -36.474522 4.4169803 11.03875
26.235207 -38.863693 -0.007036332 5
26.065813 -38.533604 -0.027998189 5
26.00635 -38.173439 -0.039254602 5
26.068302 -37.067879 -0.035973646 5
26.397129 -39.754368 0.068003736 5
26.138186 -39.446079 0.038588755 5
26.24127 -39.113285 0.026869956 5
26.104065 -44.599945 1.1423265 8.0585003
26.339741 -34.673038 1.3379129 7
26.294783 -34.601192 2.1109934 8.0165005
26.382366 -44.119045 3.1803284 9.0574999
26.114588 -34.554989 2.8985813 9.0337505
26.01935 -34.29388 2.8348193 9
26.368942 -44.077045 3.9496322 10.055
26.205038 -34.49791 3.7111633 10.03175
26.020056 -34.621643 4.3188319 11.0395
26.373735 -43.009552 4.5680065 11.051001
26.354944 -42.653656 4.5589666 11.049749
26.335129 -42.028622 4.5884376 11.054
26.322233 -41.970581 4.5915608 11.055
26.059227 -40.690754 4.504415 11.041
26.1259 -39.366905 4.4356503 11.047666
26.0168 -37.237808 4.4458289 11.038
26.205038 -34.563065 4.4578967 11.011001
26.368084 -43.172234 5.4495006 12.0555
26.337999 -42.583412 5.2617769 12.048
26.32329 -42.299286 5.2703962 12.047501
26.312057 -41.952263 5.2329664 12.048
26.333904 -42.205364 21.490658 15.16975
26.689209 -43.404217 0.26144096 5
26.720148 -42.933826 0.25254309 5
26.744453 -42.58535 0.24578111 5
26.436094 -41.994125 0.19091548 5
26.680885 -40.638237 0.1260142 5
26.641808 -40.207447 0.12506714 5
26.61861 -39.50967 0.037378553 5
26.750467 -34.620678 1.3132347 7
26.416931 -34.323059 1.3638268 7
26.587578 -44.144897 2.3637979 8.0614996
26.65242 -34.515671 2.0866349 8.0360003
26.52689 -44.123936 2.4205878 8.0594997
26.606808 -34.531334 2.8396809 9.019125
26.480164 -44.095165 3.2278512 9.059
26.577749 -34.477451 3.542815 10.0375
26.47014 -44.078815 3.9311745 10.05525
26.717907 -36.280701 3.6355934 10.035
26.538862 -34.515511 3.6813316 10.015125
26.475067 -44.054333 4.0366573 10.059
26.71656 -40.594227 4.3941827 11.0495
26.500835 -43.685135 4.6291189 11.05275
26.578558 -39.307556 4.4220424 11.043167
26.49349 -39.061085 4.405736 11.0525
26.592651 -34.464863 4.4250178 11.01575
26.558569 -41.720837 5.1855559 12.045
26.421448 -42.457813 21.112659 15.171
27.140421 -41.249401 0.17798658 5
26.881283 -40.954021 0.14957343 5
26.85338 -40.523373 0.15257519 5
26.82078 -39.820354 0.059643887 5
26.844383 -36.568413 0.022949154 5
27.158556 -34.584503 1.2893248 7
26.921934 -34.559803 2.1024361 8.0166254
26.989943 -44.118477 2.4108191 8.0509996
27.195436 -46.154732 3.1093302 9.0550003
26.924435 -44.10162 3.1223631 9.0509996
26.960239 -34.528103 2.8663385 9.0221672
27.006496 -30.890968 2.8274584 9.0900002
27.004972 -34.474995 3.5562003 10.0195
26.862774 -44.087208 3.8403697 10.051
27.19072 -36.20647 3.7484119 10.0305
26.989744 -34.502422 3.6371357 10.015625
27.197493 -40.599239 4.366416 11.051
27.195944 -36.201969 4.2167797 11.0415
27.093592 -35.23999 4.09552 11.046
26.999685 -34.487366 4.3851776 11
26.828333 -42.633995 4.5835552 11.055
26.946274 -34.400558 4.507762 11.03
26.991011 -41.457043 6.7348971 9.0459995
27.567066 -41.255222 0.19453384 5
27.232822 -40.999203 0.16119607 5
27.335262 -44.101353 2.3607111 8.0620003
27.342367 -34.49765 2.0629478 8.0320826
27.416241 -34.455372 2.7187822 9.0419998
27.390841 -44.077156 3.1427636 9.0555
27.350012 -34.489571 2.8232539 9.0221663
27.219297 -33.852222 3.0147934 9.0015001
27.311098 -44.067303 3.2068393 9.0600004
27.437424 -34.436848 3.4606578 10.038249
27.297272 -44.032162 3.9347031 10.0585
27.294209 -44.038544 4.0003176 10.06
27.456306 -40.544674 4.363091 11.0525
27.294861 -38.296856 4.2306314 11.0505
27.402071 -34.510757 4.0744562 11.042167
27.53948 -34.370041 4.0457563 11.0435
27.271259 -41.477795 5.0891171 12.042
27.789137 -41.546192 0.21702248 5
27.842697 -40.95348 0.16288376 5
27.891981 -36.801914 0.82312065 6
27.828415 -34.474529 2.0950437 8.0345001
27.766983 -34.436646 2.7703435 9.0369997
27.925566 -34.467052 2.8273513 9.0319996
27.91839 -34.438309 3.5548794 10.032
27.738943 -44.044044 3.8110659 10.0545
27.712475 -34.411442 3.6575601 10.0295
27.916044 -34.376049 3.7222316 10.028
27.73085 -38.544704 4.1990499 11.051
27.701548 -34.373478 4.4380817 11.0295
28.212152 -41.398514 0.19107842 5
28.005938 -41.182838 0.15897223 5
28.266453 -36.626705 0.19003086 5
28.223185 -36.266655 0.15655942 5
28.272287 -35.808399 0.79622835 6
28.134499 -34.716095 1.4078411 7
28.045708 -34.364605 1.4116458 7
28.234488 -34.440098 2.0874212 8.034667
28.249825 -34.272243 2.032474 8
28.319239 -34.423634 2.7933929 9.0349998
28.258825 -34.295765 2.6999314 9.0128336
28.103653 -44.021084 3.1690114 9.0599995
28.052927 -34.009693 2.9119859 9.0904999
28.349779 -33.775494 3.0487103 9.0019999
28.073536 -34.407028 3.536144 10.0305
28.310457 -34.304981 3.3773127 10.018375
