# .PCD v0.7 - Point Cloud Data file format
VERSION 0.7
FIELDS x y z intensity
SIZE 4 4 4 4
TYPE F F F F
COUNT 1 1 1 1
WIDTH 1263
HEIGHT 1
VIEWPOINT 0 0 0 1 0 0 0
POINTS 1263
DATA ascii
25.272089 152.00331 -1.530818 11.159
25.520205 152.64755 -1.4108129 11.160749
25.420818 162.17622 -1.2894462 13.371667
25.555243 162.40775 -1.2782319 9.1560001
25.417944 164.64787 -1.3695267 12.364166
25.412321 164.89969 -1.4711562 13.706166
25.39716 165.49825 -1.5619999 11.029667
25.398994 165.73145 -1.3563937 13.0165
25.542662 166.00644 -1.3111827 13.017
25.488224 166.70061 -1.5305206 13.025
25.240963 166.82654 -1.3305507 12.0165
25.42651 168.14619 -1.5556667 12.022
25.347893 168.57845 -1.2939217 14.0465
25.513229 170.9595 -1.2280127 13.02425
25.310791 152.26015 -0.89478445 14.16025
25.584867 152.5789 -1.0118275 12.161
25.359711 153.62939 -1.1771476 12.1625
25.385414 161.42923 -1.1175947 8.1735001
25.446907 161.69501 -1.1438525 8.1785002
25.543848 162.22299 -1.1450775 10.20125
25.376371 162.64246 -1.1570687 14.0075
25.257809 163.33319 -0.836806 15.00975
25.326674 163.96146 -1.0425795 15.08
25.434608 165.09503 -1.0582788 14.768938
25.418196 165.20956 -1.0805799 13.5555
25.445005 165.93071 -0.97673535 14.687667
25.242804 166.70999 -0.99902219 14.775499
25.369703 166.85286 -1.1490674 14.02475
25.400602 167.80525 -1.1146005 14.23345
25.342283 168.20442 -0.98499346 12.716667
25.421701 168.49698 -0.96288764 14.537624
25.587784 150.55927 -0.41185617 15.1585
25.387547 152.15167 -0.72033322 12.65975
25.285818 154.3051 -0.5349201 15.164249
25.364544 162.69653 -0.50850838 12.027
25.419676 163.07822 -0.75744885 14.50775
25.374754 163.53326 -0.71307302 14.008
25.332163 163.88254 -0.70994049 14.009
25.230986 165.3618 -0.64727706 14.013
25.377388 166.54123 -0.54442787 15.0185
25.520777 166.84596 -0.47391567 15.019
25.584499 168.06009 -0.63600993 13.08175
25.383629 168.61145 -0.48197913 11.09
25.238913 152.67218 -0.0090069324 15.16
25.350645 154.26147 -0.087566547 10.17275
25.41185 154.4028 -0.0372555 15.164
25.311178 160.56709 -0.040700182 10.16375
25.283146 160.92729 -0.060389895 15.093
25.262522 161.82288 -0.074851438 12.0935
25.459606 162.17596 -0.19674344 13.075
25.4659 163.008 -0.21149789 13.8578
25.548498 166.83981 -0.34480003 11.091
25.553267 168.90524 -0.33107999 10.095
25.47785 152.02515 0.28994787 14.16
25.499863 153.52731 0.13861395 12.08375
25.511017 153.92274 0.18554059 12.664249
25.508173 154.18677 0.097090989 10.16125
25.305561 160.27286 0.089795634 10.471667
25.340858 160.9675 0.095663182 11.124125
25.338079 161.27229 0.18402122 10.87675
25.370111 162.20335 0.22281508 10.698001
25.43318 163.07043 0.027733855 11.0945
25.38138 152.72177 0.63716245 15.161
25.397572 153.52435 0.4602685 13.16625
25.585304 153.69971 0.50311875 15.163
25.348774 160.25983 0.60325998 13.115499
25.554983 160.51056 0.58266014 12.0955
25.3892 160.99588 0.56401241 13.094
25.367434 161.26801 0.4715893 13.0935
25.345688 161.75203 0.57655543 13.0935
25.534449 163.06828 0.52170366 12.0935
25.481388 163.70338 0.48179519 15.09
25.473938 167.93057 0.44707116 12.0905
25.218306 160.3071 1.1853886 13.095
25.436354 160.59218 1.0016935 11.056499
25.488361 161.4064 1.058181 12.078667
25.353771 162.1543 0.95434612 10
25.210239 162.44266 0.93598437 10.0505
25.212002 162.87576 0.89076328 13.093
25.567696 162.32651 1.4510975 12.0945
25.262398 164.97443 1.3757477 12.426666
25.221531 162.60074 1.7356142 14.09325
25.401604 164.30885 1.6704729 12.094
25.520185 164.80545 1.7792434 14.0915
25.333101 166.2399 1.8799683 12.0935
25.486965 167.65793 1.6288208 12.093
25.546223 162.95387 2.2491148 13.0945
25.51582 165.033 2.1605675 14.092
25.373985 167.58891 2.0416639 13.092
25.454113 167.78094 2.0380614 12.093
25.563305 164.65628 2.658601 15.0915
25.690893 172.89763 -5.2690029 4
25.669996 152.53723 -4.9243565 3
25.881733 152.84619 -4.9446068 3
25.86908 154.25882 -5.0302672 2
25.959158 154.40997 -5.0260539 2
25.759205 155.06099 -4.9607997 2
25.844286 155.43225 -4.9115434 2
25.794804 156.68852 -5.0372319 1
25.770821 157.03673 -5.0284872 1.75
25.840588 157.38663 -5.011734 1.6
25.834826 157.81659 -5.0204597 2.5999999
25.913336 158.45412 -5.1545405 5
25.643263 159.4243 -5.1460609 6
25.990803 160.29614 -5.1223888 6
25.704838 160.58853 -5.0987444 2
25.7591 160.89235 -5.1386533 4
25.717903 161.77731 -5.1415882 0.66666669
25.818157 163.01488 -5.132771 3
25.805679 163.29099 -5.1460586 4
25.889191 163.8559 -5.0907526 5.5
25.856609 164.21008 -5.0226192 4.8000002
25.737068 164.97668 -5.0742369 3.4000001
25.685822 165.26175 -4.9321213 4.5
25.895954 168.72853 -5.0901556 3
25.782082 152.12135 -4.4925652 4
25.867083 163.97913 -4.7507434 6
25.74275 164.28941 -4.6375165 3.5714285
25.724581 164.51711 -4.6187582 5.5
25.819092 164.99313 -4.6627541 4.25
25.740566 165.42796 -4.5869207 4.8888888
25.684101 165.84883 -4.5255575 4.0612245
25.939907 151.28543 -4.0966096 1.5
25.905632 152.37782 -4.0540118 5
25.913712 152.46254 -4.2040505 4
25.646208 164.4666 -4.109437 4.6666665
25.947676 165.56834 -4.1819367 4.3333335
25.758715 165.79218 -4.1608877 4.8000002
25.611032 166.08218 -4.2919817 4
25.814886 151.70638 -3.824198 3
25.87149 152.48946 -3.8530116 5.1666665
25.62826 153.545 -3.6009655 4
25.723442 153.66518 -3.6956666 3
25.691769 164.60919 -3.7633138 6.0763097
25.811314 165.75575 -3.7987869 6.0444446
25.964252 151.87463 -3.2973075 6.5
25.760998 152.6149 -3.3109217 7
25.683468 153.16217 -3.5340495 6
25.633217 153.31709 -3.364279 6
25.667625 153.75365 -3.312865 7
25.774086 164.67801 -3.4014339 7.4293647
25.719597 164.92593 -3.3839059 7.8430004
25.690128 165.37834 -3.57743 8.1055002
25.832285 165.76543 -3.4525397 7
25.860542 150.37183 -2.8272827 9.1467495
25.808876 150.6526 -2.9356582 8.64575
25.735586 151.22333 -2.8940556 9
25.96464 151.87128 -3.0873568 8
25.84049 152.03687 -3.0904114 8.1409998
25.622072 152.73705 -2.8824372 8.1619997
25.631268 153.09402 -3.0019493 8.2479992
25.648361 153.37961 -2.962918 7.914875
25.70755 153.68626 -3.1016471 7.6666665
25.764572 164.70644 -3.0959203 8.3571424
25.656904 164.96577 -3.0364404 8.5929279
25.672749 165.23009 -2.8119595 10.019625
25.947899 167.07011 -2.8487005 9.026
25.745943 150.56395 -2.5150468 10.89575
25.82873 151.34775 -2.6150441 10.881249
25.929272 151.80363 -2.4978318 12.142624
25.637758 152.25702 -2.6049991 8.1604996
25.675249 152.7598 -2.7629662 8.1610003
25.826942 153.01851 -2.6433749 9.5609417
25.775253 153.34734 -2.5882945 9.2739
25.748411 153.63956 -2.6774752 12.630625
25.757565 165.17171 -2.6663556 9.3193998
25.715219 165.31906 -2.6028771 9.9256334
25.841919 165.71371 -2.5009043 9.6202993
25.803707 166.83113 -2.4882164 8.0059996
25.795176 169.22182 -2.5826046 9.1029997
25.814398 170.75784 -2.4435825 9.5114994
25.931913 170.96965 -2.4775052 8.8556252
25.736023 150.47289 -2.1647272 12.646
25.849579 151.01672 -2.361738 12.145
25.798115 151.37859 -2.1674142 13.643583
25.818153 151.69107 -2.3137586 13.1425
25.621939 152.12549 -2.397759 10.1605
25.672686 152.49069 -2.2613811 12.149625
25.711714 152.98303 -2.3127673 12.148624
25.643076 153.36418 -2.2065082 9.5812502
25.856506 153.69775 -2.113627 10.568417
25.707741 165.32367 -2.2338071 10.674723
25.844484 165.94189 -2.3725259 10.0165
25.769196 166.16782 -2.1537638 10.8233
25.617682 166.44453 -2.0139351 11.018
25.73971 169.10796 -2.2056065 10.701749
25.966351 170.35335 -2.0943847 11.04675
25.756924 170.65355 -2.2203481 9.9347
25.691252 170.94945 -2.3851793 9.0889997
25.877806 150.39523 -1.7307491 14.813499
25.730658 150.69402 -1.9208758 14.145334
25.643801 151.00606 -1.7966914 15.144
25.821991 151.70192 -1.6966976 12.1605
25.762159 153.40439 -1.6893035 11.236036
25.788296 153.75365 -1.80643 10.729428
25.942118 164.91803 -1.6705544 12.4183
25.709593 165.24048 -1.8431386 11.753
25.927601 165.99161 -1.9933755 11.0165
25.63632 166.4848 -1.9220153 12.53375
25.727827 168.34305 -1.741153 12.029
25.628233 168.60796 -1.9440498 12.04575
25.718451 169.7357 -1.606902 12.0315
25.842381 170.61333 -1.6709615 12.023625
25.865376 170.99026 -1.8691374 10.695999
25.623413 150.26096 -1.5988026 15.146
25.86021 150.85445 -1.3468235 11.1585
25.601889 153.08923 -1.3631316 14.162
25.756084 153.48528 -1.4219229 11.830209
25.936081 154.56102 -1.4210746 8.1774998
25.835646 154.83865 -1.2097701 15.10275
25.643293 162.22003 -1.2581364 9.1549997
25.978151 163.39305 -1.3146652 12.368833
25.819586 164.76268 -1.3470731 13.004833
25.846481 164.88409 -1.3469043 13.133901
25.704147 165.89178 -1.4957157 15.041
25.970385 166.54704 -1.2240007 12.015
25.844568 167.7821 -1.4133472 12.64115
25.684893 168.10403 -1.3252524 13.536
25.799429 169.45366 -1.4768919 12.70725
25.792103 169.68492 -1.4391171 12.027
25.673225 170.01157 -1.4770874 12.0285
25.759729 170.60423 -1.3231279 12.340833
25.817823 170.86726 -1.4784375 12.033
25.967409 152.57434 -0.89074826 15.162251
25.960264 154.50868 -0.90935922 12.165
25.950153 160.18697 -0.99954915 10.178
25.758421 162.21547 -1.0210004 13.035333
25.857145 162.41994 -0.99070394 11.0925
25.821665 163.2473 -1.0121906 12.039666
25.92565 163.70056 -0.9400292 12.049875
25.850952 164.02116 -0.9633013 13.009
25.926918 164.75998 -1.0111145 12.564875
25.871021 164.87573 -0.91782266 10.59225
25.801353 165.86337 -1.0904986 13.544167
25.991058 166.74831 -1.1539102 14.025
25.661358 166.83481 -0.80470312 12.0875
25.812235 169.26859 -1.0595578 11.5605
25.961332 169.69875 -1.0859746 13.368833
25.628849 170.12727 -1.186673 11.086
25.9401 151.74408 -0.73141694 13.161
25.89818 152.11017 -0.79937416 13.1615
25.80757 153.18382 -0.4276697 14.162
25.995178 153.26315 -0.41109174 14.1625
25.82099 153.65752 -0.68137592 14.164
25.783895 154.11548 -0.68371737 13.41425
25.951626 154.44283 -0.77686977 13.165
25.738108 159.95374 -0.67214376 15.179
25.741259 160.07193 -0.71742302 12.63625
25.905752 161.75278 -0.68409663 15.0045
25.737772 162.1904 -0.58638388 9
25.848209 162.56229 -0.696257 15.007
25.824678 163.08096 -0.6111576 14.0065
25.996683 163.27635 -0.73856777 13.0895
25.931522 164.76973 -0.54556185 14
25.986525 166.79842 -0.62449425 11.09
25.643982 166.96848 -0.45926967 13.084
25.604271 167.48965 -0.46252868 11.0905
25.791281 168.22189 -0.55211771 14.5515
25.865215 169.95058 -0.62618315 14.03
25.989323 162.7314 -0.01045056 12.0925
25.939728 164.60458 -0.38483766 11.0925
25.604927 168.89204 -0.35049555 11.09
25.657501 169.422 -0.3327581 15.0295
25.81827 170.08876 -0.34604639 11.089
25.744717 153.30844 0.12948462 14.1625
25.76823 154.13594 0.16859174 11.503667
25.743292 160.62634 0.19026586 11.0955
25.602156 161.5598 0.039000776 10.1545
25.762356 161.8645 0.12262022 13.342375
25.664516 162.62955 0.21229492 10
25.746428 167.68643 0.36906597 12.09
25.851803 162.92468 0.63750494 13.092
25.643448 164.05579 0.50847489 12.093
25.628819 165.41667 0.65319425 12.0925
25.813934 167.72353 0.52340174 12.755834
25.651964 160.18211 1.0253791 10.049
25.694492 160.41737 0.8538872 11.1785
25.91087 161.14403 1.1140733 13.094
25.842398 161.98718 0.98386014 12.0945
25.825247 162.25174 1.0145988 11.065333
25.804358 164.36636 0.93840677 13.0915
25.649927 163.59363 1.8980559 14.0925
25.721237 163.87373 1.7336758 13.093167
25.75371 164.08379 1.6897619 14.0915
25.731344 168.74287 1.6070564 15.0865
25.661367 164.57516 2.2881272 13.0935
25.776834 162.76262 2.6530581 11.0525
25.930977 164.65797 2.6590283 14.2922
26.355736 175.05356 -5.3655281 4
26.209818 150.00117 -4.8729911 4
26.12397 152.95789 -4.9411998 3
26.245459 153.32742 -4.9548287 2
26.328209 153.77362 -4.9719772 1
26.033184 155.02448 -4.9695649 2
26.264778 155.35985 -4.9455118 2
26.308836 155.73975 -4.971488 2
26.091673 156.15051 -5.0494757 5
26.092857 156.59763 -5.1214666 6
26.101416 157.05321 -5.056325 2
26.166302 157.52103 -5.0392833 3.5
26.184116 157.79779 -5.062748 2.4000001
26.22036 158.14801 -5.0390649 2.2
26.310144 158.55542 -5.0648546 2.5999999
26.310066 158.94336 -4.9671826 1
26.033186 159.52051 -5.1272397 6
26.235516 160.52225 -5.1010113 4
26.122778 160.98746 -5.1216941 4
26.277788 161.91629 -5.1482677 2.5
26.3276 162.18892 -5.1601405 4
26.168463 162.6116 -5.1579437 4
26.210548 163.18201 -5.0795717 1.5
26.130653 163.55171 -5.0727568 3
26.212372 163.80258 -5.002378 4.909091
26.155752 164.20537 -5.0520515 4.125
26.058474 164.48311 -5.1801391 2
26.376982 168.14793 -4.9347634 3
26.034683 168.61978 -5.0238051 3
26.334742 152.35562 -4.4920468 6
26.106852 152.66956 -4.7669253 3
26.396959 163.18736 -4.6476088 6
26.274261 163.50244 -4.5844545 6.5
26.276218 163.74255 -4.6342683 4.6875
26.108438 164.14276 -4.6550713 3.4000001
26.211733 165.07698 -4.5109138 5.0999999
26.153606 165.26877 -4.558672 7
26.074083 165.7149 -4.7810473 2
26.219278 151.56223 -4.2464447 0
26.179478 152.19955 -4.0634851 0.5
26.118057 152.94122 -4.1173558 4
26.385824 153.33096 -4.0372896 5
26.058836 153.79605 -4.0486059 5
26.262325 165.09445 -4.1678815 4.7333336
26.091108 165.31712 -4.3938193 4
26.363586 150.85612 -3.8616555 3
26.263214 152.73761 -3.6112146 6
26.08555 153.13992 -3.8920977 5
26.282593 153.33781 -3.727541 5.6666665
26.196041 164.35783 -3.6070991 8.1025
26.031311 164.54764 -3.6654871 6.5
26.271465 165.11491 -3.8390696 5.833333
26.096781 165.33334 -3.710865 6
26.235619 150.79242 -3.2074199 7
26.25812 150.843 -3.316437 6.3333335
26.247513 152.54875 -3.3995771 6.875
26.303123 152.88634 -3.5094483 6.5
26.325377 153.32811 -3.3308883 7
26.380013 153.68445 -3.5272822 6
26.109312 164.37073 -3.3724015 7.3628335
26.140896 164.52496 -3.4005165 7.9984236
26.232876 165.04416 -3.3671818 7.7480001
26.162312 165.26958 -3.5540054 8.092
26.172089 150.01183 -2.9999146 8.1490002
26.207272 150.77451 -3.0373094 8.0737495
26.264717 150.96674 -2.9477355 8.6984997
26.198318 152.2379 -3.134001 8.1102505
26.20562 152.58669 -3.0418875 8.5588484
26.287447 152.94904 -2.9851317 8.9065294
26.373413 153.24023 -2.957953 8.1644993
26.287985 164.32385 -3.0176449 8.2102823
26.114244 164.40086 -3.1547456 8.0185003
26.279325 164.96043 -2.9869709 8.450736
26.070299 167.13812 -2.9585001 8.7089996
26.260065 150.13083 -2.4794681 10.89925
26.155827 150.53069 -2.6019728 10.481167
26.361389 151.18613 -2.5070214 11.64725
26.268539 151.71106 -2.5094323 12.145
26.198439 152.32649 -2.4787309 13.07075
26.230095 152.58249 -2.6018484 10.881993
26.235077 152.98166 -2.5439413 11.249488
26.213495 153.46718 -2.4770603 10.478583
26.224058 153.76242 -2.54017 10.120375
26.400045 164.34633 -2.4028628 8.0030003
26.320959 165.0574 -2.5635219 9.7182178
26.026789 165.82272 -2.4484837 8.0045004
26.087317 166.9695 -2.5019238 10.0255
26.08588 170.57387 -2.4496684 9.0900002
26.008379 170.9521 -2.4494162 10
26.244761 150.12563 -2.1533582 11.819333
26.045095 150.67039 -2.1343787 13.147
26.258652 152.26018 -2.1999543 13.983945
26.306873 152.63336 -2.2146888 12.8218
26.026114 153.05205 -2.3706045 13.121876
26.121624 153.37239 -2.3969131 11.10575
26.149151 153.80934 -2.1576345 10.527187
26.200092 154.25511 -2.1608543 12.1035
26.20929 165.02122 -2.2045174 10.484434
26.282848 166.11624 -2.1489511 10.790937
26.006092 166.77704 -2.3985991 10.0235
26.309061 168.67325 -2.093327 10.060249
26.115314 170.25966 -2.2870784 9.7749376
26.083138 170.58069 -2.3822203 9.0889997
26.091566 170.92819 -2.3352213 10.0745
26.190954 152.2711 -1.7731738 13.131101
26.24354 152.55258 -1.7961991 12.163
26.156172 152.84952 -1.9960983 13.1085
26.123655 153.59439 -1.7839866 10.6635
26.240709 153.80721 -1.7787752 11.069715
26.120407 154.07559 -1.9234314 11.634375
26.116098 154.54988 -1.8025672 8.1724997
26.394201 163.5872 -1.6737999 13.577
26.237034 163.70161 -1.6944921 10.730083
26.08161 164.90649 -1.7764492 12.712727
26.364489 166.73236 -1.8526909 11.521
26.351341 166.88292 -1.7993861 13.041
26.28208 168.37181 -1.6711221 12.028
26.231958 168.56104 -1.7482023 10.51625
26.116817 170.63049 -1.8559438 11.031375
26.283245 152.77048 -1.2103211 14.1635
26.047112 152.81949 -1.4096867 15.108
26.170433 153.35457 -1.3745828 13.540601
26.059961 153.83197 -1.5759217 14.1045
26.191156 154.39365 -1.5391978 14.1025
26.134632 154.60597 -1.2969445 12.3549
26.207548 160.97754 -1.3821483 8.890625
26.023396 162.91972 -1.2644649 12.0895
26.142197 163.39636 -1.3079978 12.95795
26.034779 164.76646 -1.4790841 10
26.148046 164.97331 -1.5255738 12.03625
26.105446 165.37924 -1.5413817 13.693166
26.109745 165.92619 -1.5776021 11.0875
26.341797 166.4664 -1.4632156 12.06575
26.018595 166.80714 -1.2010597 12.0155
26.106379 167.73476 -1.4445997 11.368833
26.340309 169.13458 -1.4589702 13.0445
26.279791 169.7827 -1.4858074 12.029751
26.214449 152.92406 -1.0848486 12.829417
26.17025 153.37595 -0.9863832 13.91375
26.361164 153.75975 -1.0412235 10
26.243526 154.13959 -0.94385326 11.648937
26.150679 154.66411 -1.0491129 11.354449
26.14608 160.17615 -0.95524597 10.898625
26.101854 160.59789 -0.99643016 10.904312
26.228241 160.93744 -0.9933356 11.952719
26.223116 161.3183 -1.0492187 11.564251
26.321022 161.87698 -1.0092012 9.0676661
26.303696 162.32146 -1.1535225 9.0516663
26.259394 162.64207 -1.032051 13.530375
26.217346 162.98984 -1.0680192 13.061501
26.188955 163.54314 -1.0132518 11.5715
26.084515 163.70895 -1.0027055 14.51275
26.042236 166.64737 -1.1660388 13.52125
26.000912 166.90948 -1.1613195 13.0185
26.270582 167.36369 -0.93623203 12.283875
26.108595 167.60878 -0.9097206 10.0925
26.232351 169.41232 -0.86163247 11.58325
26.180988 153.03416 -0.50442022 14.1635
26.294699 153.77168 -0.50752699 13.809166
26.15661 154.35448 -0.70058846 11.168
26.177547 154.60809 -0.72702116 12.6315
26.266127 159.96054 -0.47244772 9.0500002
26.23465 160.28149 -0.5537532 11.9111
26.214233 160.61328 -0.60394496 11.441
26.272306 161.01494 -0.48000762 13.04675
26.251637 161.41171 -0.54108495 10.644699
26.249519 161.89859 -0.60720521 9.7470007
26.366127 162.18173 -0.49554893 9.0434999
26.303713 162.46065 -0.57084519 15.0065
26.191694 163.47672 -0.72308058 13.089
26.044771 163.62433 -0.79712737 11.092
26.121298 164.63582 -0.49324358 13.341166
26.106937 164.82697 -0.46869546 13.088
26.125313 166.64551 -0.74812835 14.219549
26.255594 166.817 -0.62269008 15.023
26.125504 167.45868 -0.75470042 12.0865
26.373089 167.9949 -0.5706653 14.02025
26.339857 159.56523 -0.1250224 9.0155001
26.300797 160.15102 -0.30473819 15.09175
26.260738 160.52547 -0.26307783 15.0915
26.346907 160.85945 -0.38723347 12.1785
26.264387 161.37193 -0.13482186 13.569375
26.119774 161.83737 -0.15191367 15.003
26.114182 162.10876 -0.18644433 13.04875
26.012524 162.98611 -0.19437973 14.0895
26.394453 163.98439 -0.018513124 15.0085
26.178183 167.02451 -0.18824823 13.0435
26.031347 167.44522 -0.14112142 12.04575
26.263437 169.83459 -0.28920111 14.0745
26.087412 153.77492 0.34059447 10.174
26.163572 161.64891 0.22656563 12.0935
26.154095 162.09915 0.14769913 15.09
26.229548 163.88336 0.0066231377 11.0935
26.187286 164.14029 0.070269875 11.0935
26.282396 167.19351 0.25722569 11.0925
26.140575 160.66626 0.68186164 12.0945
26.224422 164.48892 0.60082757 13.544001
26.162605 167.40234 0.59025741 14.0865
26.014294 167.8179 0.53808337 12.09
26.383253 164.65906 0.87858802 13.0905
26.05805 165.18205 1.1515919 13.091
26.186872 162.20253 1.3110839 13.592751
26.256445 162.65564 1.2953628 13.093
26.132643 165.46677 1.4326954 13.091
26.074936 167.96255 1.3886496 13.0895
26.383537 168.34042 1.4494833 13.0895
26.146336 163.67896 1.8006198 14.0915
26.120338 165.49496 1.8662956 13.591249
26.373667 165.81142 1.889535 12.0935
26.008068 164.60065 2.2606332 14.0915
26.147232 165.01619 2.0373528 14.091
26.11236 164.74699 2.492312 13.0945
26.794708 174.24727 -5.2825456 4
26.518965 150.27824 -4.8591542 4
26.414343 152.2269 -4.895752 6
26.637278 152.58165 -4.8671918 3
26.573584 153.07057 -4.951592 4.5
26.675213 153.46869 -4.9942474 2.3333333
26.544115 154.08899 -4.9875717 1
26.565672 155.4594 -5.0293183 3.5
26.735472 155.81793 -4.9967494 2
26.621292 156.11261 -5.0223441 2
26.603981 156.55823 -5.0910358 5
26.406971 157.16461 -5.0592208 0
26.616867 157.35332 -5.0693545 0
26.632534 157.77191 -5.0351281 4.25
26.592426 158.30429 -5.0734544 2.5
26.549482 158.72955 -5.0772548 2
26.594881 159.00258 -5.1117387 3.25
26.597818 159.36078 -5.103972 2.3333333
26.543945 159.73412 -5.0867548 3.1428571
26.603807 160.09665 -5.08042 2
26.690552 160.5027 -5.0184379 1
26.620846 160.93716 -5.0747485 3
26.654745 161.44669 -5.1089272 3
26.71052 161.74008 -5.0938683 1
26.645512 162.09114 -5.1169329 1
26.698055 162.59721 -5.1305156 1.3333334
26.531553 163.0686 -5.0593324 2.5
26.63781 163.39848 -5.0518165 3.9583333
26.685574 163.7879 -4.993104 5
26.594244 164.2645 -4.8892403 4
26.752565 167.74915 -4.9925141 3
26.787357 150.99442 -4.7415457 6
26.690491 151.23531 -4.5563741 5
26.563278 152.2272 -4.5118804 5
26.701487 163.04512 -4.6296902 4.8571429
26.608576 163.42076 -4.6154966 4.8571429
26.575054 163.7511 -4.7181621 5.5
26.52771 164.74391 -4.4405231 4.6666665
26.644981 150.26532 -4.0260291 6
26.53723 150.60545 -4.2225299 3.75
26.517933 150.995 -4.2023454 2.3333333
26.451286 152.3532 -4.0236158 4
26.485266 153.51218 -4.1284304 4
26.708218 164.08499 -4.1780095 7
26.695526 164.56525 -4.3040237 4.4375
26.477306 164.86356 -4.3210626 3.5
26.564335 150.06674 -3.9347007 6
26.646992 150.61034 -3.8180079 4.21875
26.404924 150.88147 -3.6106284 4.5
26.626837 152.09836 -3.7760236 2.4333334
26.543964 152.69641 -3.8174195 1.5
26.703569 152.96594 -3.8285651 5
26.630789 153.39932 -3.9012909 5
26.526016 153.75504 -3.6602118 6
26.685915 164.64189 -3.7301214 5.8333335
26.517544 164.8613 -3.8454247 5.5
26.523472 150.28116 -3.554404 5
26.427698 151.02155 -3.2080679 7
26.40037 151.33896 -3.5081589 5
26.563776 151.98273 -3.3764079 5.75
26.559151 152.05203 -3.4679971 5
26.509506 152.75276 -3.5022597 6.3928571
26.62002 153.40816 -3.4327314 6.5833335
26.71039 164.16486 -3.3787827 8.0454998
26.5306 164.58267 -3.4101653 8.0883331
26.412636 164.91603 -3.5547371 8.1075001
26.742334 150.48839 -2.8780496 8.9169664
26.492599 151.04645 -2.9436843 8.8150005
26.507475 152.71475 -2.9064212 9
26.521002 152.99861 -3.0300548 8.6085281
26.603653 153.37515 -3.0644419 8.1123753
26.603455 153.79924 -2.8974254 8.0553331
26.549873 164.27831 -2.9348764 9.0112915
26.542088 164.46068 -2.8119168 9.0439167
26.502975 164.96004 -2.8878636 8.6993332
26.691628 150.50348 -2.5700214 10.7101
26.677919 151.38326 -2.5529037 11.648625
26.454872 152.6981 -2.5975256 10.333333
26.545887 153.02339 -2.6749833 9.4536219
26.616287 153.26031 -2.6854012 9.6100712
26.583019 153.75017 -2.6690388 8.9209614
26.578608 164.32007 -2.5925624 9.5062399
26.583195 164.49217 -2.5043628 9.1394539
26.42935 165.01794 -2.7526956 9.5091248
26.768965 165.34489 -2.4958415 9.8091249
26.536625 166.94121 -2.7035978 9.0229998
26.537615 150.15372 -2.1278188 12.75
26.448101 152.38875 -2.0618474 13
26.497957 152.6156 -2.2291524 13.116751
26.573921 152.96083 -2.1939592 11.84625
26.623861 153.42294 -2.2182698 11.13475
26.620888 153.75697 -2.2086983 9.8120623
26.67799 163.91098 -2.1134834 12.344167
26.688704 164.16615 -2.2509363 10.420688
26.707876 164.43262 -2.2700255 10.256187
26.658792 164.96219 -2.2189145 8.0530005
26.479134 168.53993 -2.0652082 10.0685
26.572639 150.22064 -1.8217797 14.450376
26.660194 152.32266 -1.7688466 13.23685
26.592848 152.55899 -1.8057036 13.488029
26.664717 152.94412 -1.8527906 13.275299
26.46364 153.40985 -1.8930117 10.799416
26.536251 153.71556 -1.9402759 12.069084
26.567142 160.56422 -1.6963198 8.1630001
26.750242 162.21556 -1.6035848 10
26.6124 163.90326 -1.7698599 11.717883
26.681969 164.15707 -1.8761041 12.2565
26.70051 164.50723 -1.7461582 11.055555
26.44838 166.79173 -1.6630194 12.02275
26.6619 166.99054 -1.7181798 12.0745
26.707703 167.83839 -1.8060524 11.0215
26.79785 168.13235 -1.8040454 11.02
26.414577 168.54733 -1.9514008 10.0185
26.552895 152.66574 -1.5396612 15.1075
26.57839 153.01808 -1.3877981 14.63575
26.452618 153.28029 -1.4015217 12.811168
26.550976 154.29465 -1.2784728 12.1655
26.572437 154.42149 -1.3287247 15.1015
26.71257 160.63812 -1.2111723 9.1545
26.464664 161.27176 -1.226571 9.1549997
26.44599 161.77882 -1.2412356 10.094
26.76605 162.33586 -1.3034157 14.011
26.672422 162.54791 -1.5324997 10
26.5665 163.19644 -1.2332067 13.0085
26.664268 163.36519 -1.2645656 13.699166
26.739498 163.86678 -1.5126153 12.037333
26.738104 164.44934 -1.4676651 13.4325
26.483782 166.33893 -1.2820773 15.0395
26.458235 166.42398 -1.5205336 11.0865
26.581051 167.49692 -1.4367847 12.019
26.748699 167.84991 -1.3900797 12.0195
26.60947 169.40984 -1.4139224 12.535999
26.658842 170.23502 -1.2569333 13.045
26.584473 153.228 -1.1398951 12.1635
26.401451 153.61792 -0.97072166 13.165
26.588144 154.26378 -0.8797583 13.1655
26.601068 154.52905 -0.96404046 12.63175
26.630777 160.67287 -1.0688823 10.719
26.612774 160.96123 -1.0906543 11.814125
26.631134 161.39311 -1.0072842 11.712969
26.488983 161.75951 -1.0564414 11.742084
26.436762 162.28474 -1.0806538 15.011
26.570118 162.67038 -0.93216485 12.065167
26.634373 163.05475 -0.81523645 13.0885
26.738165 163.31726 -1.1504247 14.0125
26.761028 163.83177 -1.0614614 12.006
26.663111 164.34438 -0.98038113 12.672501
26.62487 164.50604 -1.0648297 10.093
26.728569 165.98965 -0.9887557 12.0865
26.569496 166.11575 -1.1264465 13.017876
26.721676 167.36763 -0.82874346 14.0235
26.546387 167.72679 -0.99853438 13.0195
26.742783 168.23801 -1.0396818 12.54575
26.534817 169.71941 -0.9684943 13.5365
26.730192 153.76549 -0.78429437 13.16475
26.434099 154.14279 -0.76058519 9.1534996
26.448095 160.14255 -0.50071788 13.17875
26.570528 160.42905 -0.45691055 12.0925
26.513165 160.98322 -0.47853982 13.263624
26.515245 161.29968 -0.52773541 14.0605
26.570082 161.78241 -0.50556761 11.2476
26.64485 162.07678 -0.63381118 11.0465
26.620245 162.56973 -0.52725977 9.0511665
26.611998 162.89684 -0.51157057 12.03
26.533228 163.2462 -0.5437057 9.0515003
26.695873 164.25548 -0.79458177 14.01125
26.630821 164.56569 -0.74183834 11
26.493052 165.9787 -0.67216164 15.0205
26.587194 167.76717 -0.64756364 13.065501
26.740181 168.04784 -0.65358442 14.074
26.540012 169.13885 -0.68355775 15.044
26.537027 160.77654 -0.16686009 15.0905
26.499224 161.15515 -0.19676533 12.0925
26.615568 161.44432 -0.24779332 11.426666
26.639999 161.65503 -0.25175259 12.092
26.596825 162.71214 -0.27371982 13.09
26.759758 162.97464 -0.19443101 13.0485
26.613171 163.82828 -0.15432346 14.088
26.69138 168.55121 -0.27431872 15.026
26.406216 168.91129 -0.21292177 11.0895
26.610527 162.31314 0.29238713 10
26.735336 162.44452 0.2860823 11.54675
26.698528 163.65439 0.055581558 15.0075
26.78611 169.77277 0.22454582 15.0735
26.705969 161.87018 0.4488163 13.0915
26.746708 163.47336 0.71287638 13.091
26.655436 164.18781 0.57495064 12.092
26.500462 163.34575 1.099286 12.0935
26.770264 165.74136 0.80456477 15.0865
26.725273 169.69058 0.92525363 12.089
26.730734 162.28598 1.2511196 13
26.74258 162.51118 1.3654138 13.363833
26.709713 162.97426 1.3438678 14.091
26.644913 166.14403 1.2510146 13.09
26.650043 166.05511 1.7639486 12.592
26.464197 164.68219 2.2358513 14.091
26.525446 164.86592 2.4527884 13.093
26.444744 165.22713 2.5023141 13.093
27.122265 161.89555 -5.2062831 2
26.962341 162.69005 -5.2131343 2
26.838722 163.0332 -5.2097473 2
27.174988 172.84256 -5.3407888 5
27.022688 174.0972 -5.2775736 4
27.007605 150.32556 -4.8490343 4.5
27.17885 150.642 -4.9106836 5
27.066637 151.02789 -4.9557948 5
27.176226 151.52666 -4.9770756 4
26.925121 152.61151 -4.9329529 3
27.101585 152.81734 -4.85496 3
27.104595 153.34244 -4.9976807 3
26.973646 153.83153 -4.9820199 2.3333333
26.993193 154.1219 -4.9731326 1.6666666
27.167671 154.54315 -4.9654641 1
26.866138 155.18579 -5.0424619 0
26.926466 155.41734 -5.0095959 3.75
26.98764 156.22478 -5.0150719 2
26.952581 156.56267 -4.9590564 3
27.066193 156.92728 -5.1168289 5.5
26.857738 157.50717 -5.0703406 0
27.049686 157.81726 -5.0741777 4.25
26.940067 158.07993 -5.0339994 3
27.134203 158.65623 -5.0836229 3
27.027472 159.06628 -5.1743426 5
26.872049 159.75272 -5.1250825 6
27.10976 160.31393 -5.166276 4.6666665
26.929754 160.5883 -5.1379595 1.6666666
26.947561 160.93979 -5.1461353 1.75
26.91497 161.35661 -5.1364579 2.1666667
26.947636 161.80434 -5.1606536 2.6666667
27.093742 162.33879 -5.0013123 2.5833333
26.92243 162.5639 -5.024982 4.8333335
26.954 163.03423 -4.9259434 6.3333335
26.953117 163.31317 -4.9449987 5
26.978203 163.75345 -5.0070515 3.25
27.055321 167.13441 -5.0191875 3
26.83765 167.57907 -4.9190583 3
26.951963 169.12215 -5.1097093 3
26.994852 171.31993 -5.1640792 5
27.083527 150.15433 -4.5119362 6
27.146759 162.29019 -4.6172128 4
27.0296 162.60191 -4.6803026 5
26.999537 163.02002 -4.6363254 4.6666665
26.968285 163.26126 -4.5155787 4
26.993864 163.80431 -4.5120158 4.875
26.974937 164.17435 -4.4282608 6
27.05097 150.08237 -4.2892485 1
27.143015 150.72092 -4.3295612 6
27.141954 150.85526 -4.3535843 6
26.83988 151.20287 -4.0854573 1
26.815378 153.0211 -4.2089133 4
27.048103 157.61356 -4.1899743 4
27.14576 162.39211 -4.241426 5
27.019323 162.52846 -4.2082715 5.6999998
26.998425 163.89635 -4.2425518 5.7587724
27.001143 164.11873 -4.1703167 5.7760415
26.813765 164.42433 -4.3179255 3.4285715
27.033346 150.569 -3.8017926 5.25
26.843985 151.05363 -3.6530828 4
26.97134 153.0887 -3.8143203 5
27.168673 162.45241 -3.8012583 5.7857141
27.094225 162.93169 -3.7117538 7
27.153431 163.54759 -3.624685 7
27.034964 163.85286 -3.7834969 6
27.007715 164.13893 -3.7791665 5.9393935
26.873196 164.52882 -3.8112237 6.3000002
27.153862 150.06015 -3.551141 5
26.875027 150.54492 -3.3197052 6.25
26.974529 153.35686 -3.5683589 6
27.075954 162.51445 -3.4111683 7.3533077
27.046354 163.85847 -3.3823459 7.6271725
27.000584 164.08545 -3.3602078 7.5
26.808516 164.48494 -3.598119 6.5
27.001001 150.35249 -2.8991842 8.8193331
26.808441 151.02942 -2.9722967 8.6502504
26.812019 153.40291 -3.0766056 8.4373331
27.162336 162.46194 -2.9883232 8.5989084
27.098503 163.87022 -3.0633762 8.1428576
26.993717 164.08267 -3.0720005 8
27.047277 150.07468 -2.503932 10.8533
26.97237 150.6264 -2.5290716 11.152
26.813335 151.87979 -2.5759575 12.148
27.099148 162.53821 -2.614444 9.0313501
26.903372 164.25316 -2.5218728 9.5693884
26.889549 164.42946 -2.4627185 9
26.921709 165.44603 -2.5024114 8.7278337
26.936275 165.65604 -2.4797289 9.0895004
27.04937 150.18764 -2.0951781 13.153167
26.916365 153.11267 -2.0476987 11.634874
26.809469 153.36696 -2.0638189 13.105
27.166412 162.48491 -2.2756479 11.227571
27.131887 162.87906 -2.0878887 8.0427494
26.829926 163.99261 -2.1052644 13.032
26.94206 164.14218 -2.2138975 10.237715
26.810644 164.43665 -2.0728123 11
27.058859 165.4342 -2.2871475 11.074
26.811195 168.07819 -2.0200841 11.0265
27.185471 150.51961 -1.8184998 15.1535
27.066282 153.04982 -1.9072245 10.164
27.115831 162.57747 -1.8443587 11.020889
26.844265 164.37115 -1.7246375 12.5
26.853222 164.43893 -1.7191751 11.5
27.188408 165.11565 -1.9259099 13.0345
26.811201 167.88121 -1.9389168 12.0415
26.891809 168.13829 -1.8947704 11.025
27.12249 168.71455 -1.8134369 12.042
27.125048 168.94334 -1.8028055 11.53425
26.868116 169.375 -1.8077376 11.364834
27.045765 152.93581 -1.2402817 12.0985
26.929115 160.39421 -1.5577676 8
26.830847 162.29144 -1.4494328 13.5825
27.131845 162.49368 -1.4958652 11.362667
26.999514 163.49045 -1.2955275 12.0875
26.845036 163.73642 -1.3241351 12.691833
26.917934 164.26756 -1.4520242 14.010501
26.855545 164.42166 -1.4197228 13
27.083641 167.40671 -1.2878773 13.532249
26.879419 167.73581 -1.5109059 11.688251
26.850445 170.7522 -1.3793712 12.031
27.015076 170.98779 -1.5437731 12.045
27.022964 160.2684 -1.0941883 9.1577492
26.881702 160.63725 -1.0496529 13.209499
27.081516 160.95792 -1.1252553 9.0787506
27.098753 161.23856 -1.1021076 13.0035
26.870991 161.87662 -0.85902721 9.1009998
26.809856 163.83948 -1.1422966 14.544874
26.910376 164.54611 -1.0942688 13.543375
27.191727 169.9922 -0.96173942 13.02925
27.010506 152.49081 -0.71547925 15.165
27.185665 160.41112 -0.44281018 9.0489998
26.866772 161.40063 -0.42320839 10.566
27.076714 161.97041 -0.52891898 14.0885
26.964003 162.05757 -0.62791836 10.730166
26.831156 162.82082 -0.63283235 10.0955
26.935509 163.68309 -0.74039882 13.0875
27.068096 164.75784 -0.62609279 13.05475
26.842304 169.4884 -0.63632494 14.029
27.13368 160.67604 -0.3980338 9.0424995
26.998493 161.45573 -0.2704927 12.42525
27.185804 161.63794 -0.36021054 12.091
27.140007 162.59277 -0.20068876 13.048
27.171688 163.12521 -0.054355271 11.093
26.941729 163.47266 -0.37034816 15.009
26.881622 167.64261 -0.13279487 13.0855
27.015787 168.74963 -0.16124162 15.05025
26.888277 170.25919 -0.39169908 15.0445
27.107426 161.95787 0.37258199 13.091
26.917946 162.23698 0.29318869 11.698001
26.875731 162.41156 0.084444493 12.0915
26.944916 163.44913 0.24153858 13.58925
27.030743 166.00504 0.029576471 11.092
27.141939 161.80879 0.82767087 13.0915
27.061785 164.70726 1.05393 13.0905
27.067369 169.14792 0.86221027 14.0845
26.836128 162.38043 1.2570587 13
26.842022 162.62425 1.4031416 13.061666
27.054697 162.93814 1.372413 14.09075
26.979853 162.60515 1.6072322 14.0915
26.879057 162.97217 1.9758921 13.093
26.924286 164.21524 1.8287346 14.0905
27.02165 163.13525 2.2235975 15.0905
26.953711 163.433 2.2222354 15.0905
27.017736 163.96823 2.4928482 15.0905
27.285517 150.31242 -4.9386258 4
27.303263 152.34633 -4.9613519 2
27.540398 152.43304 -4.9752426 2
27.444069 153.07045 -4.9286432 3.3333333
27.44002 153.47325 -5.0258012 4
27.30414 154.18784 -4.9875736 2.3333333
27.426521 154.52248 -4.9941287 2
27.564894 154.91054 -4.9779038 1
27.339972 155.59201 -4.9843431 5
27.425669 155.87451 -5.0557055 2.5
27.420298 156.19492 -5.0188179 1
27.275059 156.68831 -5.0402975 2.75
27.422087 157.08975 -5.0548358 3.75
27.550571 157.46454 -4.9906878 2
27.442688 157.93857 -5.1031718 3
27.418434 158.13048 -5.0514207 4.75
27.557648 158.51173 -5.0581193 3
27.454817 158.80797 -5.0842519 3
27.432096 159.32545 -5.1874833 5
27.533144 160.49307 -5.1887641 6
27.376459 161.54694 -5.1463809 4
27.410746 161.99178 -5.1803412 4
27.47559 162.22884 -5.1126413 4.5999999
27.358702 162.4807 -4.9540029 5
27.276587 163.04926 -5.041369 5.2222223
27.217152 163.37166 -5.0262918 2
27.395601 166.15475 -5.0081468 2
27.451229 166.6171 -4.8897519 3
27.409416 169.00436 -5.1251826 3
27.520771 151.44043 -4.6061292 6
27.505772 161.56693 -4.6603513 6
27.524406 161.84129 -4.5732584 5.3333335
27.254543 162.27832 -4.6231012 4.666667
27.292021 162.49316 -4.6042657 4.2857141
27.558571 163.44817 -4.4413638 5.5
27.304893 163.75653 -4.4535155 6.5
27.553425 151.55228 -4.196218 7
27.489065 161.94041 -4.399332 4
27.203817 162.39728 -4.2261152 4
27.232409 162.42142 -4.2082143 5.5
27.495335 163.43958 -4.2710404 5.2083335
27.297871 163.73457 -4.1991839 4.5
27.399391 150.23145 -3.877008 6.5
27.315241 150.7648 -3.6675394 4
27.250309 150.89323 -3.7216651 6
27.476254 151.53532 -3.7767825 2.5
27.254536 162.30237 -3.7388649 7
27.245953 162.43991 -3.7261024 6.1666665
27.550108 163.49289 -3.7346408 6.1999998
27.296415 163.7352 -3.7371747 6.3333335
27.452251 150.26587 -3.423568 5.625
27.475407 151.5256 -3.3501923 5.8333335
27.254339 162.4585 -3.3304963 7.7203002
27.509928 163.5542 -3.3414502 8.0450001
27.299398 163.83502 -3.3983665 7.8757052
27.417852 164.0947 -3.3178639 8.0994997
27.558764 150.27286 -2.921711 8.552
27.329193 150.4203 -2.9474602 8.5829992
27.461815 151.54263 -2.928004 9.166667
27.238068 162.45171 -2.9050801 8.75
27.407372 150.25607 -2.4782863 11.188349
27.477013 150.61014 -2.7027118 10.155001
27.43442 150.82242 -2.5699518 11.1545
27.4536 151.53638 -2.5621831 12
27.233473 162.45302 -2.5134466 10.611111
27.582167 150.01895 -2.1729701 12.65625
27.431042 150.52773 -2.0546751 13.904917
27.254953 162.47893 -2.1525922 10.5085
27.349796 164.11034 -2.2258399 10.394167
27.571638 165.04776 -2.14803 10.5155
27.337797 165.55301 -2.0398331 11.777687
27.413736 165.77776 -2.2168839 10.397624
27.476706 166.23993 -2.0446739 11.529125
27.474926 166.49356 -2.1237559 10.519
27.56501 168.64943 -2.1611607 10.02
27.386251 150.23615 -1.745662 15.155
27.248077 162.47537 -1.7294285 12.375
27.575764 163.9937 -1.9075707 10.008
27.418304 164.12872 -1.9978111 13.031
27.404036 164.99957 -1.7520541 11.81835
27.459812 165.35982 -1.8089525 11.179082
27.348961 165.8045 -1.8229386 11.21735
27.501549 166.12971 -1.8619523 11.356167
27.492332 166.51392 -1.800895 11.525249
27.22897 168.81055 -1.8599013 10.018
27.495995 169.21941 -1.8816521 11.0275
27.275761 169.8378 -1.6670616 11.53275
27.281479 170.22937 -1.6418805 11.023
27.307858 152.35521 -1.3290229 13.1655
27.480362 152.74959 -1.2968194 12.098
27.497431 152.92407 -1.37277 12.098
27.25127 162.30748 -1.4605373 12.675166
27.244398 162.49016 -1.4362178 13.2
27.233126 163.24081 -1.4465566 8.1230001
27.283142 163.76082 -1.2382753 10
27.452971 165.12769 -1.4824591 11.00525
27.457861 165.40359 -1.5636182 13.553875
27.489645 165.88397 -1.5688671 12.019
27.303923 168.50328 -1.5307457 12.0265
27.307779 169.13007 -1.3541458 11.52225
27.293737 169.76038 -1.2708302 13.043
27.427559 152.18698 -0.93384534 14.1655
27.378069 161.05157 -1.0163369 11.438916
27.390173 161.43808 -1.1281924 11.091
27.534578 161.69786 -1.005085 11.364833
27.410385 163.51189 -0.94338876 13.04775
27.381042 163.84378 -0.9820205 11.83675
27.460009 164.02434 -0.91051817 11.0895
27.250929 168.76093 -0.98379612 13.0255
27.394836 161.95261 -0.63513678 14.54875
27.444218 163.42703 -0.73938113 13.063667
27.250294 163.72108 -0.49292901 10.0975
27.572796 164.02681 -0.69802868 15.0155
27.340759 164.71013 -0.55877894 13.086
27.543921 164.98221 -0.52791941 13.0855
27.364328 168.12836 -0.49730384 11.089
27.394615 161.38702 -0.26524433 13.58975
27.594063 161.7757 -0.36843544 12
27.429737 162.33139 -0.17956357 13.0475
27.456722 162.71701 -0.11834121 12.0905
27.239164 163.13885 -0.24445061 14.006
27.482162 163.77919 -0.13993508 12.071699
27.324196 164.65744 -0.17071694 14.0095
27.39859 168.32637 -0.12620862 15.0725
27.440025 169.42813 -0.39057842 14.07225
27.273403 160.638 0.20370953 11.829499
27.430372 161.01358 0.19419666 12.0925
27.498196 161.98627 0.18876557 12.092
27.423658 162.20634 0.19203229 13.090333
27.378336 164.82391 0.12241592 12
27.483906 165.55092 0.10914519 14.0855
27.266327 165.96054 0.25326347 14.0855
27.563921 169.57166 0.35619938 15.0215
27.291578 161.75125 0.69806272 11.82125
27.318218 163.0623 0.43132907 10.1625
27.412228 164.00357 0.74648255 13.09
27.373842 164.76613 0.5430814 15.086
27.515804 165.64604 0.40793639 15.0115
27.321224 164.2941 1.1512524 12.0925
27.472906 164.5988 0.96639252 13
27.398705 169.27615 0.86997694 14.084
27.519121 163.08789 1.3698064 13.840438
27.525331 164.09206 1.4829088 14.0895
27.248865 164.60106 1.2011142 12.0925
27.462421 163.8006 1.7456123 14.09025
27.599792 164.05484 1.7424542 14
27.268999 163.57625 2.1286671 14.091249
27.255144 163.84564 2.0197926 14.0905
27.255045 165.57304 2.1149378 14.09
27.338106 163.92325 2.5451081 14.0915
27.402216 164.15286 2.7669744 12.0995
27.790773 159.70242 -5.2166195 5
27.664873 176.5369 -5.4851804 6
27.648916 177.44891 -5.5192037 6
27.94095 150.35933 -4.9644952 3
27.85944 152.65169 -4.9823904 2
27.771378 153.35565 -4.9466839 3.5
27.849848 153.73633 -4.921617 3.3333333
27.826756 154.21399 -4.9992361 1.5
27.758423 154.62981 -5.0095735 2
27.816856 155.04439 -5.0043316 2
27.734262 155.81892 -4.9926596 5
27.856466 156.09685 -5.0890288 5
27.816555 156.58116 -5.0276694 1
27.817461 157.01843 -5.0524464 3
27.816402 157.30125 -5.130177 5.5
27.709183 157.83522 -5.0007491 2
27.840536 158.24405 -5.0747161 3.2
27.928947 158.61011 -5.0438247 3.3333333
27.821188 159.01602 -5.0897908 4
27.726875 161.55211 -5.0686755 4.6666665
27.72538 161.83281 -4.9982171 5.3333335
27.752785 162.25346 -4.9940267 3.8
27.686237 162.7254 -5.0735211 4
27.748564 162.81331 -4.9821267 2
27.780567 165.82713 -5.0045338 2
27.651621 166.26506 -4.9082632 3.3333333
27.913706 161.19359 -4.6818995 6
27.836641 161.4577 -4.6392484 6
27.801981 161.75444 -4.632359 5.4000001
27.758398 162.14868 -4.5802312 3.5
27.636967 162.41052 -4.6505289 6
27.771393 163.08336 -4.5562277 3.3333333
27.738937 163.448 -4.6681776 2
27.897799 163.05893 -4.2952189 4.8333335
27.68033 163.33215 -4.2683935 4.541667
27.743965 150.34254 -3.7689476 5.5
27.983301 162.9155 -3.8437145 5.5
27.718204 163.30269 -3.7559662 5.6666665
27.987125 162.78555 -3.3409986 8.0860004
27.931009 162.92937 -3.3912253 7.6886253
27.728825 163.29784 -3.3567147 7.7253337
27.822493 150.33318 -2.9268904 8.5262918
27.840979 150.55957 -3.1846802 7
27.79546 150.2812 -2.5607693 10.622708
27.997082 150.41969 -2.6793978 10
27.874449 165.38606 -2.5242863 8.1645002
27.997999 166.24095 -2.6238041 8.0050001
27.878489 166.46855 -2.5251782 9.088666
27.722233 166.85526 -2.4019206 8.0054998
27.876005 150.1629 -2.2887924 12
27.844637 150.59146 -2.0573363 14.074041
27.895962 164.99158 -2.1861925 10.054501
27.85088 165.42651 -2.177201 10.036834
27.851568 165.83145 -2.2208965 11.380333
27.688959 166.30171 -2.1185133 11.55425
27.826809 166.60593 -2.3351007 10.52925
27.760361 168.95863 -2.1633325 10.02275
27.612335 150.54593 -1.8466041 15.156001
27.741444 163.51564 -1.8719003 13.0725
27.7889 163.89307 -1.8341383 11.09375
27.614475 164.00142 -1.8204517 11.01
27.75078 164.41165 -1.6460949 14.031
27.825947 164.9653 -1.7532065 11.215428
27.711643 165.39749 -1.8446259 11.688167
27.72036 166.41064 -1.6578923 12.528999
27.872293 168.0665 -1.8138953 10.016
27.812366 168.54399 -1.6691887 11.0195
27.734303 169.20863 -1.6466765 11.02075
27.922216 150.99664 -1.3553493 12.09925
27.701252 152.10028 -1.2369624 13.166
27.688801 160.88728 -1.3547544 11.251625
27.778412 161.43817 -1.4178432 8.1300001
27.873711 163.38159 -1.4176431 14.033249
27.873461 163.74669 -1.3894259 11.3705
27.887272 164.35545 -1.3495191 15.0305
27.927937 164.55832 -1.393504 12.54025
27.965366 164.91748 -1.5428555 14.032
27.735125 165.40311 -1.5552822 12.0175
27.840374 166.57703 -1.5372612 12.021
27.68055 167.42506 -1.3690897 11.015
27.761747 167.8037 -1.5034301 13.039
27.634401 169.57129 -1.2641602 13.042
27.90801 169.60188 -1.3611578 12.0275
27.851341 150.67175 -0.98835999 12.6315
27.677166 160.70612 -1.0064328 9.1709995
27.727444 160.99599 -1.0227398 12.625358
27.741261 161.40613 -1.0449648 11.753851
27.801355 161.60168 -1.1237198 11
27.88238 163.03564 -0.99178702 12.0575
27.875113 166.20576 -1.0587089 15.0355
27.940859 166.49899 -0.99450147 15.036
27.833775 168.96362 -0.98096776 13.0265
27.766989 161.11111 -0.63638717 13.057
27.734024 161.41321 -0.65891999 12.320499
27.732523 162.84244 -0.58675444 14.007
27.667599 163.21834 -0.58169031 15.0115
27.845905 163.72498 -0.64367437 15.0145
27.767414 169.19862 -0.51310927 14.027
27.755045 169.42921 -0.51112044 13.5235
27.840216 169.70364 -0.61140597 13.527
27.617617 161.1024 -0.32001117 13.044001
27.622078 161.4502 -0.36436298 11.54525
27.699848 161.80148 -0.37126273 12
27.954914 162.08354 -0.11078843 15.005
27.948437 162.70586 -0.27909455 12.0895
27.865168 163.30513 -0.33702895 14.086
27.672386 163.66364 -0.19861862 14.086
27.784222 165.77274 -0.002146669 14.512751
27.856947 168.05714 -0.25863263 14.0185
27.837843 169.26768 -0.027352333 15.027
27.888327 161.57133 0.35961801 13.0905
27.745378 161.81644 0.36707568 13.045
27.750408 162.19467 0.11108864 12.590625
27.829201 165.05301 0.044584144 12.551001
27.896677 161.84494 0.65779287 13.0905
27.757864 162.05664 0.69909316 11.844
27.983976 167.09537 0.66407007 15.014
27.832188 164.02243 0.88449776 11.59325
27.87524 166.83662 1.1151166 13.088
27.768682 161.92001 1.2134764 10.0485
27.890699 163.13271 1.4307324 13.09125
27.672878 164.0851 1.7423007 14
27.61227 164.09343 2.0882668 13.092
27.647163 163.47784 2.4944088 15.09
27.701101 163.81161 2.5573866 15
28.139833 150.07451 -4.9107442 3
28.376404 152.33965 -4.9945722 4
28.294033 153.1152 -4.975903 2
28.178308 153.55907 -4.9896626 4
28.109226 153.82082 -4.9854913 3.6666667
28.30341 154.13695 -4.9623642 1.5
28.025154 154.742 -5.0053453 3
28.181591 155.04883 -5.017272 2
28.201284 155.35779 -5.0281796 2
28.370298 155.76231 -5.0557685 3
28.216255 156.1631 -5.0352674 5
28.331715 156.95905 -5.0377173 1
28.223221 157.41325 -5.1113467 4.3333335
28.093731 157.79608 -5.1015272 5
28.230133 158.21838 -5.107964 3.3333333
28.146378 158.55995 -5.1099629 5.6666665
28.290962 158.90752 -5.1054173 3.3333333
28.272522 159.33755 -5.1005297 2.5
28.327837 159.77092 -5.0203452 2
28.337984 160.17981 -5.1047015 3.5
28.183954 160.54909 -5.1197081 4.3333335
28.335196 161.01993 -5.0002594 4.6666665
28.207365 161.46922 -5.0853553 3.2
28.087669 161.77396 -5.0641279 4
28.199648 165.42636 -5.0010009 2
28.378078 160.39935 -4.6925635 6
28.261955 160.6543 -4.5993109 6
28.27104 160.90907 -4.6504345 6
28.157757 161.44563 -4.6601501 5
28.031677 162.78853 -4.4222784 4
28.399837 160.88148 -4.3343906 3
28.190065 161.94722 -4.3429608 3.5
28.311773 162.29692 -4.281919 6
28.160568 162.65303 -4.2345853 4.8555555
28.036816 162.87244 -4.3851466 6
28.334459 150.29181 -3.6911519 4
28.136427 162.71204 -3.7556498 5.9814816
28.004519 162.82127 -3.7889535 6
28.109335 150.06639 -3.5343437 5
28.144716 162.70567 -3.38082 7.7588935
28.170851 150.19232 -3.0482411 7.8295002
28.080933 150.49806 -3.182271 7
28.156984 166.08151 -2.8177021 8.5452499
28.115381 165.44177 -2.405319 9.0889997
28.220354 165.90588 -2.5933223 8.5977497
28.145737 166.16057 -2.5440655 9.0537853
28.219666 166.65498 -2.5307271 8.4006662
28.232006 166.95959 -2.6280017 9.0305834
28.31905 164.6353 -2.0283349 12.0705
28.174921 165.23549 -2.1761026 10.943
28.234818 166.28056 -2.2347236 9.3694992
28.119425 166.63661 -2.2296765 10.02
28.173697 166.82652 -2.3692572 8.0050001
28.254333 167.3998 -2.1859405 8.0369997
28.394609 168.32584 -2.1138678 11.0385
28.03915 150.79144 -1.9306819 15.1585
28.12965 151.05664 -1.7865669 11.16525
28.171103 163.02678 -1.7128608 12.539249
28.313631 163.63446 -1.8741219 13.049
28.134171 164.33144 -1.861395 13.03
28.129383 164.71986 -1.7547531 12.360833
28.287125 164.93887 -1.8681413 11.01575
28.233809 165.45882 -1.887493 10.682167
28.08658 168.16312 -1.8246125 11.023999
28.110636 162.77916 -1.2056463 13.01
28.075111 162.98425 -1.3556949 13.150312
28.038813 163.49292 -1.3505478 12.0085
28.135878 164.77284 -1.4404773 13.383187
28.238066 164.82422 -1.5133991 14
28.30374 162.35251 -0.99390805 11.09
28.366787 162.78033 -0.91701394 14.0115
28.256907 163.03911 -1.0099257 11.062167
28.142 163.49269 -1.1865927 13.012
28.056021 164.36107 -0.89059627 12.036167
28.100506 164.78311 -1.148152 13.0155
28.082033 164.91676 -0.97504991 12.396832
28.164795 165.9057 -0.84595329 12.512751
28.105736 166.15891 -0.82088339 13.0145
28.219391 167.00229 -1.1501281 13.52925
28.396866 150.37279 -0.64623523 14.0995
28.181856 151.56163 -0.51761049 14.098249
28.172001 151.7041 -0.73705202 14.0985
28.355831 162.34305 -0.6396789 13.050625
28.075993 164.39601 -0.69031996 13.085
28.331383 164.86758 -0.44085559 15.017
28.253515 165.82419 -0.77942765 13.042167
28.308819 168.49362 -0.57859385 14.0705
28.375975 169.41824 -0.73816448 13.025
28.363903 150.46463 -0.28618914 15.0995
28.210957 151.3051 -0.29254699 13.598
28.188019 162.15919 -0.050059829 13.54325
28.383257 162.44699 -0.19922855 12.0895
28.302347 164.01096 -0.32010567 10.099
28.311831 168.11037 -0.18089974 15.0705
28.078545 168.65694 -0.052619629 15.071
28.041315 161.50929 0.24063565 13.09
28.162848 161.77237 0.15881854 11.592
28.278088 162.14635 0.016266428 14.0035
28.228537 165.31032 0.069138631 13.396167
28.118935 168.72845 0.18669128 14.05125
28.362806 163.51019 1.2798228 10.0525
28.098331 163.54065 2.2160633 15.089
28.047951 163.70442 2.2474587 12.09575
28.380629 163.35797 2.6747711 13.59425
28.414761 159.86955 -5.2144232 5
28.497133 173.06876 -5.3737812 4.5
28.766485 151.08275 -4.9916449 3
28.598469 151.68439 -4.9651451 5
28.618105 152.2305 -4.9400992 4
28.764359 152.55161 -4.9973984 4
28.67046 153.47919 -4.9683795 3
28.551622 153.98285 -4.9979596 6
28.541374 154.1951 -4.9713111 3.2
28.562286 154.58762 -5.010313 0
28.529106 155.57146 -5.0153818 2
28.696627 155.77475 -5.0371065 2
28.464823 156.22813 -5.0787373 4
28.659124 156.41171 -5.0686312 3
28.714712 157.09212 -5.0265903 2
28.573629 157.43399 -5.0665627 3
28.639967 157.7093 -5.1206994 3.6666667
28.614573 158.55675 -5.1439371 4
28.671432 159.08398 -5.1248646 4.75
28.522715 159.46278 -5.1391377 3.75
28.438066 159.76187 -5.1303868 3
