# .PCD v0.7 - Point Cloud Data file format
VERSION 0.7
FIELDS x y z intensity
SIZE 4 4 4 4
TYPE F F F F
COUNT 1 1 1 1
WIDTH 1260
HEIGHT 1
VIEWPOINT 0 0 0 1 0 0 0
POINTS 1260
DATA ascii
28.111919 121.61582 -2.1598575 8.1479998
28.090832 122.74982 -2.0749671 8.0994997
28.192432 132.92059 -2.3316622 8.0944996
28.096451 133.48163 -2.0978625 8.0965004
28.094452 133.7692 -2.3319008 8.5682507
28.349802 134.2608 -2.2959578 8.6079998
28.154642 134.61128 -2.3832746 8.092
28.317266 135.23584 -2.1002626 8.0959997
28.185486 142.17377 -2.1372724 11.126
28.307905 143.5238 -2.2215722 11.118
28.338245 143.72995 -2.3137939 10.1135
28.190969 144.11536 -2.2160063 11.1185
28.207912 146.12614 -2.1613948 11.111
28.216194 147.14302 -2.0124273 11.16
28.009226 147.24239 -2.3173645 12.13675
28.385967 147.75316 -2.0056901 15.137
28.355284 148.28072 -2.1863763 11.1605
28.239149 148.58885 -2.1159539 11.66
28.034899 149.9639 -2.2588401 12.158751
28.192297 120.16348 -1.8259941 9.1123161
28.278658 120.57766 -1.7306174 9.1421251
28.216501 120.9795 -1.8710653 8.3457003
28.221865 121.32812 -1.8399351 9.0439329
28.02449 121.86784 -1.9919672 8.1599998
28.158464 122.20934 -1.7668439 9.0989323
28.114365 122.58167 -1.7293353 9.1273336
28.161568 132.7343 -1.7825533 9
28.152647 132.85614 -1.7853397 9.2353258
28.092281 133.36931 -1.6239538 9
28.329166 134.27518 -1.800528 9.0507498
28.236626 134.55354 -1.7520452 9.7433329
28.131714 135.03848 -1.610598 11.1465
28.271629 135.37801 -1.6110349 10.134501
28.378597 136.76181 -1.7700973 11.138
28.117201 141.0285 -1.845132 12.12925
28.094082 141.51776 -1.76177 12.121875
28.102211 142.24152 -1.8080764 12.122
28.023756 146.72372 -1.8306105 12.1095
28.154463 147.38864 -1.8625871 15.1365
28.110893 148.25473 -1.9355549 12.1595
28.123125 148.71985 -1.7895334 13.1595
28.279604 149.1456 -1.9592147 12.826833
28.090519 149.35834 -1.6665764 14.40925
28.2959 149.60321 -1.6792941 14.66025
28.156143 120.135 -1.4580885 9.1455002
28.136671 120.58765 -1.3310565 9.9343004
28.185537 121.00097 -1.3303437 10.13925
28.295998 121.38609 -1.4082966 9.4906883
28.047585 122.26051 -1.3509022 10.137
28.382845 123.93059 -1.2982681 10.1445
28.345488 124.04305 -1.4445504 9.1584997
28.27701 124.55017 -1.2528926 10.126401
28.285542 132.75354 -1.4768273 9
28.276478 132.96394 -1.4524264 9.3190718
28.147139 133.59636 -1.4359006 9
28.113216 133.6875 -1.3733268 9.0652504
28.282307 134.25363 -1.5449754 10.12675
28.227856 135.46678 -1.4665041 12.1335
28.129486 136.53557 -1.5253602 12.13
28.026999 140.75259 -1.3099142 14.129
28.120438 142.65466 -1.2035785 13.1115
28.226805 143.82678 -1.558357 11.105249
28.329414 146.35706 -1.4423311 13.108
28.108929 146.50336 -1.376233 13.6085
28.141626 146.83243 -1.5440286 13.109
28.316961 147.69521 -1.2783641 12.60275
28.072563 149.72694 -1.3124096 12.1005
28.041424 121.6489 -0.89084625 11.1385
28.263908 122.12487 -1.1228926 10.1475
28.345575 124.36002 -1.0735495 10.62325
28.259535 124.57886 -1.092796 10.286667
28.211914 124.8789 -0.98113567 11.13875
28.011208 127.78655 -0.86560619 10.101
28.109465 128.23845 -0.96339387 10.10675
28.301603 132.76353 -0.81484461 9.0965004
28.374041 133.34517 -0.90662736 11.115
28.31032 134.90663 -0.90161526 13.143
28.269297 136.28972 -1.1318791 13.1295
28.061403 141.12062 -0.94692373 15.124833
28.179489 141.45288 -1.1430299 14.1215
28.39592 141.84096 -0.90442634 15.12
28.359814 142.60822 -0.96686548 13.611876
28.034418 145.11412 -0.96126342 14.61075
28.271013 146.57187 -0.97846937 14.392858
28.21014 147.00444 -0.98909932 15.1085
28.057997 147.27655 -0.9243564 15.108
28.281986 148.11365 -1.0768241 13.6035
28.356945 148.81468 -1.1685246 14.1035
28.332256 120.6236 -0.49441704 12.14075
28.211723 121.09056 -0.53545141 11.479335
28.336615 121.57337 -0.71398312 11
28.186554 121.76437 -0.56826609 11.559999
28.358614 122.32664 -0.55020255 10.0965
28.366951 122.64103 -0.54473239 10.603
28.154888 123.0032 -0.5919385 11.028
28.264824 123.42818 -0.50220197 11.111
28.33556 123.75724 -0.66913825 11.13225
28.247225 124.29714 -0.57184327 12.137751
28.259029 124.46733 -0.54407883 11.3177
28.034126 125.49065 -0.42468429 11.1145
28.159412 126.77572 -0.41726726 10.097
28.085348 127.11486 -0.41317108 10.0955
28.036371 127.65711 -0.70515764 12.1285
28.013084 128.35405 -0.77589393 10.1145
28.128307 133.04062 -0.68081743 9.8999996
28.105223 133.21095 -0.61778498 10
28.399939 134.03297 -0.51922774 14.128
28.027279 136.28107 -0.75052285 14.1295
28.243893 145.82893 -0.64538211 15.108083
28.266352 120.30392 -0.24528599 12.145833
28.288139 120.65005 -0.12399488 11.1175
28.141985 121.51061 -0.13347766 12.568624
28.241228 121.73244 -0.14952685 12.285708
28.331493 122.27836 -0.12021419 11.6085
28.300543 122.61017 -0.14196903 11.443667
28.166967 123.04922 -0.32311589 11.11875
28.185394 123.43189 -0.19286001 10.099751
28.271276 124.31617 -0.39671522 11.107
28.18384 125.47567 -0.12966172 11.113501
28.362288 125.83045 -0.15443902 11.102
28.217096 126.96896 -0.23944716 9.8970003
28.150957 127.4437 -0.24647801 11.705153
28.142454 132.69754 -0.16687346 10.010612
28.269348 132.96901 -0.14136802 9.6981668
28.270119 133.39487 -0.19629608 9.5459995
28.38903 134.2493 -0.18519272 10
28.262714 134.46487 -0.29707748 10.129
28.184019 135.13123 -0.099005379 12.0835
28.331499 144.66321 -0.28794238 15.10675
28.247454 145.28918 -0.37621972 12.1015
28.325005 146.15935 -0.078597881 15.104
28.126463 148.8378 -0.031139961 13.0995
28.350273 120.29133 0.31641477 13.007999
28.338284 120.66066 0.17571203 12.622625
28.240955 120.86482 0.097502984 12.1265
28.218317 121.42094 0.35027376 13.289249
28.249222 122.12476 0.064476535 12.11
28.275948 122.50526 0.23664589 11.435166
28.185192 122.99371 0.206512 11.960834
28.256496 123.40081 0.046818312 12.63125
28.082592 123.64196 0.23893984 12.65275
28.281729 124.29633 0.1162452 12.788501
28.112402 124.55065 0.117859 12.877563
28.162636 125.5108 0.33263034 14.13475
28.251066 125.68862 0.29342282 10.0955
28.199591 126.29695 0.26454765 10.54775
28.181665 126.69794 0.34072766 14.126249
28.161673 127.02911 0.19309828 12.387375
28.11314 127.56391 0.071820371 11.101
28.065229 127.73386 0.0057526142 11.1265
28.125118 132.74402 0.18177399 11.2232
28.086245 132.86797 0.20320784 11.482116
28.143511 133.43271 0.089818589 11.3975
28.208157 133.992 0.3261916 9.0950003
28.302202 134.09715 0.21250103 10.432583
28.317877 134.44432 0.31758189 9.0950003
28.232521 149.47658 0.11748531 12.5985
28.276806 149.82785 0.06810423 12.598249
28.191303 120.16321 0.53478384 12.52265
28.193531 120.6885 0.5438416 13.64525
28.215372 121.37677 0.5118736 12.91505
28.107183 121.69697 0.78752232 14.12875
28.228762 122.26665 0.51513213 12.976147
28.165518 122.51229 0.58011043 13.114062
28.172686 122.94864 0.67410588 13.0015
28.084621 123.35989 0.72699583 13.621063
28.191517 123.89825 0.6447621 13.114333
28.102079 124.27627 0.71234751 13.696714
28.113237 124.57925 0.54156864 15.133
28.096888 125.46744 0.77421832 11.097
28.142885 125.77218 0.63816625 12.869249
28.180925 126.1901 0.65924805 12.1165
28.240725 126.42056 0.79738623 12.128
28.382698 126.85185 0.53463006 15.1385
28.188299 133.01523 0.49483243 11
28.158566 133.32788 0.58098906 11
28.148342 133.7934 0.5779081 10.57125
28.388903 134.06256 0.61124945 11.126
28.067944 145.72498 0.70541173 15.103
28.306803 120.03879 1.1577069 12.101
28.074953 120.47488 0.98535293 14.12225
28.191566 121.13219 0.87960529 14.149
28.180365 121.34843 0.93967414 13.953876
28.108912 121.72515 1.0422903 14.116477
28.162001 122.30839 1.1176575 13.959909
28.168676 122.63575 0.98984683 13.916499
28.034983 123.55683 0.98096776 13.1185
28.15379 123.82124 0.87017006 12.102
28.041262 124.33784 0.84674984 13.449249
28.113523 125.63132 1.0623333 11.0985
28.188295 126.09628 0.89019769 13.112
28.217707 126.43746 0.83528638 12.129
28.12767 127.57934 1.1009601 13.11
28.104614 133.76649 1.0174574 11.433
28.152227 134.38025 0.81775373 11.0985
28.111637 120.50802 1.2633917 13.607
28.167706 120.95257 1.4770124 14.114056
28.116877 121.32549 1.4454324 14.117584
28.284954 121.78249 1.2150732 13.1035
28.183189 125.89104 1.3700254 13.105
28.0264 126.02857 1.4659135 13.125
28.034653 134.15115 1.5893831 12.122
28.190947 144.25348 1.3552189 15.1025
28.20715 120.99972 1.70144 14.470833
28.110207 126.12337 1.6049703 14
28.222895 126.49109 1.6711166 13.1285
28.220135 126.83621 1.6661595 10.093
28.082039 127.75555 1.7512549 13.1265
28.019157 133.57622 1.9399168 12.13
28.084681 133.71977 1.6896967 12
28.251272 135.57973 1.8494165 12.0985
28.256067 136.29216 1.7186661 12.0995
28.016371 136.81407 2.2721696 12.129
28.32682 145.5316 3.4609635 12.129
28.730284 146.89342 -4.8817625 2
28.408024 147.45059 -4.9023657 5
28.616032 147.77853 -4.8702722 3.3333333
28.719988 148.11989 -4.8900032 2.5
28.572304 148.73405 -4.8812346 5
28.64138 148.97507 -4.9431629 5
28.597643 149.51579 -4.9520664 5
28.450586 149.77747 -4.8915362 6
28.58646 128.56122 -4.4659481 5
28.453304 130.12012 -4.4155488 4.5
28.603653 130.7059 -4.4254541 5
28.746929 130.84964 -4.4204712 5
28.736017 131.22743 -4.40062 3
28.535549 132.63002 -4.4195862 3
28.634617 133.46158 -4.4397144 3
28.739305 134.58327 -4.5398722 7
28.635576 134.89523 -4.4642687 2.5
28.421732 135.54665 -4.4044719 5
28.745432 136.7468 -4.5400238 2
28.606163 137.07567 -4.4504991 2
28.617279 137.88278 -4.5301127 2
28.752352 138.27924 -4.5679045 2.5
28.655392 139.19217 -4.6171856 1
28.734837 139.35358 -4.608048 1
28.781618 139.61354 -4.5972242 1
28.509621 140.97139 -4.618031 1
28.645039 141.44667 -4.6013947 2.6666667
28.542528 141.81165 -4.613452 2
28.648832 142.19826 -4.6505027 1.8125
28.643278 142.62572 -4.6890116 2.1666667
28.667093 142.99631 -4.6375661 2.3
28.694771 143.38171 -4.5800638 2.2
28.745699 143.84474 -4.6227822 5
28.615223 144.22357 -4.5423584 4
28.613039 144.68539 -4.60888 5.5
28.741241 145.1611 -4.6440139 4
28.739704 145.37466 -4.4820652 5
28.516495 147.44931 -4.6598678 3
28.612106 120.14198 -4.1134539 5
28.526468 120.45334 -4.1866498 7
28.592382 121.00301 -4.2025108 6
28.518337 121.38893 -4.216238 5.3333335
28.681816 121.83507 -4.190856 4.6666665
28.520199 122.28893 -4.2197757 4.25
28.462061 122.50816 -4.2179499 4.5
28.741291 123.5523 -4.3519092 5
28.59964 124.03255 -4.0658426 5
28.678331 124.65939 -4.3009133 4.6666665
28.675888 125.07095 -4.2302594 4
28.506115 125.47051 -4.2847223 3.5
28.600435 125.96772 -4.3276873 3
28.670721 126.18054 -4.3388438 5
28.61721 126.61165 -4.2754121 4.6666665
28.590269 127.33839 -4.372282 4
28.597107 127.79368 -4.3408942 3.4000001
28.560236 128.17096 -4.3474503 3
28.616732 128.62628 -4.3128939 3.25
28.666277 128.88667 -4.2840495 3.2
28.655895 129.35242 -4.2960105 3.2
28.597921 129.94579 -4.3104396 3
28.445908 130.21005 -4.3413167 3
28.480076 130.74403 -4.3278532 4
28.624063 130.94321 -4.3495808 3.25
28.567827 131.33891 -4.3292022 3
28.796999 131.69473 -4.3486466 3
28.537714 132.99252 -4.3409967 3
28.589989 133.46364 -4.3726368 3
28.593187 134.15417 -4.2193804 5.75
28.553574 134.6664 -4.2487864 3.6666667
28.648191 134.87984 -4.3559151 4
28.579208 135.47221 -4.3261395 3.5
28.470154 135.6077 -4.3791575 3
28.55673 136.01532 -4.3277712 5
28.789049 137.9789 -4.2648902 3
28.569128 138.21109 -4.3040614 3
28.615097 138.51358 -4.3886676 4
28.737963 139.86044 -4.1592469 2.6666667
28.592804 140.60805 -4.1694007 3
28.561947 140.92711 -4.1347499 4
28.569527 141.33107 -4.3478422 2
28.550095 141.71246 -4.111124 3
28.700272 142.63708 -4.1081681 3
28.600895 143.147 -4.0286031 4
28.584259 143.41025 -4.2781019 2.5
28.717112 145.07016 -4.3570008 3
28.493727 146.78557 -4.0141735 4
28.688271 133.99023 -3.7166586 7
28.523909 134.30762 -3.6996863 7
28.500038 134.67546 -3.8384514 4.833333
28.700142 134.99637 -3.6748974 7
28.56616 136.31662 -3.7156978 5
28.71067 140.02095 -3.7941411 5
28.475277 140.71103 -3.6291168 5
28.440134 141.14404 -3.6672261 5
28.634878 142.68822 -3.8385129 4.5
28.589352 143.00945 -3.7357137 4.875
28.543411 143.33826 -3.8495703 6
28.686155 144.50206 -3.9299362 4
28.733086 145.94522 -3.7854731 5
28.627848 120.21558 -3.3271606 6.3651671
28.581593 120.5537 -3.2096612 6.6666665
28.58293 133.49323 -3.3404188 7.3636365
28.606417 133.66362 -3.3261106 6.7274284
28.547289 134.57004 -3.442812 6.5
28.564953 135.08101 -3.52619 7
28.675394 135.7612 -3.4624512 8.0926666
28.674555 136.48338 -3.37398 6
28.451349 138.64117 -3.5034208 6
28.521168 139.52982 -3.3413506 6
28.64624 140.25134 -3.5759439 5
28.586338 141.00601 -3.3646448 6
28.68174 141.38834 -3.4070916 6
28.595179 142.65848 -3.2063661 7
28.697334 143.03284 -3.5434062 5.5
28.521753 145.47633 -3.2733972 7
28.732529 145.92725 -3.5351853 6
28.621277 147.06137 -3.4192064 6
28.474464 147.36963 -3.4129703 6
28.678448 148.59875 -3.3849895 6
28.568048 120.19218 -3.0760195 6.2857141
28.632959 120.50388 -3.0477779 7
28.426487 120.87438 -3.0494092 7
28.462406 122.55599 -3.0627334 6
28.473074 122.87887 -3.0860188 7
28.590631 133.39182 -3.0291889 7.4000001
28.456892 133.81589 -2.9240675 7.5
28.598166 134.16409 -2.9764848 7.8198996
28.704029 134.57056 -2.9010627 8.0507498
28.668106 135.05118 -2.8645537 8.0930004
28.576845 135.25441 -3.1907763 8.0944996
28.621445 139.01152 -2.8655665 8.1215
28.66118 140.56004 -2.880372 8.1260004
28.573042 141.32135 -3.0968895 7
28.435856 141.88423 -3.1536458 7
28.460379 142.28899 -2.8865471 8.2915001
28.513636 142.72205 -2.950515 8.1245003
28.502714 142.98059 -2.9597187 7.9612737
28.481945 143.39943 -2.9546998 8.1149998
28.403255 143.93881 -2.9805386 8.1075001
28.541103 144.20096 -2.9316344 8.2134056
28.57159 144.5764 -2.9462025 8.1136255
28.702614 146.17958 -3.0465708 8.1029997
28.624348 147.42697 -3.0248668 8.1224995
28.637615 147.73203 -2.9860067 8.3774061
28.543974 149.05443 -3.1613445 7
28.641985 120.31607 -2.4646916 7.959094
28.68178 120.57807 -2.5381582 7.6034284
28.762177 121.00156 -2.437314 8.1125002
28.757099 121.30152 -2.4552183 8.1122494
28.419058 122.06145 -2.5425842 8
28.439886 133.40939 -2.6252625 8
28.529291 134.70605 -2.6732068 8.1107998
28.591333 135.07346 -2.6092312 8.1074171
28.553001 135.31087 -2.6334724 8.1367493
28.548203 136.16438 -2.7371161 8.1159172
28.721371 138.71909 -2.5692883 9.1225004
28.478872 143.46803 -2.4922011 10.118
28.602909 143.8895 -2.5628917 9.6153126
28.555397 144.15779 -2.4630015 10.003583
28.662571 145.27957 -2.7075548 9.1097498
28.718571 146.13695 -2.6075029 9.6100006
28.624611 146.44865 -2.7907197 9.1094999
28.622726 147.75978 -2.6838007 9.3545628
28.65506 148.09648 -2.6046317 9.8600006
28.574858 148.78148 -2.5485432 9.5497494
28.530325 148.86755 -2.613606 9.5312662
28.496469 149.69946 -2.4030392 11.16125
28.605427 120.219 -2.1955478 8.0763664
28.591625 120.56859 -2.1681602 8.1561842
28.727123 121.04425 -2.1879325 8
28.704817 121.39116 -2.1749496 8.039464
28.50629 121.70856 -2.1728694 8.0931253
28.653151 132.97391 -2.2206006 8.0935001
28.535223 134.0667 -2.3341162 8.0482502
28.693182 134.46371 -2.0658972 10.137
28.681576 138.67735 -2.3818402 8.0957499
28.632603 140.15019 -2.1030679 10.788334
28.771536 140.40637 -2.0620928 11.630751
28.486933 141.40553 -2.2310021 10.1135
28.557457 143.75549 -2.1940086 10.108875
28.638721 144.23927 -2.2270269 11.33989
28.62682 144.57971 -2.2124224 11.113584
28.769659 145.99692 -2.2975314 11.11075
28.590437 146.90846 -2.0726137 11.105
28.656412 147.49785 -2.1608722 11.106
28.641691 147.77431 -2.2829576 11.202708
28.469395 148.14459 -2.1736422 12.61825
28.778328 148.56731 -2.2158892 15.1325
28.78705 148.92897 -2.0575778 12.1625
28.569218 149.58469 -2.1344085 12.411625
28.539892 149.67963 -2.0039597 13.1615
28.63393 120.17433 -1.8266473 8.9756985
28.58753 120.57558 -1.7608227 8.860611
28.617491 121.05339 -1.8306097 8.8555498
28.607454 121.313 -1.8032119 9.0527163
28.646294 122.23472 -1.6898638 9.1477499
28.444248 132.74805 -1.6908606 9.378417
28.594793 132.92865 -1.7665923 8.9067307
28.620249 133.8696 -1.7774408 9
28.572685 134.10297 -1.8212074 9
28.684452 134.90575 -1.7369797 10.286333
28.76243 136.38631 -1.7706122 11.1455
28.686174 136.7507 -1.8031082 11.1385
28.775023 138.71341 -1.7864974 12.1335
28.68865 140.99551 -1.8857472 12.128834
28.562002 142.82745 -1.6283501 13.1195
28.516945 145.11646 -1.7003975 13.114
28.776348 146.79245 -1.6532497 10.0995
28.661327 147.06953 -1.8951466 12.10725
28.529984 147.37415 -1.9667795 13.623
28.571562 147.77982 -1.8178993 12.272166
28.45686 148.99628 -1.8505946 13.161
28.63896 149.57179 -1.7717605 14.162
28.688791 120.32479 -1.3897185 9.5685625
28.660549 120.52953 -1.3266661 9.8536253
28.688395 121.15519 -1.358487 10
28.595396 121.37482 -1.422736 9.6111431
28.675383 121.91838 -1.2825919 10.112572
28.643692 122.12077 -1.3487771 9.9344997
28.726643 123.33023 -1.2785156 9.9553576
28.748745 123.70127 -1.2761455 9.5494995
28.563833 132.9567 -1.5029503 9.0929518
28.678646 133.66165 -1.5555289 9.1195002
28.546499 134.11467 -1.518699 9.4334173
28.702618 137.04633 -1.3179857 12.119
28.732424 139.31262 -1.5726155 13.139
28.575157 143.02109 -1.5033729 11.60775
28.499258 143.86591 -1.4546545 11.105
28.570398 144.02942 -1.336278 14.115
28.706921 144.81947 -1.5937593 14.1155
28.658047 145.87534 -1.5222856 14.1115
28.62096 146.1496 -1.4781029 13.608749
28.77055 146.40756 -1.350315 14.1075
28.450869 147.06152 -1.3632678 13.105
28.483345 147.64838 -1.3034042 11.10025
28.542566 148.15039 -1.3401747 11.0995
28.713333 148.57281 -1.5042037 13.102751
28.691881 120.23522 -0.90855563 10.799333
28.681545 120.62106 -0.95591205 10.761209
28.622372 120.9219 -0.91784292 10.852875
28.530577 121.37151 -0.981915 10.60339
28.535574 121.75484 -1.0195748 10.429417
28.521152 122.08492 -1.0535976 10.64275
28.614361 122.9732 -0.83378184 9.0979996
28.748583 123.34576 -1.0735183 10.362375
28.758308 123.72055 -0.94562715 10.7175
28.510906 124.26567 -1.0137788 10.62125
28.407639 124.4464 -1.1071191 10.1055
28.563946 132.58051 -0.80184895 10
28.686556 132.98697 -0.92521572 11.1255
28.675056 133.47749 -1.0092736 10.05725
28.786716 134.19615 -1.1648471 9
28.53657 134.5034 -0.86422926 13.1485
28.523191 135.56857 -0.89719588 14.1335
28.488333 138.29935 -0.9358598 14.123
28.545336 139.47496 -1.0030873 15.1305
28.773815 145.41127 -1.0739536 14.108
28.739527 145.63829 -1.0784543 14.107166
28.439396 146.31218 -1.1042749 14.608999
28.560648 146.54631 -1.0048512 13.438
28.467108 148.78447 -0.86694306 14.602751
28.654627 148.91728 -1.1982933 12.0995
28.674833 120.26167 -0.71406591 11.247749
28.674894 120.70901 -0.72161269 10.979
28.649414 120.93819 -0.59154177 11.247786
28.555819 121.48406 -0.63214761 11.010818
28.734201 121.62361 -0.50543582 10.613501
28.695488 122.6175 -0.46303245 11.1395
28.575449 123.00252 -0.64876032 10.850197
28.603489 123.4521 -0.59958977 11.119111
28.51306 123.66242 -0.56556028 11.115749
28.578773 124.33071 -0.55516303 11.379749
28.468664 124.46162 -0.52686435 11.115
28.617588 132.70433 -0.65834838 10.127808
28.718008 132.83533 -0.53876889 10.06225
28.548485 133.84232 -0.73386502 10
28.556511 134.15213 -0.70827901 9.5480003
28.548904 134.53296 -0.76614922 13.1485
28.484255 135.40149 -0.78502929 14.1325
28.425035 137.2944 -0.69025201 14.119
28.413895 144.28749 -0.60700393 14.107
28.613144 147.44427 -0.73048264 14.60375
28.579193 149.92369 -0.49701858 15.1
28.517265 120.13369 -0.20350775 11.156
28.653614 120.5603 -0.22423048 10.620376
28.651197 121.00586 -0.16798742 12.731199
28.505733 121.42501 -0.22425094 11.796
28.523699 121.70247 -0.19743814 12.265916
28.611422 122.34048 -0.3941997 11.1035
28.53948 122.57508 -0.071335763 11.933182
28.569811 122.87524 -0.10777905 11.783222
28.600286 123.42489 -0.21743137 11.660429
28.620213 123.75843 -0.28571051 11.875999
28.603395 124.35806 -0.32268021 11.1035
28.439653 124.49836 -0.26886457 11.117
28.636217 126.38653 -0.021658599 11.1285
28.560335 132.68742 -0.25134608 11.192429
28.52409 132.99072 -0.1534559 9.8753004
28.457134 133.29877 -0.35609597 12.115
28.744371 133.76268 -0.35324982 13.119
28.617479 134.27679 -0.18418398 10.055876
28.794907 134.82838 -0.36180088 15.1235
28.63257 144.13034 -0.26026458 15.107
28.578371 144.42412 -0.21156313 15.1065
28.633398 146.28151 -0.30546111 13.10125
28.765551 120.22253 0.064413615 12.451
28.63298 120.58723 0.27032414 13.122535
28.592649 121.19115 0.32443357 13.114001
28.661505 121.30862 0.24345173 12.761875
28.647755 121.6628 0.22919925 14.137
28.59836 122.26271 0.24254371 13.1215
28.617609 122.57479 0.16298911 13.135688
28.458775 123.10893 0.30513316 12.120334
28.604668 123.40025 0.23880824 11.8824
28.525776 123.6981 0.29350451 12.6
28.423904 125.65685 0.24943307 12.109334
28.58326 126.19209 0.22997004 11.509299
28.511215 126.66995 0.10342898 14.139
28.713551 132.67622 0.10649959 9.0445004
28.540527 133.1097 0.014649329 10.0975
28.595285 133.45624 0.12534511 11.438
28.570286 133.89069 0.25902975 10.3655
28.628637 134.12286 0.11748663 9.0944996
28.425055 143.89011 0.35350469 15.105
28.635067 148.27814 0.36517268 15.10025
28.526403 148.75987 0.19736235 14.099375
28.490993 149.22615 0.13717043 13.099
28.552071 120.19199 0.69020611 13.613
28.690128 120.49526 0.52766073 14.1455
28.600046 121.34614 0.54506677 13.549778
28.451715 121.87687 0.68935269 11.0995
28.77862 122.38876 0.5039022 12.1305
28.695126 122.49397 0.48553169 13.3205
28.577484 122.84583 0.53324509 13.1525
28.643021 123.37904 0.42557365 13.152
28.506603 123.77921 0.40025771 12.1275
28.522078 125.80537 0.41717735 14.149
28.555216 126.22225 0.61572862 12.7264
28.753389 131.9426 0.43960962 10.092
28.42454 133.02248 0.53534508 11
28.47076 133.93684 0.47405559 10.666667
28.499346 134.05479 0.52007377 11.1245
28.499472 135.09035 0.73201048 11.127
28.508392 135.72328 0.43747249 13.112
28.759945 147.18622 0.47758505 14.1
28.593758 148.17216 0.43664813 14.0995
28.563128 148.98903 0.49869725 15.0995
28.443033 121.71345 0.82572705 13.127
28.417416 122.0235 0.97264743 14.118
28.517759 122.46339 0.80027521 13.119
28.403179 126.25806 0.93932915 12.13
28.550455 133.64172 0.82322329 11.1295
28.611242 133.48352 1.4375703 11.5
28.599152 133.78664 1.4680122 12.073833
28.651859 144.15257 1.2596861 15.102
28.54945 134.009 1.7178813 12.1265
28.463787 137.07362 1.9999267 12.098
28.734194 124.08968 2.235111 12.112499
28.773582 123.62267 2.5260026 13.099
28.661316 124.03941 2.4664907 14.131
28.720966 124.28544 3.0372317 13.0965
28.565283 146.01694 2.8923881 15.103
28.616148 145.86612 3.5545673 12.1295
28.422287 145.06146 5.1192455 13.1305
29.049217 147.01927 -4.8683324 1.75
29.034218 147.37152 -4.8957405 3
28.868956 147.86195 -4.8859453 4.6666665
29.059322 148.16658 -4.9004483 4
29.04751 149.48428 -4.8614841 3.5
28.816679 149.79355 -4.8312697 4
28.912594 128.64449 -4.4416337 6
28.882851 131.01556 -4.4092774 4
28.933458 131.38708 -4.4105334 3.5
28.913448 131.83221 -4.4106336 3
29.017538 132.22481 -4.4182911 3
29.156908 133.08121 -4.421298 3
29.03838 133.32495 -4.4204917 3
29.041656 133.78685 -4.4440594 2.6666667
28.959755 134.21304 -4.4796829 2
28.998199 134.56725 -4.4611564 2
28.932329 135.05453 -4.4414129 3
29.006964 135.33765 -4.4313006 5
29.10795 135.77386 -4.4482865 3.5
28.922764 136.1429 -4.4763694 2.5
28.914928 137.38684 -4.4981627 1.75
29.070518 138.24216 -4.5354514 1.5
28.96909 138.59421 -4.5549226 2
28.869923 139.03622 -4.4855447 3
28.972517 139.31416 -4.547554 1.3333334
28.960716 139.71486 -4.535953 1
29.057564 140.24368 -4.5996795 1.3333334
28.940006 140.52682 -4.5776615 1
29.013115 141.00909 -4.5921063 1.4
28.968845 141.37834 -4.6318583 0.66666669
28.990004 141.86313 -4.6623673 0.5
29.043634 142.27264 -4.6526122 1
28.983917 142.65683 -4.6995468 1.25
28.950356 143.10536 -4.7041097 2.8571429
28.953455 143.37881 -4.6743259 2
28.938852 143.78448 -4.6935444 3
28.903996 144.09875 -4.5792632 4.75
29.019388 144.6118 -4.640975 5.25
29.113415 145.0872 -4.6472321 6
29.010942 145.47142 -4.6050053 4
29.058851 145.80104 -4.6257296 4.3333335
28.845369 146.02423 -4.5763392 3
29.105339 146.55554 -4.7846284 3
28.915165 149.53683 -4.7371812 3
28.993977 149.89764 -4.7728891 4
28.969244 120.29867 -4.170084 5.6666665
29.056854 120.77949 -4.2026091 7
29.143578 121.19848 -4.1949925 7
28.900282 121.31765 -4.1726704 5
28.981113 121.80923 -4.2686124 5
28.940035 122.26952 -4.2298622 4.6666665
29.137424 123.49765 -4.3257108 5
28.999311 123.86577 -4.2895103 6
29.00769 125.5234 -4.2764287 4
29.082064 125.79145 -4.2819009 4
28.986727 126.23023 -4.3247585 4
29.036612 126.53329 -4.2494912 5
28.971798 126.81164 -4.2444348 3
29.004486 127.43496 -4.3223362 3.4000001
28.875975 127.69817 -4.3084764 3
28.969145 128.72723 -4.2561584 4
29.101248 128.91466 -4.2873158 5
28.967583 129.41139 -4.3069086 4.6666665
29.006828 129.77542 -4.3495235 4
29.035789 130.16478 -4.3018179 3.5
29.014278 131.46379 -4.3373137 4
28.840303 131.86877 -4.351408 3
28.99972 132.25385 -4.3426933 3
28.99091 132.58925 -4.3554068 3
29.09627 133.0862 -4.3684325 3
28.983341 133.85909 -4.3995123 3
28.864065 134.13251 -4.2683463 3
28.854309 134.56535 -4.1847205 4
28.882704 134.95091 -4.2155714 5.5999999
28.972101 135.38216 -4.2972856 4
28.939659 137.27528 -4.3608031 2
28.973223 137.81816 -4.2265549 3
28.908922 138.13722 -4.3337255 3
29.148916 138.55074 -4.2506762 2
29.009958 138.91953 -4.1028943 2.75
28.998589 139.2854 -4.1518435 3
28.865368 139.78339 -4.2857327 2
28.95179 140.12169 -4.3726459 1.5
29.150764 140.73441 -4.0567789 3
29.156588 141.14478 -4.1485052 2.3333333
29.089478 141.27187 -4.1478362 2.5
29.057816 144.21178 -4.1604347 3.25
29.152328 145.12733 -4.1799026 4.6666665
29.069017 145.49689 -4.0971756 3.8200002
28.920269 145.80194 -4.099144 3.9599998
28.995499 149.83319 -4.251616 5
28.965437 134.88664 -3.7462413 7
29.194359 135.47084 -3.6895499 6.3333335
28.880989 137.89769 -3.9257002 7
29.076624 140.14021 -3.784673 4
29.012909 140.63943 -3.8216593 4.6666665
28.968121 141.09808 -3.8882103 3.5
29.125986 142.11882 -3.6153495 5
29.057539 143.11655 -3.6726599 6
29.068298 143.34283 -3.7387707 5.0999999
29.186996 144.09038 -3.9521086 4
29.07345 145.18005 -3.8772252 5
29.050428 145.47066 -3.7705927 4.8333335
28.956146 145.73372 -3.8247576 5.0714288
28.961142 146.16974 -3.9206595 5.3333335
29.095375 146.57916 -3.6738517 5.5
28.904678 146.85954 -3.9967875 5
29.040537 147.3188 -3.7495475 5.5
28.952322 148.21707 -3.6772242 6
28.807745 148.4355 -3.6246979 5
29.079632 149.81384 -3.7462504 5
28.857088 133.80888 -3.2166717 7
29.13471 134.22752 -3.3732226 6.5985832
28.87645 134.75729 -3.4301128 6
28.831028 134.87978 -3.248203 8.092
29.179501 135.4328 -3.5606949 5
29.167826 135.75015 -3.3990211 6
29.022713 136.12558 -3.5766487 5.5
28.984007 139.87277 -3.4008789 5.5
29.06172 140.26244 -3.382092 5.6666665
28.80032 140.87325 -3.317723 6
29.071804 143.08835 -3.4034753 6.1999998
29.053896 143.30246 -3.3263285 6.8333335
29.19084 143.86391 -3.3758883 6.1666665
29.141817 144.14297 -3.4294469 6.25
29.033302 145.43988 -3.3516867 6.6060605
28.933054 145.7693 -3.3751776 6.75
29.052898 146.09459 -3.3479972 7
28.973667 147.37019 -3.4027665 6.5
28.942759 120.18561 -2.9598832 6.5914168
28.923615 120.54156 -3.0066254 6.8000002
28.983105 134.21754 -3.0812223 7.3646665
28.927446 134.69073 -3.0015738 8.0654993
28.998789 135.07224 -2.9315166 8.0935001
28.860672 135.60663 -2.9943051 7
28.954981 136.90582 -3.0646145 8.0944996
29.158901 137.29738 -2.9124589 8.1000004
29.015247 139.22354 -2.878016 8.1204996
28.995792 140.76732 -3.1995406 7
29.182232 142.00433 -2.9387224 8.1280003
28.867529 143.32016 -2.9890544 8
29.118469 144.38782 -2.8104937 8.7826662
29.021126 144.60005 -2.9256291 8.2576399
29.126757 144.97388 -2.9630437 8.3313332
29.107107 145.4295 -2.981941 8.1932507
29.022755 145.76973 -2.9590626 8.2875185
28.893064 146.16605 -3.0481989 8
29.143927 146.989 -3.037415 8.1058321
28.989538 147.39157 -3.0085044 8.2535419
29.187143 147.62434 -3.002023 8.1385002
29.127958 148.2731 -2.9271255 9.0900002
29.067987 148.49434 -3.0085793 8.1429167
29.002348 149.05521 -2.9747524 8.1014996
29.187647 149.92229 -2.9853387 8.165
28.908304 120.24703 -2.5424638 7.4561181
28.87295 120.50912 -2.5979838 7.4777856
29.195515 133.5576 -2.5650699 8.0944996
29.075882 133.84741 -2.4745762 8.0917501
28.862951 134.73894 -2.7034552 8.1239996
29.021757 135.11331 -2.6220558 8.1151752
29.093584 135.30247 -2.5113409 8.7976675
28.901619 135.77226 -2.621134 8.4543333
29.180182 137.25592 -2.4716995 9.1160002
29.099174 137.80733 -2.5208652 9.1400003
29.107426 138.80022 -2.5898876 9.1219997
29.152199 141.43042 -2.4114943 10.125
28.950626 142.9962 -2.665041 9.1154995
28.819269 143.24501 -2.6660676 9
29.1026 144.37172 -2.7047389 9.1127501
29.054365 144.67049 -2.5921187 9.6461248
29.063892 144.97853 -2.6748712 9.2280359
29.06352 145.3609 -2.7102919 9.0605001
29.107405 145.71288 -2.6717076 9.1402044
29.053638 146.17612 -2.5152795 9.9963751
29.03705 147.02831 -2.6539276 9.6066246
28.894547 147.35475 -2.7434278 9.0783119
28.982943 147.80667 -2.5545323 10.776422
28.990545 148.22844 -2.6236811 10.078221
29.101368 148.60641 -2.5624382 11.497987
28.985231 149.13676 -2.7303529 11.1255
28.913509 120.21202 -2.1915932 8.1303177
28.848223 120.42076 -2.1666522 8.093667
28.805595 121.35474 -2.1106727 8.0472498
29.133463 133.59 -2.3390808 8.0935001
29.048845 133.81754 -2.378108 8.2453003
29.100161 134.30649 -2.0853999 10.138
28.932779 134.51942 -2.0377519 10.1355
29.04221 135.07416 -2.0771439 8.6037502
28.981806 135.42706 -2.2226372 9.6237507
28.970259 139.44939 -2.1465859 10.797668
28.879194 139.83499 -2.1732414 10.618626
28.974958 140.12256 -2.1472161 10.112437
29.002089 140.78658 -2.139143 10.1095
29.123262 142.01863 -2.3059669 8.1545
29.085588 143.53998 -2.1210113 11.112499
29.170639 144.03961 -2.0477414 12.61825
28.901499 144.56612 -2.2249451 11.113791
28.988565 144.96771 -2.1594696 11.193563
29.035376 145.5127 -2.1910512 11.610875
29.048981 145.83095 -2.1407778 11.253916
29.13953 146.10487 -2.0846663 12.126249
29.034576 146.96941 -2.2594044 10.771251
29.031321 147.47475 -2.1593878 11.922905
28.989084 147.84322 -2.1971495 14.580833
28.985613 148.2514 -2.2459712 13.014383
28.959538 148.58206 -2.287101 14.756719
28.946802 149.8371 -2.0659103 11.414249
28.835451 120.12425 -1.8304019 9.0495005
28.845104 120.49153 -1.8001151 8.7958336
28.868162 121.03313 -1.8750556 8.7138004
28.818174 121.28347 -1.8542085 9.1167994
29.107471 133.13779 -1.6939163 10.120251
29.079453 133.45013 -1.7475379 9.380929
29.000431 133.71985 -1.6637611 9.6047497
29.072407 134.01848 -1.6177511 9.0939999
29.047623 134.50204 -1.7329265 9.9208498
28.808409 135.04387 -1.6475273 11.1435
28.907791 136.34122 -1.8319041 11.145
28.866554 138.01022 -1.7059587 12.125
29.117527 138.84151 -1.846868 11.806834
28.945471 139.71828 -1.784029 12.128
29.090475 140.71823 -1.7893249 13.134
29.078562 140.91022 -1.8058532 12.726649
29.119833 141.54718 -1.6017959 14.126
29.065342 141.94278 -1.601371 13.119
28.976879 142.28601 -1.894403 12.119625
28.839649 142.50336 -1.9435939 12.11825
29.058887 143.1347 -1.9953111 10.607
29.139353 144.66064 -1.9200284 13.1155
29.103188 145.08099 -1.7833577 12.735188
29.015869 145.4592 -1.7813188 13.111
28.969761 145.91296 -1.986444 12.1085
28.915518 146.19174 -1.8044791 12.441043
29.082958 146.43723 -1.8469472 11.552625
29.013632 147.08678 -1.7811415 12.605749
28.805834 147.27676 -1.9826868 12.1065
29.052158 147.73682 -1.9002146 12.1045
28.886473 148.38792 -1.8239247 11.401084
28.860212 148.62251 -1.6378607 12.101
28.964886 149.01709 -1.6117361 12.630751
28.808926 120.33734 -1.3560675 10
28.888231 120.53451 -1.3410311 9.7828569
28.990198 120.96155 -1.4008667 9.5592499
28.81176 121.3109 -1.5742552 9.1540003
28.878677 121.79501 -1.3113959 9.0935001
28.843504 122.04478 -1.526318 9.6149998
28.966574 133.14633 -1.2562752 11.11475
29.121323 133.4608 -1.4194518 9.0601254
28.948444 133.82091 -1.508989 9.0530834
29.040207 134.15631 -1.3655007 9.8485622
28.922743 134.64957 -1.4558113 11.64875
29.053213 134.95558 -1.3605908 12.125
29.089254 135.38626 -1.3309215 9.1295004
29.113832 137.06567 -1.581535 12.142
28.830391 137.44814 -1.3198028 13.1365
28.88279 139.2612 -1.5236654 13.134
29.144203 140.65823 -1.4434868 14.1285
28.966227 141.00186 -1.2382997 15.1315
29.014538 141.44359 -1.4165727 14.4105
29.031075 141.85495 -1.2513368 14.11625
28.920101 142.00597 -1.3701775 13.112
28.97221 142.77878 -1.2357323 11.103
28.928362 143.7756 -1.5723879 14.119
28.828028 145.00119 -1.5961844 13.780666
29.103664 145.41862 -1.4291695 14.666972
29.114252 145.75548 -1.4332148 14.1925
29.059549 146.19838 -1.4596502 13.095874
29.171665 146.41 -1.4651914 12
29.145823 147.55417 -1.2305975 14.1635
28.854084 148.41115 -1.5181785 13.103251
29.107151 148.94966 -1.4812716 14.664
28.935715 149.34737 -1.417415 13.454333
29.01243 120.27059 -0.81689095 11.05975
28.927418 120.63506 -1.0116262 10.317375
29.050508 120.94348 -1.1163607 10.1315
28.854536 121.45786 -0.99206722 10.13825
28.858175 123.35849 -0.87080872 10.1015
29.081316 133.51302 -1.0384071 11.806167
29.051405 133.82031 -1.0604005 9.7364998
28.835518 134.17055 -1.1174917 9.0955
29.006372 144.41237 -0.9095878 15.1105
28.84041 145.58492 -0.87426394 12.1015
28.970984 145.69176 -1.0254171 13.1035
29.014536 147.00276 -0.8392309 13.435166
29.075424 147.46599 -1.0795196 13.769666
28.940254 149.50317 -1.0189887 14.3505
28.971237 149.75818 -1.1086997 13.766334
29.03252 120.2557 -0.61347282 11.38605
28.961231 120.52222 -0.55887431 11.0254
28.817575 120.99404 -0.62265724 11.0595
28.901505 121.39587 -0.58046716 11.514856
28.992949 121.95745 -0.50766939 10.1
29.14259 122.22844 -0.48594236 11.104333
29.086699 122.56091 -0.5751552 11.025364
28.834145 123.50594 -0.7066232 11.10475
28.846907 132.12794 -0.77457064 9.1204996
28.845659 132.71802 -0.55774981 10.2946
29.014719 133.04184 -0.56514281 10.6145
29.027029 133.39021 -0.4383575 10.098
29.046221 133.70369 -0.53540611 11.71
29.071438 134.28345 -0.62296093 9.5955
29.169636 134.41602 -0.72046661 12.11125
29.030947 135.11479 -0.42177883 15.1225
29.019026 135.28252 -0.41632622 15.122
28.847353 135.70047 -0.46827903 15.1235
29.191935 137.20276 -0.67891377 15.1455
29.003225 143.74854 -0.5656485 12.602751
28.890682 144.30443 -0.47533759 13.103
28.815292 146.77544 -0.76956886 15.105
29.184954 147.02034 -0.6986931 13.60175
29.074352 149.31892 -0.78341782 15.10075
28.807861 149.99707 -0.62405914 15.1
29.080708 120.12809 -0.15381695 11.87185
28.865816 122.16592 -0.16394317 10.598
28.921347 122.60997 -0.1890734 11.750363
28.881611 123.38114 -0.10599597 9.09375
29.147635 123.65292 -0.06871248 12.115
28.988581 133.02953 -0.38885066 12.114
29.076971 133.5025 -0.22476099 10.094
28.979101 133.65323 -0.27335119 10.875626
28.800892 134.3765 -0.1391097 10.0945
29.079082 134.94002 -0.32221016 13.62875
28.808634 145.65201 -0.31375882 13.1015
28.92671 146.38791 -0.39574724 12.0995
28.911676 149.09454 -0.23265846 15.1
28.9744 149.24364 -0.048881043 14.0985
28.809628 149.99554 -0.041129071 12.097
28.917908 120.14126 0.10220432 12.31
29.010393 121.6766 0.1428073 12.1545
28.805155 122.28947 0.2404317 12.118
28.804369 122.41563 0.22596243 12.126
28.844788 122.89992 0.15586433 13.147
28.954424 123.39266 0.087444715 12.224639
28.945148 123.82183 0.27058265 12.117
29.136988 132.28 0.32398435 11.105667
28.863058 132.88672 0.087830894 9.0439997
29.103354 133.54196 0.15143079 15.1535
29.025488 142.71466 0.29249868 15.105
28.9862 145.78033 0.031381633 14.1015
28.939034 146.99921 0.33777615 13.099
29.185261 148.56529 0.17380719 15.099
28.927952 149.85263 0.0147192 13.0975
29.11451 120.04932 0.53635019 13.127251
29.114763 131.90326 0.64355093 11.129
29.192039 132.62587 0.4723838 11.1255
28.930574 132.86758 0.46701249 10.096
28.958431 134.14871 0.64287508 12.556749
29.02865 143.75015 0.43087873 15.104
28.976904 148.50987 0.6556344 14.0985
29.18236 148.33829 0.98995 15.0985
29.175039 121.88498 1.460331 10.094
29.124811 123.77797 1.5107861 13.064876
28.85804 133.74629 1.4293817 12
29.013788 148.36249 1.2487346 14.598249
29.101393 148.49387 1.3496348 14.098
28.801306 148.81496 1.320756 15.099
29.185991 124.15156 1.7460117 15.1125
29.141024 132.07249 1.6706048 11.096
29.090473 122.99404 2.1061838 14.13
29.021013 123.45464 2.2278836 12.774667
28.989241 123.65607 2.363097 13.872099
28.939131 123.40891 2.6184316 13.61475
28.886814 123.78197 2.5980356 13.956833
29.072779 124.05436 2.5379405 11.597
29.145348 144.22786 2.4697247 15.1035
29.09864 123.44066 3.0115492 13.598
29.087799 123.74077 3.1051705 14.6657
29.024399 123.37686 3.2938578 13.43525
29.111246 123.70132 3.3994956 14.450833
29.117723 124.35543 3.3389363 14.61425
29.024343 124.4309 3.4011369 15.129
29.135891 144.59209 3.3332541 12.1285
28.954454 123.27327 3.7502561 14.0985
29.082108 146.34254 5.3941398 13.1315
29.167088 146.40414 5.3332691 13.13
29.317259 144.58994 -4.8051987 5
29.432465 146.22174 -4.8488741 2
29.402742 146.63605 -4.8423634 3
29.380819 147.0602 -4.8492374 2.4000001
29.423126 147.28432 -4.8835402 1.3333334
29.385336 147.69215 -4.9092774 3
29.547554 148.99034 -4.9067173 2
29.403154 149.31386 -4.968338 2
29.349665 149.77034 -4.8977957 3.25
29.473104 122.89588 -4.4492383 6
29.41506 128.62267 -4.5554156 7
29.249369 128.80865 -4.7552705 7
29.248852 131.55223 -4.4217305 4
29.436708 131.68106 -4.4111681 3
29.554346 132.29424 -4.420001 2
29.363274 132.64914 -4.4262018 2.5
29.483215 132.96303 -4.4254918 2.4000001
29.321865 133.40372 -4.4548163 2.5714285
29.303398 133.87433 -4.4567909 2.4000001
29.45508 134.2457 -4.5183764 2.6666667
29.358812 134.64151 -4.4703598 2.5999999
29.36311 135.07303 -4.4775128 2.5
29.560766 135.40211 -4.4505601 2
29.408882 135.66959 -4.5500832 2
29.461742 136.31935 -4.487608 2
29.597046 137.00047 -4.5231614 1
29.523378 137.40186 -4.4634733 1.3333334
29.295767 137.76826 -4.5391736 1
29.314783 138.24397 -4.5652709 2.5
29.506191 138.60789 -4.5751615 4.6666665
29.306639 138.97226 -4.5634122 2.6666667
29.271612 139.22453 -4.5653758 2
29.479609 139.78249 -4.5332675 1.6666666
29.597723 140.08521 -4.5892763 2
29.317907 140.55867 -4.6619096 0.85714287
29.352398 141.00076 -4.6463079 0
29.333054 141.32584 -4.5698042 1.4166666
29.365574 141.76956 -4.6183834 1
29.430023 142.19156 -4.6969423 1
29.287699 142.56706 -4.6784105 0.66666669
29.234524 142.93123 -4.6802363 3
29.401968 143.35269 -4.7000074 3.5
29.524368 143.78177 -4.5861444 2.8
29.435446 144.23106 -4.5331101 3.6666667
29.489525 144.65215 -4.5440273 5.5
29.4135 144.86838 -4.5910625 4.5999999
29.478821 145.49486 -4.6735511 3.5
29.40773 145.78503 -4.6395736 4.8333335
29.324162 146.23236 -4.6246996 4.5
29.386644 149.4942 -4.4334993 6
29.454767 149.77798 -4.6894441 4.5
29.327927 120.37266 -4.1265483 3.5
29.402266 120.61015 -4.1524405 5
29.368515 120.9251 -4.1609087 6.625
29.582783 121.36563 -4.0818677 3
29.371033 121.77955 -4.1886559 4
29.317785 122.17022 -4.2289925 5
29.334171 122.72576 -4.2471552 3
29.354536 123.06961 -4.3041954 4.4285712
29.533907 123.4511 -4.2456861 4
29.499434 123.9188 -4.2660794 3
29.473557 124.22052 -4.2316561 3
29.474852 124.73138 -4.2559347 3
29.350822 125.03255 -4.2648773 5
29.46788 125.75473 -4.3053598 5
29.35026 126.32549 -4.3417835 6
29.361414 126.69778 -4.298789 5
29.485289 127.10983 -4.2891698 4.6666665
29.342396 127.33552 -4.2751956 3.8
29.27726 128.23164 -4.3012085 6
29.437328 128.57745 -4.277071 4
29.450109 128.99927 -4.3061132 5
29.427128 129.49007 -4.3153639 3.3333333
29.399569 129.81784 -4.3213167 3.6666667
29.43685 131.88033 -4.3397593 3.5
29.419119 132.14505 -4.3439407 3.5
29.21703 132.91747 -4.3564343 3
29.470724 133.44397 -4.3930092 2.5
29.54394 135.45395 -4.2250748 3.4333336
29.487661 135.75702 -4.2115269 2.875
29.428602 136.61215 -4.3787632 3.5
29.359358 137.11678 -4.352479 2
29.600155 137.46852 -4.2360792 2
29.31986 138.77411 -4.2275982 2
29.321224 138.92163 -4.2173862 2
29.59137 139.33127 -4.1867518 2
29.356241 139.76273 -4.2156544 2
29.317493 140.59686 -4.3293242 1.9166666
29.31588 141.31104 -4.2603049 2.2142856
29.296598 141.91806 -4.0241709 3
29.517563 143.87584 -4.1226516 3.1785715
29.468138 144.26367 -4.027565 3
29.324327 144.73999 -4.2616386 2.9000001
29.27544 144.91609 -4.1846337 3.2625
29.439711 145.37305 -4.162446 4
29.208733 146.05951 -4.1744194 3.25
29.53837 120.6532 -3.7100005 7
29.429077 120.89381 -3.822144 6
29.391428 121.34989 -3.9074507 5
29.407824 135.44162 -3.8126864 5.0625
29.456249 135.77028 -3.8109391 4.6923075
29.379404 136.65932 -3.8493171 7
29.224508 138.50652 -3.7733057 4
29.362967 139.08913 -3.806154 3.75
29.382486 139.28989 -3.7626555 4.2666669
29.512781 139.80624 -3.8819599 3.25
29.404749 140.09763 -3.7250524 4
29.574852 141.035 -3.6674914 5
29.550917 141.52271 -3.8226354 3.5777779
29.323088 141.89767 -3.7558167 4.1428571
29.252184 142.03986 -3.7751293 4
29.309549 143.13937 -3.7788377 4.1666665
29.361567 143.34198 -3.7331793 4.4499998
29.423759 143.8248 -3.7814734 4.3333335
29.306948 144.08923 -3.7824812 4.666667
29.4184 144.74805 -3.816267 4.5
29.392542 144.94858 -3.7526443 5.1271935
29.341024 145.29585 -3.8185565 6
29.500477 145.92299 -3.8558066 6
29.367397 146.10291 -3.760967 5.8000002
29.372431 146.49258 -3.6890061 6
29.379072 148.25691 -3.7071171 1.775
29.380022 149.89867 -3.6884956 4.25
29.397045 120.71645 -3.4343271 7.0316672
29.414644 120.922 -3.4440293 7
29.535263 121.57191 -3.4735267 5
29.313772 134.1752 -3.3965054 7.0235
29.357304 134.58148 -3.2683949 8.0915003
29.423729 135.51842 -3.4708719 6.4186997
29.352777 135.77554 -3.3752465 6.7967501
29.496927 136.5889 -3.4094329 8.0926676
29.458345 137.01805 -3.220751 6
29.544106 137.43022 -3.3253329 6
29.319998 139.41547 -3.4288931 6
29.430193 139.90793 -3.5862005 4.5
29.293695 140.1179 -3.2983539 6
29.487572 140.68701 -3.2629032 6
29.452641 141.47446 -3.4912479 5.1875
29.282282 141.95386 -3.4644084 5.5
29.315142 143.08417 -3.4882016 5.5
29.326448 143.30469 -3.4041786 5.8712115
29.297455 143.63525 -3.4538629 6
29.387726 144.17645 -3.3539653 6.1999998
29.342445 144.71503 -3.2657065 6.7750001
29.414455 144.96339 -3.3873677 6.583333
29.482319 145.26465 -3.441339 7
29.421331 145.82436 -3.5182054 7
29.386389 146.2346 -3.420305 6.8888888
29.516918 146.44702 -3.4497635 7
29.464241 147.44753 -3.3868747 7
29.543945 147.68636 -3.5043142 6.875
29.342722 148.26053 -3.378603 4.8747797
29.23502 148.43562 -3.4950187 4
29.364836 120.71288 -3.0898015 7
29.477455 120.98982 -3.0461137 6.773375
29.58354 121.44469 -2.9928241 6
29.532377 134.52272 -3.1470594 7
29.345621 135.38373 -3.1881299 8.0939999
29.475983 136.1293 -2.9260089 7
29.508566 136.73705 -2.8083818 8.0939999
29.380268 137.29106 -3.0187368 7
29.320648 139.38533 -3.1570692 7
29.545227 139.93588 -2.8685434 8.1164999
29.437136 140.23421 -2.9500406 7.8395624
29.338003 140.53841 -2.9223864 7.8400002
29.448233 141.0549 -2.8601992 8.3828754
29.25449 142.08307 -2.8891492 8.1242504
29.261282 143.33359 -3.1624961 7
29.2481 144.68248 -2.9313083 8.1999998
29.336216 144.99655 -2.9902475 8.1089315
29.299145 145.32852 -2.985105 8.1836195
29.340775 145.86128 -2.9740138 8.2577343
29.436384 146.19249 -2.9982235 8.2179823
29.46476 146.54262 -2.8254712 9.1263752
29.525732 147.18071 -3.0307264 8.1032505
29.369854 147.39949 -3.0693283 8.0761251
29.383492 147.73134 -3.0150578 8.2245626
29.240181 148.27055 -2.9989593 8.4118109
29.524895 149.2603 -3.1329949 8.0974998
29.567871 133.17545 -2.656913 8.1230001
29.425627 133.3522 -2.6336212 8.0890312
29.352358 133.7476 -2.5546088 8.0776997
29.328211 134.76074 -2.6623087 8.1240005
29.387278 135.07027 -2.6806102 8.1552954
29.273062 136.18521 -2.7042546 8.1105003
29.252405 136.55641 -2.6813831 8.1099997
29.434092 137.41331 -2.496603 9.1464996
29.364054 137.7942 -2.4934289 9.1398001
29.429445 138.21115 -2.7419863 8.1428328
29.427486 139.10808 -2.6111126 9.1264992
29.313374 140.26144 -2.7226295 8.8840008
29.599573 140.6521 -2.5244415 9.1075001
29.439299 141.44421 -2.7247932 9.1309996
29.531033 141.78853 -2.6445796 9.6270008
29.477554 142.23746 -2.5268137 9.9418201
29.467274 143.82343 -2.7431855 9.1134281
29.39579 144.16574 -2.6962707 9.4707136
29.362309 144.61873 -2.5657296 9.8075523
29.408625 144.9725 -2.5571465 9.9542475
29.421316 145.30515 -2.6058333 9.604537
29.350946 145.87074 -2.6661189 9.079875
29.408684 146.22675 -2.6140769 9.4405766
29.464415 146.49083 -2.601578 9.379694
29.34663 146.96016 -2.5902846 9.7045994
29.443096 147.41203 -2.6154525 9.4610777
29.309284 147.75835 -2.5288177 9.7020998
29.264639 148.202 -2.4951649 12.184396
29.221886 148.51541 -2.508141 12.977534
29.477909 133.11642 -2.1647646 9.1408339
29.431417 133.35855 -2.2254999 8.9485826
29.37002 133.7872 -2.2380052 8.802249
29.315044 134.17688 -2.1985416 9.1151257
29.245478 135.05548 -2.3858845 9.1339998
29.521633 136.74951 -2.1681774 10.11825
29.521507 137.25848 -2.0082879 11.14
29.50551 137.89795 -2.0609834 11.12525
29.580236 138.08496 -2.0759895 11.1245
29.554474 138.59006 -2.2848237 10.133
29.521267 139.10278 -2.2894924 10.1195
29.425562 139.26021 -2.1237812 11.13325
29.576681 139.94124 -2.1898301 10.1105
29.480093 140.15373 -2.1959624 11.128501
29.425488 141.42142 -2.1503675 11.624667
29.428865 141.86153 -2.0707579 11.1115
29.49169 142.53325 -2.060178 11.1095
29.381826 143.88478 -2.2165473 11.114061
29.502846 144.07643 -2.1950254 11.782666
29.447298 144.68039 -2.1616652 11.287359
29.432404 145.01599 -2.1987669 11.424178
29.451653 145.36348 -2.2145452 11.13075
29.437422 145.91843 -2.2506125 10.579156
29.404236 146.25179 -2.1997213 10.905058
29.488224 146.50781 -2.1605268 10.754308
29.576294 147.05289 -2.3647914 9.0979996
29.43401 147.39415 -2.2233334 10.492771
29.232841 148.32169 -2.3031325 12.115499
29.25231 148.53546 -2.3980997 14
29.53709 149.55246 -2.1249523 11.0985
29.381672 133.414 -1.7898991 9.1448374
29.400856 133.96648 -1.7516264 8.1370001
29.452173 134.42207 -1.7918508 10.1105
29.475393 134.93143 -1.6795243 11.149938
29.369598 135.82118 -1.6818172 11.802417
29.561502 136.26813 -1.8057251 9.4093571
29.584015 137.06897 -1.9659797 11.127
29.52738 137.34688 -1.6994023 12.126
29.416399 138.70502 -1.8318713 12.1325
29.367691 138.99855 -1.7951617 12.130751
29.296988 139.44632 -1.7961158 12.38375
29.410528 140.63 -1.8098731 13.133
29.443899 141.03853 -1.7556443 13.409828
29.367115 141.35251 -1.7365335 13.426401
29.384184 141.86812 -1.8097192 13.12275
29.526628 142.15402 -1.735985 11.943501
29.507263 142.54108 -1.7913128 11.10725
29.378721 143.02841 -1.8916609 12.1145
29.222036 144.25868 -1.8531681 13.1165
29.455698 144.59442 -1.9223007 11.9565
29.377571 144.98541 -1.8308064 13.016876
29.440834 145.40944 -1.8453056 12.358433
29.425484 145.9328 -1.8034395 11.954751
29.414801 146.21674 -1.7909102 11.818333
29.415625 146.4216 -1.8172559 12.32125
29.400902 147.06572 -1.9494195 11.770749
29.439306 147.33595 -1.8467379 11.434667
29.268368 149.06282 -1.836465 10.09775
29.527227 149.59979 -1.7999026 12.099
29.396276 149.83978 -1.8201057 12.23182
29.470451 120.11572 -1.354234 9.9158993
29.42668 120.48551 -1.3654751 10.121863
29.280268 133.12971 -1.4300538 10.105249
29.388243 133.35982 -1.5373764 9.7418747
29.315907 133.81416 -1.4975761 9.5810003
29.285009 134.17838 -1.2428492 10.57325
29.360655 134.53874 -1.4876142 12.136
29.501976 135.08714 -1.4378122 11.787167
29.565809 135.2355 -1.5710607 9.1094999
29.281956 135.62088 -1.4023756 9.1280003
29.455185 139.10216 -1.5955561 13.14
29.411928 139.27669 -1.2128561 15.132
29.322041 141.34517 -1.4628153 14.460416
29.286324 142.4561 -1.5940746 11.106
29.592457 143.1864 -1.5911803 14.117
29.25729 143.32321 -1.4742151 15.11975
29.562567 143.68616 -1.4064755 14.61275
29.219185 145.60826 -1.3632512 14.1085
29.399809 146.26176 -1.4676588 12.887285
29.352514 146.51073 -1.2422018 15.1075
29.392305 147.29109 -1.4730148 13.1025
29.212738 149.02267 -1.5021325 13.101
29.349543 120.25866 -1.0528512 10.468362
29.350777 120.50632 -1.121927 10.375063
29.286201 133.10536 -1.0771704 10.099
29.558695 133.5383 -1.1721867 12.1525
29.234871 133.69157 -1.178526 9
29.299793 134.2527 -0.99043232 11.76575
29.508053 134.53546 -0.96326792 11.6105
29.502224 134.98593 -1.0523088 12.469584
29.547567 135.55666 -0.8348639 13.114
29.474466 135.94673 -0.8614257 15.133
29.424353 137.13849 -1.080928 14.1425
29.371443 137.71709 -1.1640339 14.1405
29.380571 139.02736 -1.0083126 13.113
29.329781 139.66449 -1.1613721 15.133
29.410078 142.06816 -0.99686819 14.1105
29.447702 143.8056 -0.98779941 13.30515
29.473482 144.29785 -1.0167673 12.853438
