# .PCD v0.7 - Point Cloud Data file format
VERSION 0.7
FIELDS x y z intensity
SIZE 4 4 4 4
TYPE F F F F
COUNT 1 1 1 1
WIDTH 1260
HEIGHT 1
VIEWPOINT 0 0 0 1 0 0 0
POINTS 1260
DATA ascii
22.15093 -16.668423 3.3724284 10.58325
22.294765 -16.283545 3.5779283 11.053625
22.370708 -15.874694 3.5616741 11.0485
22.359051 -15.473921 3.5694954 11.0482
22.330145 -15.002437 3.5584435 11.0476
22.321903 -14.584723 3.5119531 10.79475
22.290459 -14.277698 3.534766 11.047626
22.277475 -13.851087 3.5416658 10.87825
22.241297 -13.394608 3.5342271 11.044833
22.225254 -13.022493 3.5319562 11.044125
22.213564 -12.617147 3.5286736 11.043625
22.184542 -12.222517 3.544595 11.042333
22.083656 -11.80154 3.4503303 11.0585
22.139349 -11.412763 3.5095668 11.043
22.071739 -10.998546 3.4542687 11.057249
22.113476 -10.649801 3.5395997 11.0405
22.150928 -9.0247955 3.5038366 11.517
22.380579 -8.4129238 3.523813 9
22.245972 -8.3212786 3.4354815 10.03475
22.254919 -6.6225734 3.4052243 13.259376
22.234104 -6.3161407 3.419014 13.643499
22.203985 -4.9309769 3.2759559 15.0385
22.264536 -4.345758 3.3170538 14.028
22.100967 -2.8257947 3.3273842 12.0855
22.364954 -2.464812 3.4249976 12.021
22.17749 -2.1417651 3.5165591 11.013
22.170864 -1.7458951 3.4478426 10.50925
22.22621 -1.2865273 3.4467607 12.364666
22.119698 -1.0499512 3.4830046 10.230769
22.141205 -0.66426152 3.2919784 14.01775
22.066629 -0.26628479 3.2602732 15.022
22.36655 -29.728598 3.7990797 9.0375004
22.012897 -26.335978 3.6878784 10.030001
22.231308 -25.843378 3.8616328 9
22.212395 -25.545462 3.8414207 9
22.22542 -25.057432 3.8094463 9
22.16186 -24.651245 3.7364261 9.3556671
22.129148 -24.170307 3.7492905 9
22.247242 -23.787052 3.6881576 9.5419998
22.122097 -23.383207 3.6982212 9
22.208164 -23.033194 3.6442752 9.5445004
22.064323 -22.561861 3.6444678 9
22.038795 -22.12612 3.6456792 9
22.016111 -21.902613 3.6604345 9
22.041161 -21.167486 3.6149299 9
22.0221 -17.255222 3.6324737 11.066
22.200214 -16.575087 3.7950854 11.5515
22.259192 -16.287045 3.7380126 11.3815
22.01071 -15.721999 3.8883371 12.0395
22.122721 -10.128187 3.6900477 11.0345
22.182062 -9.2258863 3.7320814 11.05125
22.232351 -8.9799995 3.7435818 11
22.024405 -8.5291452 3.7397285 11
22.118103 -8.3149748 3.7042017 11.041
22.261293 -7.2297564 3.7537057 12.514
22.208477 -2.0954089 3.8025048 13.5155
22.256468 -1.4384098 3.7472022 13.01595
22.330727 -0.58158177 3.862133 14.018
22.27874 -19.88459 4.3202367 10.168
22.193214 -17.774509 4.3769388 9
22.158659 -5.7419715 4.1132107 10.0408
22.169468 -2.1711245 4.0482087 13.02275
22.032415 -1.7932527 4.1201186 12.513
22.310926 -1.387845 4.18188 12.405951
22.13656 -1.0386419 4.2133703 11.003208
22.365438 -0.49416229 4.0640945 15.01475
22.141012 -20.556305 4.6145601 10.042
22.368809 -19.786049 4.5409036 10
22.250257 -17.776573 4.4521422 9
22.304077 -8.3143425 4.4585509 10
22.215155 -11.651291 4.8584476 10
22.199129 -4.9736438 4.8982172 11.03875
22.371101 -18.669125 5.3424616 12.075
22.127235 -7.3097835 5.3062429 11.04
22.612707 -18.308481 -1.2686523 5.75
22.586889 -17.360289 -1.4676141 5
22.781452 -16.093349 -1.3547591 5
22.422482 -14.209243 -1.488446 4
22.558353 -13.020544 -1.3318608 4
22.669331 -9.7099724 -1.3772461 4
22.448118 -9.3695831 -1.3218778 4
22.731897 -9.0371838 -1.3620025 4
22.471399 -8.523139 -1.2837164 4
22.607271 -8.179739 -1.326565 4.4000001
22.585043 -7.744101 -1.3363652 4
22.634098 -7.3329449 -1.3382491 4
22.568991 -6.661293 -1.3440914 3.5
22.728201 -6.1845293 -1.2981598 3
22.497372 -5.7534184 -1.3685309 3.6666667
22.564186 -5.3743463 -1.3691744 3.1428571
22.609829 -4.9195437 -1.2874925 3
22.586285 -4.5754943 -1.3165303 3
22.699165 -4.2020559 -1.2802877 3.25
22.577419 -3.927901 -1.4358163 3.6666667
22.637438 -3.408226 -1.4455451 4.5
22.74814 -3.0989559 -1.4664849 4
22.66069 -1.7579367 -1.2489735 3
22.476818 -0.79441023 -1.3112863 5
22.514498 -0.33993956 -1.3144326 5
22.704077 -18.403873 -1.1660284 6
22.586275 -18.34672 -0.97303498 5.625
22.54726 -17.856009 -0.87047136 5.8000002
22.406586 -12.916016 -1.1114428 5
22.593582 -18.18824 -0.57503086 6
22.611303 -17.867874 -0.66002101 5.7777777
22.540611 -18.407143 -0.098076083 7
22.610645 -18.345842 -0.10086943 6.6190476
22.602604 -0.43526855 -0.048115276 6
22.623388 -18.350643 0.12747046 7.2087998
22.594091 -17.856619 0.23050682 6.7142859
22.563234 -0.90642357 0.16808672 6
22.603239 -0.79183012 0.23033652 6
22.587141 -0.03523948 0.24190603 6
22.578121 -18.458698 0.47776398 8
22.621038 -18.336784 0.71085769 7.8453946
22.5868 -17.892118 0.58370388 7
22.416941 -9.2195358 0.54230922 8
22.422686 -8.2125282 0.53342813 8.0815001
22.60343 -18.448589 0.96183795 7.7398572
22.612778 -18.300846 0.98947078 7.8333335
22.609398 -17.837685 1.0816303 7.7882829
22.44042 -26.69425 1.4586725 8.0649996
22.454847 -20.915976 1.2814264 8.0600004
22.568676 -18.456976 1.5130328 8.6152172
22.743824 -18.359222 1.3677782 8.0019999
22.621264 -17.852171 1.4011084 8
22.405979 -8.1820393 1.4162661 9.0815001
22.62476 -18.496019 1.8284826 8.6522055
22.557533 -18.128548 1.9630026 9
22.639067 -17.857626 1.8941278 8.8120995
22.534027 -17.551641 1.9416779 9.0797501
22.405596 -9.0353527 1.6448359 9
22.428148 -20.893988 2.201267 9.0600004
22.62298 -18.47179 2.2028339 9.3676367
22.577377 -18.247454 2.1940651 9.0277004
22.591862 -17.918507 2.1539469 8.3728638
22.622168 -17.543842 2.0403302 9.09025
22.401199 -8.1519356 2.3007946 10.0815
22.424545 -6.0357361 2.2971849 10.013
22.4709 -5.5452433 2.2978108 10.015
22.418238 -2.1577833 2.0358028 8.0354996
22.401499 -1.832092 2.0881219 8.0369997
22.580793 -18.434074 2.522558 9.5062504
22.608316 -18.364803 2.5824931 9.8566666
22.614546 -17.850033 2.6224697 9.3646927
22.511934 -12.453417 2.6441576 9.3673334
22.570993 -11.819387 2.7718177 10.525
22.668974 -10.131438 2.6616633 9.4221659
22.557941 -6.5290461 2.6181505 10.098101
22.481514 -6.1009569 2.6011868 10.06325
22.529217 -5.7955518 2.6558812 11.782158
22.435217 -5.5215034 2.7011793 10.1465
22.518074 -5.0248756 2.6891193 11.305
22.611288 -4.775816 2.698221 13.0685
22.749548 -0.18801235 2.7995026 12.01575
22.625212 -18.418907 3.0802903 10.5
22.686823 -18.265884 3.0272403 10.833333
22.610718 -17.875772 3.0361073 8.727273
22.733984 -17.45886 3.0029025 9
22.56212 -16.890736 2.9788041 9.0109997
22.794611 -16.641142 3.0904684 10.02
22.724421 -14.317859 3.0047278 11.036
22.620504 -13.255212 3.1826162 11.069
22.56868 -12.298805 2.9826367 12.0485
22.438417 -11.19626 3.0106809 10.087
22.574604 -10.16055 2.8355644 10
22.644194 -9.9684448 2.8146665 12.033
22.631622 -9.4407492 2.951241 10.0195
22.517267 -8.4212036 3.0139813 10.087
22.781475 -8.2586012 3.1754174 13.0665
22.566557 -7.6496267 3.0638309 11.777813
22.59133 -7.5402555 3.0232177 12.297563
22.414562 -6.5394521 2.8566058 11.0815
22.568176 -5.7702303 2.9825478 13.059072
22.630087 -5.4726872 2.9370811 11.328178
22.513409 -4.8479967 3.0769868 12.05825
22.570412 -4.7554832 3.0256069 13.892125
22.443745 -4.3551416 3.1879814 13.05125
22.53574 -2.2221546 3.1560626 12.019
22.678034 -1.0673106 3.1051958 12.786375
22.613754 -0.55212915 3.0270875 13.638499
22.652786 -0.23334274 2.9251468 13.561376
22.490919 -26.564775 3.5119698 10.065
22.732325 -17.883984 3.206305 8
22.457273 -17.536602 3.5933492 11.0535
22.535166 -17.089621 3.5794282 11.050751
22.581078 -16.643843 3.5518246 11.024375
22.621315 -16.204882 3.388423 10.548
22.690762 -15.769981 3.4713361 11.0405
22.710186 -15.261824 3.4660676 11
22.696762 -14.88995 3.4534237 11
22.691854 -14.462328 3.4387419 11
22.635639 -14.218302 3.3317337 11.033501
22.659222 -13.68275 3.4168949 11
22.682745 -13.423889 3.4136827 10.8269
22.630079 -12.870138 3.3970957 11
22.611933 -12.562946 3.3913331 11
22.678057 -10.767434 3.4928768 11.0105
22.519423 -9.1163521 3.5342751 13.038437
22.444014 -8.2312298 3.2005703 12.0745
22.637026 -7.5711184 3.2131937 13.068
22.598864 -6.6154013 3.2713208 12.0345
22.574488 -6.1072865 3.4356041 13.06075
22.579481 -5.873982 3.3061984 13.322681
22.632534 -5.508215 3.3295016 12.554251
22.62007 -1.4590796 3.4034631 14.037125
22.672829 -0.93376982 3.2857287 13.5505
22.641327 -0.64766562 3.2768714 14.023469
22.725271 -0.36381409 3.5010393 13.0215
22.664347 -23.000572 3.8736343 11.057
22.622631 -20.997477 3.7787519 11.0575
22.558153 -19.954817 3.8180826 11.0575
22.496809 -19.585264 3.7006683 11.05375
22.50449 -18.74078 3.655879 11.052
22.584597 -17.771244 3.7119751 10.666667
22.441273 -17.4114 3.662905 11.028856
22.42375 -16.948366 3.6392729 11.05025
22.417603 -16.683506 3.6511157 11.0505
22.592863 -9.1021109 3.7764394 12.470139
22.701675 -8.617837 3.7596781 11.351001
22.692446 -6.0304117 3.9366038 14.0205
22.460045 -4.3452668 3.6619785 14.024
22.567467 -2.1710012 3.8256817 14.016624
22.63151 -1.4738227 3.7482679 13.695792
22.690653 -1.0209388 3.8286104 13.8312
22.610014 -0.51489931 3.8585324 14.51825
22.73632 -0.37619197 3.8558555 15.011833
22.64382 -23.964079 4.2934523 11.063
22.577374 -21.79262 4.1126008 11.061
22.469612 -19.178734 4.1553502 9.1700001
22.544065 -17.796057 4.3803644 9
22.769493 -16.622911 4.3420458 12
22.747536 -15.612675 4.2949224 12
22.721924 -15.252792 4.2822771 12
22.701269 -14.586834 4.2575779 12
22.697107 -14.034086 4.2374125 12
22.701248 -13.654141 4.223856 12
22.752207 -12.996967 4.1967449 12
22.77216 -12.642363 4.1843085 12
22.700407 -8.0800724 4.0398741 15.035
22.760504 -6.6530051 4.0881228 14.02
22.593536 -5.7777734 4.0890889 11.0378
22.563473 -2.0985341 4.1977224 12.031
22.591612 -1.7918459 4.1153903 13.81955
22.469355 -1.3760232 4.1978736 12.366166
22.67572 -1.0776613 4.0607991 14.682834
22.687681 -0.34351173 4.0745392 15.0155
22.740566 -17.8353 4.4678411 9
22.725973 -9.4855909 4.6301246 10.028
22.430422 -4.3867626 4.7580714 11.0435
22.601358 -11.610801 4.8524818 10
22.487928 -6.6390648 5.1424308 11.0425
22.795452 -5.6465516 4.9763818 11.044
22.42082 -4.8563595 4.8084149 11.041
22.760483 -18.802013 5.3667316 12.0725
22.781353 -8.5147629 5.4628263 11.043
22.528217 -17.711582 5.7380056 10
22.806513 -17.652733 -1.5084677 5
23.148741 -17.380095 -1.3988072 5
23.041565 -16.051357 -1.3694698 5
22.823383 -9.6799259 -1.3931798 4
23.043793 -9.4213963 -1.3715117 4
22.930338 -8.9029102 -1.3036764 4
23.076969 -8.6360788 -1.3241227 4
22.812038 -8.038517 -1.2822384 4
22.996513 -7.7809505 -1.3000495 4
23.090853 -7.3639307 -1.3310258 4
23.015053 -7.0490713 -1.352861 4
23.02705 -6.0774956 -1.3059779 3.6666667
22.865692 -5.2558045 -1.3807566 4
22.935328 -4.6372328 -1.3228832 3.6666667
22.942371 -4.1394944 -1.2867968 4
23.081982 -3.6721017 -1.2830003 4
22.965565 -3.3547001 -1.4023074 4
22.998398 -1.4040016 -1.283729 5
22.994621 -1.0403577 -1.3846115 5
23.030376 -0.64544094 -1.2853409 5
23.058495 -0.12570021 -1.4000227 5
23.044535 -18.325752 -0.97026169 5.5
22.909414 -17.848948 -0.8812269 5.5999999
23.122274 -14.896781 -1.1829152 5
23.191614 -9.8287716 -0.9340331 5
23.096058 -26.979422 -0.52233547 6
22.938438 -18.322523 -0.71660167 6.25
23.00905 -17.863594 -0.65797669 5.7272725
23.125803 -9.772481 -0.4012154 6
22.886597 -18.407948 -0.090804651 7
23.01243 -18.33812 -0.11078766 6.6666665
22.995823 -17.879293 -0.2057516 6
23.146326 -0.99926579 -0.036770016 6
23.166634 -0.5366953 -0.20801163 6
23.015034 -18.342249 0.10547279 7.1428571
22.988432 -17.837608 0.2180468 6.7857141
23.171104 -9.8317728 0.12216602 7
23.114151 -8.8010273 0.12367009 7
22.807215 -0.86884767 0.21291962 6
23.083719 -27.026199 0.42911261 7
23.041859 -18.466545 0.45172584 8
23.043434 -18.324739 0.70889288 7.9306483
23.073177 -17.867586 0.58072704 7
22.974268 -18.430012 0.97315353 7.7142859
23.005796 -18.352051 0.93010098 7.6666665
23.020847 -17.819925 1.0733796 7.7619047
23.104958 -27.448275 1.4454087 8.0655003
23.082581 -27.010138 1.380255 8
23.003574 -18.443914 1.5053756 8.6172504
23.009317 -18.376133 1.4677377 8.5006247
23.008251 -17.861946 1.4215082 8
22.961823 -18.45915 1.798386 8.652235
23.07328 -18.322762 1.7450639 9.0212498
23.008816 -17.859631 1.8816553 8.9230766
23.068979 -26.910769 2.3397305 9
23.018463 -26.793589 2.2998071 9
23.012335 -18.4573 2.2171984 9.4499998
22.915365 -18.252216 2.2151272 9.333333
23.001345 -17.935196 2.1338329 8.1999998
22.970348 -18.434969 2.4995475 9.333333
23.052103 -18.383806 2.5022569 10.02125
23.012157 -17.845423 2.6375 9.4193544
22.864147 -15.029486 2.5897381 9.0142498
22.979895 -12.439651 2.5779128 9.0074997
23.084394 -12.244143 2.7223523 10.01
22.957413 -10.079256 2.6813362 10.0565
22.923897 -9.9734087 2.7246091 9.1789999
23.035425 -9.4597216 2.7937479 10.01375
23.082819 -5.2635636 2.693821 12.553499
23.080719 -5.0203972 2.680521 12.890416
22.909575 -4.7441239 2.7037683 13.054375
23.165195 -2.7568548 2.7430062 11.022
23.190281 -0.93498594 2.7670116 12.018
22.999571 -0.3000415 2.7769375 11.0905
22.970407 -18.4111 3.097507 10.5
23.003613 -18.257917 3.0731685 10.727273
23.049702 -17.862408 3.0114336 9
22.976227 -17.414824 3.0011313 9
23.106533 -14.313852 3.0173864 11.0365
23.025198 -12.535277 2.988529 11.069667
23.096684 -12.332532 2.827388 10.01
23.09251 -11.770315 3.1492178 10.557
22.990606 -10.15433 2.8316495 10.02575
22.939833 -9.9563904 2.8387542 12.0335
23.154488 -9.3834162 2.8774974 11.021667
23.035524 -8.2248192 3.0435133 12.528749
23.093994 -7.6525526 3.0115228 11.019
22.925837 -7.5649209 3.1120927 13.053333
23.164913 -6.378541 3.1916983 10.015
22.971016 -5.4224153 2.9918358 12.495113
23.070871 -4.9071412 3.060024 11.783626
22.978344 -4.7487979 3.0741701 13.57
23.144835 -3.8004143 2.904562 11.01925
23.187759 -2.8554265 2.8525748 11.022
23.160852 -2.1455033 3.0094335 13.293625
23.186405 -1.7814705 3.0009468 14.734584
23.087833 -1.3727028 3.0533106 13.203501
23.025282 -1.104658 3.1123834 12.89685
23.04686 -0.53113395 3.0004306 13.526411
23.062407 -0.16302942 3.0395353 13.569865
23.021252 -18.326403 3.26757 10.5
23.036636 -17.83312 3.2181489 9
22.947702 -12.539018 3.2880392 10.032
23.069553 -10.766065 3.5365353 13.033
23.047258 -9.225255 3.4041915 11.0115
23.040035 -8.4908476 3.3845046 13.03525
22.962576 -6.8568296 3.3457429 14.037
23.166588 -6.7078733 3.2061882 10.0075
22.945887 -6.1945081 3.4373369 13.091249
23.014254 -5.8566132 3.3642735 12.549
22.94425 -5.3788157 3.3791134 14.051415
23.06126 -4.9148383 3.343353 14.047
23.038063 -4.588098 3.4707401 14.563042
23.056778 -4.0711212 3.3687634 13.742917
23.128571 -3.8119969 3.4300234 13.578
23.081779 -3.3658938 3.3830543 14.408834
23.112471 -2.2060382 3.3643806 11.149
23.055693 -1.8156861 3.3436236 13.52
23.10309 -1.5096793 3.4668391 14.526
22.921171 -1.058722 3.3844383 13.350375
22.884031 -0.54326016 3.3974183 14.033563
22.898525 -0.32192561 3.3152235 13.552251
22.95731 -27.180338 3.6588254 10.066
22.910946 -19.550116 3.6593556 11.056
22.840281 -19.140898 3.642051 11.0555
22.997168 -17.763651 3.73821 10.333333
22.932661 -10.152335 3.6015866 11.0145
23.017626 -9.1024981 3.7014341 13.469
23.088903 -8.5097141 3.8256278 12.633301
23.151566 -8.3977642 3.9311459 14.0355
23.048416 -7.8586712 3.9866879 14.0225
23.025288 -7.0130963 3.8904176 13.0175
23.012529 -6.5141993 3.6891487 13.04675
23.021486 -6.275382 3.8865204 15.043751
22.948217 -5.3333802 3.7231843 14.182678
22.986694 -4.55725 3.8494697 15.05125
23.009979 -2.1636055 3.8775144 14.183917
23.04508 -1.5225006 3.7466695 14.268875
22.910749 -1.0031706 3.6838322 14.51075
22.81402 -0.52694207 3.7552016 14.508875
22.991171 -0.26254311 3.8420362 14.425301
23.06736 -26.889349 4.2000947 11.0635
22.960581 -17.820028 4.3845186 10.5
22.92248 -17.396088 4.3650594 12.0535
23.012554 -16.969948 4.3329186 12.05225
23.135975 -15.286775 4.250061 12.0495
23.162691 -15.043348 4.2995415 12.052
23.127495 -14.646049 4.2853804 12.0515
23.126062 -14.182253 4.2409196 12.0495
23.094442 -13.853599 4.2551813 12.0505
22.839094 -12.349746 4.1677523 12
22.925974 -8.8073339 4.1029868 15.044
22.973242 -8.7410593 4.0591745 13.530251
22.963903 -8.2436295 4.0344062 12.01325
23.046665 -7.8773804 4.0505714 14.0275
22.904461 -6.0871048 4.0936575 11.280375
22.855566 -5.7413354 4.062458 12.53425
22.933769 -1.9690127 4.0516434 13.022
22.899546 -1.248855 4.0012927 15.0185
23.018471 -1.0589325 4.1058021 14.876968
22.894859 -0.23292679 4.0794353 15.016
23.132551 -17.832434 4.4694533 9
23.024662 -9.443675 4.62464 10.015166
23.053951 -11.59558 4.8502831 10
22.996357 -6.0080342 5.0345297 11.0455
22.84153 -4.8458066 4.8025346 11.0415
23.057447 -18.636745 5.3020124 10.547375
23.052914 -18.331869 5.2679439 10.0445
23.071697 -17.677067 5.7319241 10
23.215572 -18.342127 -1.2516272 5
23.472248 -17.149553 -1.3957804 5
23.352715 -16.795692 -1.4398814 5
23.287035 -15.224186 -1.2331319 5
23.39345 -11.185063 -1.4678073 4
23.334923 -10.703007 -1.4197509 4
23.367283 -10.103073 -1.3903035 4
23.301466 -9.236659 -1.3721447 4
23.38545 -8.9848442 -1.3449057 4
23.44478 -8.2088823 -1.3521732 4
23.236593 -7.6479149 -1.2544342 4
23.377123 -7.2764959 -1.2951335 4
23.413258 -6.9687557 -1.3139707 4
23.420778 -6.5999274 -1.2937412 4
23.511135 -6.3823605 -1.3678699 4
23.352224 -5.8177948 -1.2658201 4
23.544432 -5.3883519 -1.2598152 4
23.52603 -5.1732841 -1.3766217 4
23.409428 -4.1909013 -1.4066418 4
23.572226 -3.8271651 -1.4155058 4
23.596777 -2.2478704 -1.2131206 3
23.439014 -1.7455143 -1.2662171 4
23.448381 -1.5132939 -1.2628537 4
23.222546 -1.1716868 -1.5126274 4
23.36729 -18.329132 -1.0006804 5.8000002
23.303995 -17.839493 -0.92947036 5.5
23.277121 -10.142618 -0.94449323 5
23.355724 -18.330603 -0.74718171 6
23.35861 -17.86121 -0.63259685 5.8000002
23.461004 -18.329567 -0.10172176 6.5454545
23.253305 -17.86504 -0.21207228 6
23.206188 -0.66632783 -0.018063305 6
23.225948 -0.10896873 -0.25853837 6.5
23.361288 -18.29859 0.10922103 7.0833335
23.371008 -17.82629 0.19650316 6.7407408
23.266119 -0.92816561 0.15990953 6
23.287384 -0.58048826 0.068564355 7
23.4025 -0.036349606 0.032049749 7
23.494762 -18.480186 0.57397074 8.0682507
23.436745 -18.324413 0.71495557 7.9332857
23.470022 -17.854506 0.57887584 7
23.469355 -18.406319 0.99944085 7.5
23.437599 -18.340939 0.86930704 7.7142859
23.407648 -17.805767 1.0641824 7.7278104
23.399731 -18.451588 1.5035596 8.6739998
23.531851 -18.379036 1.3789036 8.0026245
23.403881 -17.847357 1.4056944 8
23.379307 -18.461109 1.8246036 8.6929998
23.404751 -18.271532 1.8004798 9.0315504
23.358486 -17.83177 1.8799301 8.9189577
23.438936 -18.453329 2.2460127 9.5907087
23.591034 -18.39706 2.289006 9
23.356371 -17.909939 2.1140935 8.1428576
23.409782 -18.424053 2.5586758 9.3000002
23.412659 -18.205629 2.6554492 9.8741436
23.400883 -17.840038 2.6256137 9.4315195
23.411383 -15.026454 2.6027112 9.0214996
23.380106 -12.467704 2.6374743 10.03625
23.396917 -12.340403 2.5996122 9.507
23.373404 -10.12093 2.7031906 9.7393341
23.398222 -9.4387846 2.7998497 10.0125
23.554886 -6.4644461 2.7267621 12.0735
23.521435 -5.6725197 2.7829933 13.03975
23.338259 -4.94561 2.6598282 11.87695
23.408436 -4.7448602 2.7005379 13.052813
23.38982 -4.3505411 2.7545235 12.008375
23.491276 -3.293364 2.7953792 13.07625
23.403801 -3.0096183 2.7908716 12.082
23.427952 -2.536938 2.7517283 11.52225
23.326712 -2.1481838 2.789402 12.0165
23.410789 -1.7846761 2.7729828 12.266874
23.379503 -1.4736592 2.7168121 11.916278
23.31682 -1.0445968 2.7465501 13.04245
23.311924 -0.59351003 2.7258461 13.055195
23.337421 -0.22709791 2.723321 13.159406
23.273668 -18.292061 3.0656135 10.857142
23.378887 -17.803499 2.9829135 9.1999998
23.436508 -17.371391 3.0025859 9
23.533772 -15.001569 2.9271624 11.0645
23.298498 -12.59661 3.0728962 10.0985
23.474903 -12.329718 2.8292286 10.389167
23.466543 -11.775995 2.945004 10.021667
23.403454 -11.538722 3.0021701 10.0285
23.441679 -10.140014 2.8522952 10.4521
23.247988 -9.9666576 2.838522 12.03625
23.39665 -9.3908968 2.8990409 10.862332
23.355042 -8.2385855 3.0929475 12.028
23.565983 -7.7987347 3.0364215 12.54325
23.519722 -7.5028782 3.0359697 12.210667
23.566278 -6.9370852 2.9886873 13.054375
23.586342 -6.5651269 2.9424686 13.056351
23.575058 -6.2375054 2.8588254 13.050562
23.358208 -5.7233148 2.8459098 13.0665
23.377079 -5.4003835 2.9427447 12.4765
23.398014 -4.9928679 2.9275255 11.969979
23.391644 -4.575253 2.9599469 13.510222
23.356796 -4.220191 2.9775953 12.625916
23.408138 -3.7866616 2.8987396 12.345572
23.49896 -3.4563899 2.868067 12.050751
23.340294 -2.9846468 2.981739 12.689083
23.310942 -2.5384321 2.9646299 12.149094
23.409729 -2.1572347 2.9363651 12.573932
23.400917 -1.7773257 2.9587495 13.800937
23.336136 -1.3651035 2.9605501 13.583093
23.391779 -0.97929198 2.9780569 13.653812
23.358519 -0.59661818 2.903209 13.05225
23.312632 -0.15753667 2.9031096 13.721168
23.370813 -18.327204 3.2712793 10.6
23.414068 -17.776659 3.3650992 10.444445
23.565901 -13.55956 3.3948815 10.0325
23.415405 -11.955925 3.4573731 11.04
23.381466 -10.750768 3.5665984 13.0335
23.258356 -8.45436 3.5680511 13.0705
23.509001 -8.2153091 3.3110793 13.050751
23.50034 -6.6410751 3.4533505 14.065
23.479761 -6.0842047 3.3185325 11.1305
23.402657 -5.9939241 3.2121656 11.025
23.354134 -5.4377632 3.3616602 12.54
23.232569 -4.9464054 3.2484574 14.054501
23.202713 -4.6054897 3.2438643 14.0695
23.332003 -4.2871189 3.325295 13.78675
23.458071 -2.8289444 3.365279 14.02625
23.467062 -1.7814505 3.4076877 13.0155
23.409357 -1.5435787 3.3791933 14.529
23.380692 -17.728504 3.7447035 10.2
23.522154 -13.594199 3.6673145 11.0095
23.428333 -9.0904026 3.8092427 13.71729
23.334505 -8.4741287 3.8480072 12.366666
23.529081 -8.4000196 3.8743887 14.042
23.488937 -7.7725716 3.8991287 14.045626
23.361763 -6.638926 3.9427106 14.029375
23.30028 -6.0798845 3.9365625 15.0385
23.494577 -5.8717618 3.9254332 15.054125
23.408382 -5.28613 3.9048316 12.02125
23.296103 -4.2915397 3.6957378 14.360166
23.472973 -2.1475928 3.8848348 14.0194
23.373272 -1.4821817 3.7867966 14.521093
23.435078 -0.60916215 3.8848715 14.687333
23.353357 -0.075147986 3.856493 14.680084
23.289904 -17.752592 4.3475051 11.0345
23.330971 -17.40317 4.3328376 12.051624
23.300119 -17.041929 4.3262162 12.051
23.258501 -16.632524 4.3140655 12.0505
23.208237 -16.245874 4.2787213 12.04825
23.367741 -15.774699 4.234108 12.049251
23.269871 -15.397393 4.2432694 12.048
23.281467 -15.083437 4.2364464 12.046749
23.342909 -14.772422 4.2260141 12.0455
23.349075 -14.314756 4.2110538 12.04575
23.366579 -13.856235 4.1932235 12.046
23.56929 -13.479039 4.1581693 12.0455
23.291336 -12.944614 4.1633267 12.0465
23.465799 -12.642678 4.1475477 12.04525
23.39398 -12.178781 4.1361084 12.0455
23.290195 -8.6290722 4.1138783 15.0495
23.445784 -8.2326841 4.0938339 13.535999
23.368683 -7.7346306 4.0525818 14.029375
23.38283 -6.0254793 4.0317144 12.025
23.340008 -2.1620579 4.0262995 14.015
23.442186 -1.448383 4.1494002 13.359082
23.257881 -0.93207639 4.1401134 15
23.497654 -0.71006292 4.0970068 14.684751
23.204737 -0.058175892 4.0867662 15.01675
23.504757 -17.811462 4.4742012 9
23.58296 -16.952873 4.4023461 12.02775
23.350126 -9.4386339 4.6198459 10.021749
23.265591 -4.8224821 4.7953711 11.042
23.446716 -11.697388 4.8993778 10.021
23.242371 -11.571296 4.8471384 10
23.219166 -6.001668 5.0394874 11.0445
23.424974 -5.9843397 5.03545 11.046
23.550169 -18.756941 5.439559 12.073
23.361742 -17.666094 5.7299404 10
23.638655 -18.256371 -1.389764 5.5
23.83358 -16.88105 -1.3138546 5
23.905405 -15.442353 -1.3452828 5
23.767477 -12.163896 -1.3670015 4
23.812927 -11.390406 -1.328087 4
23.879099 -10.939859 -1.4566214 4
23.671638 -10.475691 -1.41432 4
23.952007 -10.28844 -1.4112606 4
23.847773 -9.7303696 -1.3976569 4
23.650562 -8.8476877 -1.3523484 4
23.714046 -8.6586275 -1.3351054 4
23.842113 -8.1565552 -1.2929536 4
23.816599 -7.7757807 -1.3186314 4
23.955971 -7.5762672 -1.4354862 4
23.67923 -6.9237413 -1.2853019 4
23.776562 -6.5881467 -1.305514 4
23.765339 -6.2026749 -1.30661 4
23.849205 -5.8076448 -1.2890389 4
23.706623 -4.9491439 -1.2523397 4
23.89587 -4.4926653 -1.3213592 4
23.747082 -3.6233678 -1.4189658 4.5
23.895224 -3.3138285 -1.4241211 5
23.769657 -1.5091676 -1.2673595 5
23.731453 -18.317247 -0.97588074 5.5714288
23.723694 -17.839876 -0.94081861 5.4000001
23.707636 -14.383297 -1.1924536 5
23.77957 -18.308256 -0.745318 6
23.766222 -17.82308 -0.64259201 5.8000002
23.862085 -18.310165 -0.11750562 6.7142859
23.695639 -17.825672 -0.29273033 6
23.797199 -18.288435 0.11609007 7.2957144
23.774202 -17.80686 0.18535683 6.7894735
23.842072 -18.436657 0.46766886 8
23.795908 -18.302183 0.70527285 7.9271603
23.824745 -17.833801 0.57583916 7
23.6026 -18.469875 1.1100352 8.1794996
23.829672 -18.303156 0.91276938 8.0258751
23.794222 -17.782705 1.0623298 7.7795572
23.770309 -18.426767 1.5128145 8.6782227
23.861736 -18.367218 1.4942331 8.5006008
23.778423 -17.836374 1.4025356 8
23.821541 -18.449226 1.8367366 8.8860626
23.830065 -18.366673 1.7397612 9.0143213
23.79043 -17.834745 1.8959436 8.8963337
23.858902 -18.458368 2.1895838 9.4285717
23.85421 -18.336182 2.3348892 9.7523127
23.766949 -17.87199 2.1752698 8.4431429
23.634241 -17.571606 2.0735216 9.0907497
23.842703 -18.414309 2.5206676 9.333333
23.836327 -18.355265 2.5040965 9.8752337
23.79188 -17.820984 2.625437 9.4736843
23.70068 -12.41923 2.5930214 9.0077496
23.772699 -12.334339 2.5618289 9.3433332
23.832687 -10.049615 2.7267303 9.9013128
23.85486 -9.9951 2.7067447 11.022
23.923019 -6.5366669 2.7386768 10.088
23.731398 -6.2587867 2.6237471 10.1445
23.888937 -5.6220016 2.7144248 11.112499
23.899483 -5.4915123 2.7285662 11.0775
23.872461 -4.94206 2.7217 11.545
23.788515 -4.7111707 2.7375691 12.85715
23.755611 -4.296566 2.7680686 11.371333
23.806011 -3.8906472 2.7612805 12.07725
23.757875 -2.9069052 2.7381656 12.025
23.679565 -2.5099015 2.7993741 12.0225
23.780598 -2.1739001 2.7658436 11.352168
23.746435 -1.8031136 2.6925569 14.04675
23.814505 -1.4487238 2.7327805 12.293132
23.950451 -1.0362959 2.7067389 12.549293
23.754868 -0.53711981 2.7161777 13.251101
23.861809 -0.22255771 2.7138345 12.759001
23.730991 -18.330187 3.0752425 10.833333
23.795231 -17.786367 2.9649343 9.3876247
23.794876 -17.316177 3.0015812 9
23.617355 -14.95369 2.8310785 11.035
23.808247 -12.542709 2.9343932 10.015
23.793911 -12.281055 2.887001 10.364333
23.857891 -11.715376 2.8278463 10.0115
23.827787 -10.080882 2.8865705 10.846399
23.717678 -9.961441 2.8821888 12.037
23.759642 -9.3527431 2.9250913 11.289146
23.684055 -8.321393 3.0279651 12.04125
23.772423 -7.7024636 2.889997 10.528
23.742378 -7.3725319 3.0523989 12.298145
23.796156 -6.9768806 2.9723175 12.276112
23.806877 -6.6643686 2.9835305 12.343286
23.783018 -6.2164865 2.9113851 12.291278
23.730562 -5.8037906 2.9750094 12.06125
23.802626 -5.4130392 2.8826923 12.047469
23.842323 -5.0015388 2.8622844 10.751667
23.900856 -4.6939669 2.8995888 12.575375
23.842213 -4.3034759 3.0049844 12.0629
23.879471 -3.7957201 2.8982506 12.04975
23.81641 -3.3570299 2.8800495 11.5195
23.894966 -2.6341293 2.9142511 11.704333
23.827002 -2.1193295 2.912148 11.456643
23.806086 -1.7846409 2.9304199 12.315536
23.823854 -1.3991563 2.9766982 13.194616
23.793434 -1.0076826 2.9910965 14.040321
23.839336 -0.66960037 2.9595001 13.323418
23.833666 -0.19225775 2.9656713 13.719791
23.792118 -18.32937 3.2817364 10.6
23.781004 -17.72333 3.3854938 10.381374
23.644817 -14.324477 3.4439368 11.043
23.656464 -8.432189 3.5972755 12.022
23.727121 -8.2412033 3.4402552 13.05375
23.730085 -7.4042373 3.4777694 11.024
23.800705 -7.161335 3.3714831 12.0455
23.781597 -6.5531206 3.498318 14.0655
23.796932 -6.1632071 3.3226824 13.722667
23.686399 -5.7067208 3.4039595 13.651601
23.747753 -5.2197852 3.5835838 14.073
23.790949 -5.0581741 3.3533347 12.044499
23.905741 -4.7878351 3.5642576 12.0145
23.90044 -4.2627177 3.3569801 12.045166
23.932751 -2.9727395 3.3317988 13.0215
23.767288 -2.0801108 3.3685753 15.05175
23.81447 -1.7618421 3.4404001 12.913722
23.809061 -1.3665932 3.4667001 13.51725
23.90114 -1.0840404 3.301862 13.784562
23.856398 -0.58076066 3.4248903 13.0205
23.959732 -0.050836358 3.5754461 13.05425
23.913328 -21.290714 3.8491285 11.0605
23.804255 -17.666348 3.759805 10
23.805845 -12.572622 3.6630266 11.015
23.781216 -9.0648279 3.843328 14.05175
23.823597 -8.4371567 3.6950746 12.5745
23.845165 -8.3797312 3.9087322 14.0425
23.739143 -7.7645192 3.8101096 12.54675
23.913225 -7.0863585 3.8808012 14.047501
23.951435 -6.6934114 3.9094722 15.045417
23.970337 -6.2326112 3.848624 14.371417
23.850986 -5.778686 3.7807755 14.224
23.924551 -5.4481335 3.8136158 14.895167
23.978352 -4.9830432 3.8832712 14.384334
23.96924 -4.7353158 3.817785 14.73925
23.959114 -4.203496 3.8419261 14.310749
23.962671 -3.8951633 3.7708633 14.0505
23.960501 -3.3583276 3.6615508 13.018
23.955908 -2.8754499 3.6472969 14.024
23.807005 -2.1156974 3.8628929 13.851833
23.903688 -1.7401956 3.8360181 14.636
23.869585 -1.43396 3.7604921 13.915281
23.9116 -1.0633397 3.7812726 13.828416
23.898424 -0.61005563 3.7617354 13.973983
23.898207 -0.199922 3.7417648 14.40175
23.846395 -23.852325 4.3220057 11.064
23.699123 -17.81389 4.3530326 11.0185
23.655048 -16.571711 4.2538271 12.046
23.687983 -16.193378 4.2406435 12.0455
23.729355 -15.820039 4.2273879 12.045
23.807898 -15.071931 4.2045379 12.044
23.868532 -14.702459 4.1916533 12.0435
23.920134 -14.329201 4.1810522 12.043
23.794346 -13.891438 4.1728067 12.043375
23.946011 -12.541042 4.1201105 12.0425
23.630678 -12.343279 4.1367636 12.044
23.693426 -11.585575 4.1246071 12.043
23.980513 -10.087072 4.1392007 9.1630001
23.768496 -7.7683396 4.0777478 15.042
23.845072 -7.451582 4.059577 14.037167
23.994223 -6.9991193 4.114789 15.065
23.801083 -6.6217546 4.0421753 15.057334
23.981001 -5.8437185 4.059124 15.06975
23.926725 -5.4764352 4.0350852 14.054
23.966362 -5.0974388 4.0219741 13.015
23.964344 -4.6940212 4.0266504 15.074
23.960737 -4.0042033 4.0018945 14.08
23.906317 -3.3839152 4.101203 14.0815
23.765474 -2.1009879 4.0690675 14.01575
23.916866 -1.9364941 4.0211334 15.023
23.814148 -1.5715821 4.2848864 11.043416
23.828945 -0.92099017 4.0886259 15.02075
23.879263 -0.57760942 4.0554099 14.053875
23.862459 -0.2517232 4.0747905 13.874049
23.842823 -17.796967 4.4765072 9
23.773493 -17.580446 4.4217591 12
23.664986 -17.174337 4.4062066 12
23.738773 -9.4215069 4.6230297 10.03
23.845606 -3.3644235 4.5465975 11.0425
23.892874 -11.686364 4.8636503 10
23.831984 -8.4847584 5.4819632 11.042
23.94622 -20.878189 5.9837494 11.06
23.831722 -17.667086 5.7298975 10
24.226227 -18.248896 -1.3540591 5.5
24.315786 -16.957821 -1.5484232 6
24.144611 -16.617672 -1.3173873 5
24.14467 -15.031291 -1.3137355 5
24.018343 -14.693494 -1.2487921 5
24.011181 -13.848267 -1.2051903 5
24.34824 -13.000556 -1.4248219 4
24.216753 -11.868745 -1.3484762 4
24.016003 -11.296482 -1.3352385 4
24.236641 -11.078693 -1.3333875 4
24.23756 -10.134985 -1.413368 4
24.356297 -9.7812805 -1.438121 4
24.149448 -9.3622322 -1.394986 4
24.358948 -9.1355095 -1.3958255 4
24.187145 -8.1601448 -1.3178362 4
24.133596 -7.351768 -1.3104542 4
24.265493 -7.1159739 -1.3398869 4
24.129187 -6.1334867 -1.301037 4
24.218279 -5.8082561 -1.300329 4
24.123672 -5.4730725 -1.3336349 4
24.257292 -5.0275135 -1.3146217 4
24.350475 -4.5907483 -1.2284304 4
24.020105 -4.2128491 -1.32367 4
24.066074 -3.9693711 -1.242591 4
24.290131 -1.6915369 -1.4674315 4
24.17111 -18.298187 -1.0183229 5.8000002
24.190651 -17.801676 -0.98041171 5.5999999
24.202625 -18.292236 -0.73384541 6
24.255516 -17.82176 -0.62058496 5.875
24.202469 -0.06892173 -0.45171067 6
24.17635 -18.271147 -0.13774857 6.909091
24.193121 -17.799332 -0.13887885 6.5
24.230938 -0.48720667 -0.13692521 6
24.209633 -0.35508507 -0.1497512 7
24.13269 -18.304789 0.11596417 7.2222223
24.24214 -17.78404 0.16303328 6.8235292
24.184469 -0.96588433 0.10402528 6.5
24.198179 -0.13413158 0.11895867 6
24.251257 -18.414795 0.4647879 8
24.203526 -18.305389 0.68758267 8.0051394
24.241343 -17.818521 0.63169062 7
24.227999 -18.288296 0.82077318 8.0093565
24.204037 -17.749752 1.0525837 7.889327
24.398031 -19.49613 1.2113632 8.0299997
24.128698 -18.520769 1.3595644 9.0885
24.258308 -18.308216 1.4742074 8.4685001
24.208508 -17.809137 1.3943951 8
24.129326 -18.464905 1.9395634 9.0221252
24.206131 -18.310452 1.756456 9.010354
24.222691 -17.771622 1.9002397 9.007555
24.18824 -18.474344 2.08693 9
24.238443 -18.302898 2.3133698 9.6427269
24.172869 -17.856495 2.1296585 8.25
24.348385 -17.549459 2.0146189 9.0845003
24.19705 -18.287813 2.5411198 9.8795996
24.210257 -17.773886 2.6610923 9.668685
24.132114 -15.028822 2.6207769 9.0152502
24.132923 -12.409536 2.6047177 9
24.217928 -12.381806 2.6521397 9.3446665
24.081285 -11.572712 2.6316392 10.079
24.327368 -10.073539 2.6813474 9.5655003
24.279549 -9.9727364 2.7480164 10.0095
24.233583 -8.5447493 2.7168052 9.5475006
24.092058 -7.8041916 2.7719116 10.1
24.15254 -7.1286745 2.766078 10.1015
24.098591 -6.5586958 2.7379601 10.102
24.09804 -6.0140371 2.7156925 10.1025
24.23505 -5.4734464 2.6947222 10.418834
24.106937 -4.8764997 2.7275107 12.03175
24.242788 -4.6520605 2.7325282 11.611643
24.377886 -4.3856902 2.7900033 11.019
24.073713 -3.7081413 2.7933426 12.576375
24.061819 -3.4911423 2.7893696 10.0225
24.038765 -3.0230339 2.7455645 11.55475
24.170818 -2.679014 2.7126493 11.798
24.22555 -2.3515227 2.7302616 13.03475
24.105234 -1.7742512 2.7542346 13.046062
24.228283 -1.3706734 2.7450511 12.286094
24.249525 -1.0350279 2.7053781 13.188107
24.150194 -0.63441807 2.6340387 12.746333
24.208942 -0.308595 2.6723912 11.814688
24.151436 -18.319485 3.0736005 10.625
24.231621 -17.750252 2.945477 9.4666538
24.026089 -14.993908 2.9726319 11.065
24.178616 -12.291449 2.9642131 10.646
24.187044 -11.664594 2.919919 10.025167
24.213165 -10.063196 2.9005272 11.176126
24.252842 -9.9712868 2.9028668 12.0485
24.221556 -9.3362818 2.9273441 11.04065
24.260014 -8.7010078 2.9318721 11.544001
24.121044 -7.0976949 2.9057624 11.719833
24.175308 -6.4745531 2.9427359 13.0445
24.183994 -6.241632 2.9366608 12.728
24.35107 -5.657938 2.8529894 13.053375
24.202438 -5.3743186 2.8993042 11.2228
24.064211 -4.9296741 2.8413844 12.037624
24.220428 -4.5825891 2.8581131 12.30875
24.152182 -4.2481213 2.8614528 12.73975
24.116505 -3.7867553 2.8913543 11.6613
24.201494 -3.4480715 2.8367321 11.54975
24.175705 -3.0392926 2.9252369 13.033875
24.185997 -2.1654177 2.9567907 12.040358
24.135422 -1.9091078 2.9510238 12.1815
24.099817 -1.4343836 2.947881 13.422852
24.110634 -1.0248853 2.9778888 12.537999
24.131126 -0.61073726 2.9291344 13.190358
24.085003 -0.20912495 2.9408233 13.416291
24.091631 -18.310524 3.2305245 11
24.21636 -17.787966 3.4057612 10.373137
24.358049 -11.80348 3.4422531 11.0355
24.178162 -8.3899136 3.5265715 12.076
24.113079 -7.7027102 3.4386632 13.0695
24.180212 -7.3975554 3.4092305 11.061501
24.271013 -6.9186015 3.4965403 14.04875
24.212948 -6.2339082 3.358772 10.78575
24.236958 -5.7460771 3.3985312 12.226001
24.124052 -5.399579 3.5210476 12.548
24.172295 -4.9510531 3.5151765 13.04325
24.152899 -4.5663924 3.4387448 12.702334
24.09635 -4.1729484 3.5837803 13.02025
24.251587 -3.7340336 3.4961743 13.061417
24.132824 -3.3834014 3.5374906 12.58275
24.071877 -3.0088568 3.5489712 13.5575
24.103554 -2.7997665 3.4749677 14.0275
24.179016 -2.1543255 3.3781826 14.028126
24.125763 -1.8385602 3.4794929 13.690834
24.036255 -1.2414417 3.2300644 13
24.075495 -0.95321751 3.3484209 13.354917
24.13592 -0.54338223 3.4470892 14.0245
24.099676 -0.20458379 3.4986486 14.734417
24.267879 -17.707668 3.7288036 10.333333
24.328903 -16.064627 3.6886475 12.0395
24.200541 -12.738844 3.7512305 12.0205
24.392982 -10.722296 3.6094208 13.0395
24.205057 -10.052108 3.6755025 13.04675
24.010866 -9.0625181 3.793004 12.0175
24.175514 -8.4247398 3.7424977 12.056999
24.219522 -8.263238 3.9229567 14.048833
24.234249 -7.7291236 3.8536921 13.27025
24.168077 -7.3175125 3.6742644 13.5695
24.215675 -7.0166206 3.8022852 14.4531
24.005564 -6.6391139 3.9182844 15.0555
24.245096 -6.1658845 3.7067599 13.043249
24.212702 -5.8259225 3.7840114 13.570916
24.209579 -5.4060431 3.7791564 14.660901
24.226185 -5.0503054 3.7784116 14.183223
24.172987 -4.629005 3.7205091 15.060166
24.198866 -4.2513928 3.776628 14.571334
24.149265 -3.8173189 3.8151238 13.065083
24.148651 -3.4285772 3.7684705 13.352107
24.111645 -2.9930825 3.8664126 13.5825
24.239883 -2.5779042 3.7604268 13.53875
24.260906 -2.0458779 3.8295238 12.042
24.080814 -1.814167 3.6342978 14.526375
24.091547 -1.4312531 3.7586114 14.267
24.036131 -1.0006887 3.7230096 14.248199
24.075714 -0.60276276 3.6630363 14.353999
24.050674 -0.2381767 3.6867187 14.448349
24.192225 -17.787445 4.3516874 10.5
24.160032 -13.228479 4.1434245 12.0415
24.002914 -12.171722 4.1122274 12.042
24.096312 -11.421289 4.1024332 12.041
24.188023 -11.058162 4.0927606 12.0405
24.387054 -8.2477417 4.0422006 14.065
24.009668 -7.0433998 4.034636 15.0615
24.307657 -6.0401235 4.0090699 15.052
24.214382 -5.7908325 4.0128436 15.061833
24.022333 -3.2209694 4.0001879 13.0835
24.390514 -2.1402135 4.3698273 11.0445
24.18557 -1.5629088 4.2863126 11.044624
24.210606 -17.782509 4.4725456 9
24.206377 -9.3878479 4.6281557 10.023251
24.310221 -2.6367457 4.4222941 11.043
24.237188 -11.690475 4.8653164 10
24.182528 -17.654394 5.7301111 10
24.066628 -10.967454 6.4085789 11.1525
24.639692 -12.886258 -1.3961308 4
24.666986 -12.670062 -1.4336147 4
24.716675 -11.521377 -1.3440181 4
24.497263 -10.937553 -1.2925144 4.3333335
24.677082 -9.4686842 -1.4231557 4
24.658625 -8.7889643 -1.3968654 4
24.447327 -7.8608699 -1.307403 4
24.721619 -7.5236282 -1.2956549 4
24.458033 -6.9414115 -1.3362293 4
24.626646 -6.6324954 -1.335238 4
24.706015 -6.338891 -1.2200521 4
24.463938 -5.6013703 -1.3927115 4
24.440786 -5.3900504 -1.2166345 4
24.546997 -4.9888339 -1.3021327 4
24.510992 -4.6420002 -1.3361501 4.3333335
24.485914 -4.1943936 -1.3136468 4.5
24.604601 -3.5452859 -1.4088298 5
24.517063 -1.9467903 -1.2226266 4
24.652224 -18.283234 -1.060077 6
24.581448 -17.772192 -0.96617776 5.6666665
24.771427 -16.319706 -0.98777181 5
24.65736 -15.776632 -1.0137773 5
24.587942 -15.229394 -1.0364431 5
24.592747 -14.138262 -1.0708914 5
24.481647 -13.761349 -1.0953689 5
24.528526 -13.392086 -1.1041168 5
24.50948 -13.022268 -1.1201137 5
24.52648 -12.645124 -1.1333195 5
24.502064 -12.264947 -1.1513847 5
24.484598 -11.882718 -1.1693976 5
24.540724 -11.511052 -1.1801623 5
24.712486 -5.0008869 -1.1967314 4
24.494476 -18.299707 -0.69440126 6.3333335
24.6387 -17.827877 -0.55246633 6
24.67123 -18.275681 -0.083438598 7
24.592979 -17.756907 -0.14958876 6.5
24.632175 -0.39442778 -0.080871798 7
24.55904 -18.278698 0.14229827 7.5
24.603765 -17.782427 0.2137963 7
24.647619 -0.95709199 0.087580889 6.75
24.552557 -18.414753 0.47844377 8
24.589241 -18.293287 0.66210115 8.0035267
24.606796 -17.802273 0.62582356 7
24.629612 -18.291405 0.96525133 8.0157309
24.564823 -17.746899 1.0664917 8.0093946
24.539944 -17.480429 0.86501163 8.0889997
24.76363 -18.412657 1.4035443 8
24.590734 -18.320292 1.4966637 8.5103207
24.646954 -17.717051 1.3284614 8
24.534367 -18.404715 1.9283459 9
24.609373 -18.296495 1.8040468 9.0119705
24.563108 -17.718685 1.9028796 8.9631596
24.63072 -18.434019 2.0818999 9
24.592777 -18.297108 2.2631612 9.3611479
24.679893 -17.770298 2.3760843 9
24.620674 -17.547653 2.1316402 9.0950003
24.612173 -18.284601 2.5578151 9.9203501
24.575775 -17.707943 2.6236212 9.5576668
24.519756 -17.592697 2.7924013 10
24.469717 -12.459255 2.5901494 9.6853333
24.554235 -12.332786 2.6420534 9.5117502
24.44342 -11.616579 2.7905736 11.0345
24.565239 -10.03141 2.7030227 9.5063744
24.653908 -9.9542513 2.7530353 10.511499
24.438248 -7.0037904 2.7268503 9
24.4231 -5.6079583 2.7053361 10.1395
24.424133 -5.5130186 2.7705874 12.076
24.416792 -4.9368253 2.7062702 11.016
24.634232 -4.7110925 2.7240639 11.049126
24.42412 -4.2047009 2.787077 13.064
24.403482 -2.1007228 2.711705 13.0355
24.595325 -18.313322 3.1150475 10.68225
24.599014 -17.669567 2.9721439 9.3483334
24.526379 -14.27616 3.0509548 11.0435
24.76045 -12.484278 3.0946367 11.071
24.675259 -12.308623 2.9989836 11.04575
24.546402 -11.683583 2.973814 10.0315
24.625887 -10.117965 2.851378 10.0578
24.613802 -9.9660673 2.9222012 11.621535
24.645216 -9.3323164 2.9475582 10.838201
24.417305 -8.8241615 2.8927073 10.0885
24.554321 -8.6695786 2.8812308 10.844874
24.633982 -8.1144991 2.8216033 12.044
24.680859 -7.8640513 2.8900821 11.7095
24.599569 -7.0369649 2.9713309 11.544001
24.708591 -6.2733164 3.0115745 12.55775
24.444729 -5.8328061 2.876195 10.0885
24.587671 -5.4227247 2.8397257 11.481142
24.451803 -4.6498246 2.8078737 13.0575
24.5776 -3.7691963 3.0476916 10.570499
24.695576 -3.387203 3.0812831 11.08
24.692909 -2.9764555 3.0112789 11.036249
24.547754 -2.0085723 3.1642649 11.035
24.572651 -1.038658 3.1891599 15.062
24.535395 -0.26114821 3.1219342 13.08125
24.598959 -18.324203 3.2954974 10.833333
24.601759 -17.729097 3.4266248 10.619577
24.783609 -16.079981 3.4725959 10.013
24.528324 -12.252633 3.2327085 11.0455
24.741182 -11.864176 3.3181567 11.0395
24.746056 -9.2211542 3.4774957 13.037
24.653147 -9.1153269 3.458189 10.01375
24.498436 -8.353694 3.58691 13.069
24.584114 -6.0397162 3.3933871 12.0345
24.441952 -5.7515512 3.5230224 12.0155
24.711317 -5.4727964 3.4626477 11.042
24.515877 -4.9858823 3.3623238 12.016
24.621181 -3.6757991 3.2219403 11.0335
24.642059 -3.1913478 3.3502104 12.0835
24.457035 -2.0730128 3.5394611 15.072
24.640144 -1.6814004 3.4147184 14.558374
24.718828 -1.3985386 3.4298897 14.032582
24.655188 -1.0134037 3.2569149 13.57725
24.433592 -0.54438841 3.3908825 14.083
24.541628 -0.3115136 3.3388114 13.063499
24.5231 -17.691422 3.6941037 10.5
24.673613 -17.575861 3.7381287 10
24.443861 -16.080133 3.6754951 12.044
24.768898 -12.86947 3.8638101 11.0125
24.62924 -12.476213 3.9210875 11.018
24.749929 -11.881691 3.9414606 12.045
24.749859 -10.73445 3.6544533 13.04
24.687212 -10.035918 3.7129991 13.053
24.738651 -9.0562468 3.6579823 12.0755
24.642639 -8.4114447 3.7012537 11.0435
24.447128 -8.1957216 3.8192096 12.546249
24.58828 -7.1836896 3.6233125 11.093
24.761301 -3.8849235 3.6972997 13.081
24.673914 -2.1039605 3.7512443 13.352584
24.565117 -0.48918596 3.7508683 14.0215
24.525793 -17.744965 4.3300424 10.5
24.40008 -15.575993 4.1549139 12.053
24.733124 -11.874572 4.0413818 12.040501
24.63979 -11.43507 4.0897331 12.039
24.588671 -1.5503953 4.2921648 11.045334
24.703051 -26.673 4.6165867 11.067
24.586859 -22.241354 4.428544 12.057
24.582357 -17.691442 4.4754605 9
24.613258 -9.3895483 4.632555 10
24.658617 -2.9057376 4.467289 11.0435
24.672182 -11.685089 4.8962131 10.0225
24.524519 -10.253126 4.8477941 10.040751
24.718752 -5.9329367 5.0231471 11.045
24.785179 -20.74152 5.9996076 11.065
24.749498 -17.613096 5.7282658 10
25.158195 -11.376813 -1.2806344 4.5
24.938354 -10.548501 -1.3475825 4
24.981144 -9.1382647 -1.4068435 4
24.933241 -8.4110308 -1.3953494 4
25.113043 -8.167697 -1.3954114 4
24.99675 -7.2724977 -1.2899451 4
24.965256 -7.004653 -1.2714528 4
24.950056 -6.1914897 -1.2081966 4
25.006701 -5.7795248 -1.2051425 4
24.985886 -4.7863007 -1.3699646 5
25.10685 -4.1722069 -1.3810667 5
25.188641 -3.7122636 -1.3897033 5
24.815216 -2.113049 -1.4489995 4
25.009926 -1.6255647 -1.2320709 5
24.913776 -1.3848069 -1.4585513 5
24.823973 -18.272514 -1.0772783 6
24.862787 -17.731415 -1.0185777 6
24.957869 -17.388893 -0.94426781 5
24.886915 -17.037062 -0.95902175 5
24.808128 -16.675842 -0.97533154 5
25.058474 -14.219534 -1.0420616 5
25.084244 -13.867945 -1.0494252 5
25.056713 -13.511082 -1.0630212 5
24.99638 -13.144669 -1.0808599 5
24.990952 -12.607323 -1.0994852 5
24.897423 -12.043987 -1.1292149 5
24.859232 -11.671031 -1.1471822 5
24.894341 -17.808258 -0.57907242 6
24.848141 -18.296141 -0.063958593 7
24.967396 -17.807575 -0.22406743 6.4000001
24.916817 -18.41054 0.31374598 8.0889997
25.073641 -18.147802 0.33323309 7.5
25.006355 -17.768541 0.24369682 7
24.956335 -18.455038 0.45739439 8
25.020821 -18.28145 0.67639768 8.0109692
25.102236 -17.830408 0.43244165 7
24.855087 -18.307224 0.95343715 8
24.927441 -17.726488 1.0605893 8.0065479
24.969519 -18.429565 1.408947 8
24.986948 -18.320034 1.4675919 8.1101503
25.041687 -17.693817 1.353901 8.006937
24.967424 -18.446032 1.8857889 9.0127144
24.964104 -18.303644 1.8620507 8.8958893
24.959915 -17.718388 1.9019897 9.0097618
25.002367 -18.505232 2.1098802 9
24.983019 -18.323326 2.1601515 9
24.823164 -17.667084 2.0000322 9
24.940771 -18.433083 2.4603937 9.0100002
24.947226 -18.322248 2.5587981 9.8659163
24.985596 -17.721716 2.6222692 9.5645399
24.838001 -17.587017 2.7607243 10
24.904018 -15.021882 2.6405954 9.0089998
24.865555 -12.406033 2.6199334 9.0082502
24.993898 -12.321299 2.7906456 10.019
24.93894 -10.062956 2.6806796 9.3771667
24.969313 -9.9455929 2.7694898 9.840167
24.927784 -9.3399515 2.7702055 10.019
25.067333 -6.9804912 2.7448232 9.0004997
25.171867 -5.7893882 2.7745709 10.035
24.843132 -5.480998 2.7144454 10.14
25.110235 -4.7259355 2.6919303 11.021
24.911726 -25.094267 3.1148245 10.064
24.927185 -18.400169 2.8305371 9
25.112373 -18.164036 3.0961316 10.51275
25.046864 -17.693539 3.0277042 9.0112505
24.959074 -17.582003 2.9011688 10.0225
24.971441 -14.27459 3.0437839 11.0495
25.071449 -12.217926 3.0119112 10.56625
25.022364 -11.64676 3.000875 10.027667
24.81225 -11.594865 2.8051362 11.035
25.050127 -10.08685 2.8642375 10.0445
24.983089 -9.9055548 2.9534001 11.551438
24.872829 -9.3308735 2.9055886 10.5135
25.011185 -8.8300371 2.9046214 10.089
25.008535 -8.7020893 2.8484831 10.089334
24.961939 -8.0488424 2.8657925 10.032
25.140318 -7.8957267 2.9050083 12.05275
24.954515 -7.1151438 3.014663 11.075833
24.939312 -5.3962722 2.8539777 11.357249
24.88578 -3.6271696 3.1123669 11.1325
25.017036 -3.4818599 3.0910521 11.303625
24.970751 -2.9277475 3.0354326 11.036751
24.804146 -2.2217684 3.1147642 11.105
24.844334 -1.5014772 2.8545651 12.023
25.005243 -1.1003524 3.189065 13.085
25.025497 -18.509043 3.3920896 11.054
25.014511 -18.29809 3.2269566 11.0221
24.955471 -17.707401 3.3850751 10.2
24.94043 -17.408419 3.385411 11.054
25.048918 -14.623839 3.2459404 11.047
25.032564 -12.132449 3.2198479 12.04575
24.985315 -9.1033497 3.3871548 10.01725
25.187912 -8.3032217 3.4202302 10.017
25.060638 -6.8236842 3.4749401 11.044
25.11397 -4.2602649 3.3425012 11.1365
24.976852 -3.1560929 3.4483681 14.0345
24.807377 -1.7916174 3.4814467 11.151
24.857513 -1.451594 3.3862152 15.053333
25.007893 -17.645149 3.7779562 10
25.02717 -17.591362 3.740551 10
25.116512 -14.997485 3.6125178 12.0565
25.027811 -13.402884 3.9715779 12.0435
24.944485 -9.1094742 3.7454531 11.605249
24.966761 -8.4385023 3.7401094 11.044
25.133795 -8.3861055 3.7104771 11.0425
25.124563 -7.7106147 3.687227 11.0435
25.009171 -5.3085165 3.803436 13.0225
25.088276 -2.0486133 3.9682174 15.0305
24.985075 -17.722992 4.2822051 11.142858
25.148985 -17.589315 4.0497894 12
25.132442 -15.537309 4.0962324 12.0545
24.934395 -10.57766 4.1108894 12.035749
25.172815 -9.0963945 4.0497513 11.0345
25.021626 -17.663277 4.4694214 9
24.977064 -9.3608913 4.6324978 10
25.089394 -3.2981293 4.5874844 11.044999
25.089643 -11.709775 4.8720908 10
24.814863 -6.5373602 5.0813093 11.044
25.176626 -8.4410982 5.4044552 11.0445
25.153418 -20.46755 5.6452065 11.0805
25.003923 -17.60421 5.729003 10
24.950006 -19.664995 6.471765 11.138
25.360844 -14.454939 -1.492994 6
25.413715 -13.993318 -1.2858734 5
25.457764 -13.447933 -1.2636353 5
25.54747 -13.025111 -1.2685297 5
25.33993 -12.560278 -1.3033935 4.5
25.540941 -12.240833 -1.3059059 4.5
25.415533 -11.341568 -1.2452241 5
25.397291 -10.973215 -1.3460373 4
25.442457 -10.104115 -1.3560845 4
25.433994 -4.0487785 -1.2274396 5
25.506876 -0.86319411 -1.5886652 6
25.398563 -18.354382 -0.80561095 6
25.530739 -15.295448 -0.9654029 5
25.404852 -15.010351 -0.97819537 5
25.475447 -14.601641 -0.9883188 5
25.417078 -14.100221 -1.0142871 5
25.334463 -13.646917 -1.0362713 5
25.466024 -13.398558 -1.0350487 5
25.462402 -12.960428 -1.0505897 5
25.424946 -12.599194 -1.0682944 5
25.452799 -12.246617 -1.0795221 5
25.21594 -11.885183 -1.1032997 5
25.596598 -11.490864 -1.1157013 5
25.415377 -2.5330422 -1.1755823 4
25.452085 -18.22167 -0.20115849 6
25.416618 -17.783474 -0.178067 6.5
25.326069 -18.35461 0.062453963 7.1999998
25.288076 -17.854395 0.20040539 7
25.414413 -18.443027 0.48029366 8.0454168
25.434069 -18.293036 0.6524877 7.8752503
25.25205 -17.90262 0.42662778 7
25.27866 -25.490763 0.88860738 8.1040001
25.421497 -18.341671 0.84652096 7.75
25.239601 -17.853806 1.152295 8
