# .PCD v0.7 - Point Cloud Data file format
VERSION 0.7
FIELDS x y z intensity
SIZE 4 4 4 4
TYPE F F F F
COUNT 1 1 1 1
WIDTH 1280
HEIGHT 1
VIEWPOINT 0 0 0 1 0 0 0
POINTS 1280
DATA ascii
12.155693 45.864826 0.26107273 7.5625
12.17232 46.250423 0.25392154 7.3684211
12.139938 46.574707 0.19735567 7.1797004
12.013642 46.866856 0.25164592 8.0511665
12.070643 56.965717 0.29034635 7
12.008307 57.84446 0.27105016 7
12.016356 58.543217 0.29452515 6
12.109347 59.836361 0.10390687 5.122807
12.235625 30.662289 0.54829079 7.9480996
12.160498 31.018879 0.58120775 8.7429152
12.120804 31.374367 0.60015571 9.1226845
12.18433 37.844933 0.61224937 7.8235078
12.234846 38.261356 0.65983272 8.2933607
12.262094 38.601597 0.62424469 8.0968056
12.136488 38.9697 0.51632363 8.0088339
12.077852 44.744717 0.68562847 8
12.207261 44.953892 0.63746202 7.693193
12.29026 45.394798 0.61685532 7.73808
12.313499 45.790512 0.63876253 7.6184998
12.291081 46.228085 0.63194484 7.6286893
12.281435 46.526772 0.67853206 7.5714288
12.091567 57.872841 0.62905747 7
12.109375 58.071133 0.56532359 7.5
12.013506 58.438709 0.52406782 7
12.237328 59.170727 0.76619005 9.0644999
12.316885 59.938423 0.41288489 6
12.263645 30.636982 1.0352418 8.5999479
12.173481 31.023897 1.0186089 9.1188774
12.160857 31.379696 1.0306163 9.7903748
12.16209 31.639971 1.1962951 8.1534996
12.189853 37.830631 1.0643681 8.1764708
12.2026 38.25621 0.92987245 8.4094076
12.25096 38.514668 0.93631518 8.21525
12.162416 44.784492 0.86037326 8
12.22368 45.000141 0.9781369 8.1531076
12.301685 45.369041 0.9962604 8.0844669
12.298586 45.813683 1.0460218 8.0898457
12.303032 46.206421 0.9630993 8.0222502
12.202891 46.558372 0.95611632 7.9921956
12.116302 57.878464 0.95474494 7.945406
12.086128 58.162933 0.97112167 8.0123882
12.038537 58.533524 1.0397612 7.9795918
12.033908 58.950218 0.85487485 9.0579996
12.282498 30.667097 1.3989695 9.2049007
12.166509 31.007755 1.360114 9.6640558
12.103676 31.37837 1.3597313 10.179227
12.259429 31.774189 1.4243155 9.0925007
12.181184 37.854053 1.4131358 9.0775414
12.172879 38.193592 1.426953 9.4031925
12.246467 38.520592 1.3639539 9.0614996
12.248785 38.802025 1.2291102 9
12.212905 45.036499 1.3712416 8.4456444
12.183364 45.399712 1.4127779 8.7669468
12.194487 45.827621 1.4100085 8.7065811
12.186685 46.246414 1.403234 8.7347412
12.144011 46.582516 1.3730888 8.7350454
12.014656 46.895824 1.414206 9
12.305925 57.156731 1.5738684 9.1719999
12.092344 57.851871 1.4335456 8.9216251
12.075111 58.194996 1.4649224 8.8893003
12.049412 58.519516 1.4445924 9
12.246005 30.651987 1.7731595 9.9503212
12.147452 31.036419 1.8161271 10.320085
12.127254 31.352236 1.8196748 10.993244
12.313054 31.806015 1.836247 9.6516428
12.348783 32.822945 1.8384525 9.0810003
12.390903 33.286533 1.9047034 10.1025
12.26569 35.20829 1.8984516 10.1645
12.186707 35.997116 1.9411201 10.165
12.061328 36.954361 1.7997475 10.1645
12.17369 37.829998 1.8127019 9.4056616
12.21597 38.290386 1.8572831 9.2003632
12.270932 38.600594 1.8210609 9.163909
12.123979 38.992428 1.7630622 9.0053329
12.335257 39.404804 1.8506609 10.1615
12.19477 40.206982 1.8945038 10.162
12.266524 43.444374 1.7772071 10.121125
12.046689 44.225113 1.8829236 10.1475
12.214852 45.055645 1.8023533 9.041667
12.26849 45.367157 1.7933205 9.1620007
12.298001 45.802914 1.796896 9.1731052
12.306085 46.241913 1.7341887 9.0521536
12.188735 46.536774 1.7448975 9.0239305
12.189427 57.440643 1.9916507 10
12.112269 57.836903 1.845645 9.4591455
12.090723 58.164825 1.8834894 9.8304996
12.047328 58.516682 1.8668232 9.9615383
12.248259 30.61825 2.2189164 10.757169
12.180641 31.049377 2.168318 10.426619
12.114828 31.385414 2.2062211 11.37288
12.263544 31.872177 2.2401822 11.370749
12.331019 32.175568 2.3478398 11.1075
12.235911 32.57272 2.363148 10.87525
12.36596 33.00975 2.2333448 10.1015
12.352489 33.399445 2.2900069 10.1015
12.277665 33.772137 2.2704017 11.112
12.284248 34.161797 2.2707791 11.1265
12.210127 34.599419 2.3408027 11.37825
12.283758 34.80616 2.2286599 11.1295
12.272618 35.374828 2.2653933 11.127833
12.195862 35.753494 2.334564 11.12425
12.1849 36.17429 2.3483584 11.468499
12.135427 36.548161 2.2496152 11.15
12.101912 36.800919 2.3646367 11.131
12.127924 37.467072 2.2258987 10.9397
12.183104 37.819633 2.2020595 10.090375
12.218335 38.286304 2.1968462 10
12.226556 38.587406 2.1772661 9.7486067
12.12582 41.245895 2.0515604 10.1665
12.14987 42.354053 2.0232799 10.163
12.127138 42.463295 2.1248407 10.167
12.164435 43.834679 2.1455212 10.6828
12.217931 45.046726 2.1619945 9.4811459
12.286949 45.402275 2.1312439 9.6808577
12.316432 45.803684 2.1683271 9.7138004
12.272021 46.208321 2.2049129 9.6729221
12.259216 46.554668 2.2394471 10.166667
12.004161 46.8909 2.3793314 10
12.17085 57.52034 2.211935 10.012321
12.085733 57.864285 2.2470083 10.184588
12.050133 58.152031 2.2229776 10.156075
12.051583 58.508293 2.2463865 10.753187
12.244539 59.220661 2.385859 10.0645
12.172956 30.337492 2.6362441 11.013929
12.230612 30.629351 2.6176958 11.71406
12.182651 31.038164 2.6042721 11.3055
12.069255 31.424681 2.4980285 12.457389
12.134631 31.730303 2.5141232 11.103625
12.183762 32.172218 2.4657664 12.813667
12.103358 32.665062 2.5159283 12.6305
12.175529 32.981239 2.481585 12.293583
12.188676 33.346634 2.5292492 12.305083
12.205844 33.754974 2.5886643 12.122
12.185455 34.179211 2.6408808 12.1254
12.189253 34.568268 2.6056983 12.12075
12.249082 34.990463 2.5091386 11.1192
12.196659 35.759666 2.6048477 11.121125
12.214077 36.242523 2.547889 11.120625
12.2039 36.451645 2.6317344 10.88525
12.1735 37.01506 2.5106721 11.131611
12.155109 37.447189 2.5849338 11.141299
12.182802 37.815517 2.5668569 10.617743
12.165763 38.233234 2.5419781 10.584864
12.247293 38.563301 2.6500807 10.9175
12.101578 38.856251 2.68962 10.1565
12.051431 39.799988 2.7249503 10.653999
12.0247 40.078381 2.6818089 10.1565
12.036104 40.696358 2.768111 11.1505
12.054051 40.860527 2.6975 10.151
12.008106 41.975807 2.757617 10.154
12.04946 42.343285 2.6972394 11.122
12.08277 43.111042 2.6395195 11.12575
12.133102 43.291878 2.5984583 10.1325
12.064279 43.882721 2.7128165 11.148
12.220251 45.053425 2.6397376 10.362115
12.214698 45.408829 2.6041999 10.202159
12.184231 45.805122 2.5673132 10.240695
12.191247 46.222202 2.5745778 10.121543
12.191963 46.537132 2.5545681 10.044371
12.04322 46.843094 2.5691719 10
12.20512 57.533123 2.5034752 10.092999
12.112799 57.833363 2.5717885 10.583333
12.089544 58.179039 2.5762613 10.648182
12.056242 58.519711 2.6613023 11.736842
12.221364 30.325178 3.0036652 11.374751
12.24144 30.62077 3.0294721 12.367403
12.18185 30.984722 3.0461488 11.312947
12.068599 31.29665 2.9783001 9.6271658
12.371105 31.663719 3.1115613 10.65075
12.342155 32.252846 3.1198843 11.3845
12.242723 32.616474 3.142993 11.793334
12.267923 33.056656 3.1884286 11.1355
12.305628 33.393051 3.1146741 12.6385
12.300296 33.879501 3.0319877 10.1595
12.307916 34.112297 2.9956224 10.65875
12.156844 34.602352 2.9329348 11.323083
12.234044 35.022221 2.9304616 11.74445
12.246223 35.401554 2.9803498 11.978833
12.168803 35.819241 3.0017927 11.570929
12.119907 36.273853 3.0686214 12.45275
12.161763 36.613434 3.018445 11.473666
12.13839 37.035381 2.9444017 11.800166
12.187712 37.367352 3.0072939 11.637084
12.165588 37.819008 3.0618527 11.312491
12.207258 38.293987 3.005975 10.316838
12.24852 38.596188 2.9473615 10.674667
12.170181 39.014095 3.1221063 10.059999
12.137022 39.773075 3.095984 10.15
12.125969 40.396492 3.0389197 10.1475
12.091368 40.473625 2.989027 10.14625
12.086219 41.012886 2.9907866 10.147
12.061502 41.554588 2.8771381 10.1455
12.133393 44.48201 2.9886973 11.1485
12.179965 45.044666 2.9841356 10.419174
12.267543 45.404949 2.9416959 10.738778
12.295971 45.795135 2.9250183 10.763125
12.279139 46.238667 2.944499 10.692191
12.267281 46.518734 2.9602132 10.512688
12.32512 47.248405 2.9827237 9.1615
12.316553 57.06028 3.1940441 10.13
12.093749 57.842834 2.9717414 11.364523
12.103022 58.158588 2.9661982 11.846154
12.043545 58.514618 2.9733391 12.649633
12.290777 30.270357 3.4526587 12.814222
12.221484 30.616625 3.39382 13.087402
12.215368 31.021725 3.4373834 10.82223
12.092177 31.474342 3.3371038 11.7925
12.2864 31.786329 3.3475955 11.318125
12.308537 32.232063 3.2736981 12.129749
12.257422 32.573616 3.3867126 12.4675
12.319599 32.86306 3.2704616 11.1435
12.276319 33.337997 3.4013846 11.769688
12.285765 33.89735 3.4389818 12.337399
12.220165 34.283577 3.3978879 11.970643
12.272979 34.560665 3.391264 12.125124
12.237731 34.981876 3.3258233 11.280571
12.240098 35.394241 3.3839157 11.577723
12.176143 35.774891 3.3776739 11.709929
12.231184 36.215427 3.4580925 11.759656
12.283603 36.545845 3.4102924 11.9399
12.208583 37.017006 3.4257727 11.7188
12.040116 37.331799 3.2276728 11.1115
12.199752 37.817009 3.3927124 11.591073
12.187649 38.23904 3.3641605 10.801367
12.165231 38.481972 3.3852389 11.6
12.135684 43.32251 3.559876 11.1095
12.160686 43.81797 3.4888282 11.49295
12.006797 44.029922 3.5565462 11.1245
12.179444 44.69091 3.5064039 11
12.23018 45.013222 3.416949 11.250813
12.325268 45.382545 3.4364319 11.481211
12.32637 45.784912 3.457583 11.26178
12.288743 46.216461 3.4081519 11.271056
12.237433 46.52964 3.3554626 11.048823
12.089064 57.823254 3.4239943 12.133333
12.109979 58.176918 3.4539249 12.45175
12.048563 58.512836 3.4149594 13.64606
12.195331 58.854702 3.3404851 9.1169996
12.197509 30.211288 3.8002334 13.24659
12.177711 30.589933 3.7370806 13.243
12.211473 30.860601 3.7570846 13.8
12.279165 31.38533 3.6775703 13.020167
12.227471 31.74913 3.7190821 12.275625
12.196499 32.281273 3.793498 12.276125
12.372876 32.553719 3.6199777 13.0285
12.208537 32.968426 3.8344157 12.534499
12.305905 33.417053 3.7277744 12.86805
12.158332 33.836243 3.7350948 12.647501
12.198925 34.266895 3.7625995 12.686749
12.230125 34.573505 3.7479203 13.140445
12.206027 35.047459 3.7384446 12.679135
12.284281 35.434464 3.7654231 12.679781
12.254606 35.8074 3.7214022 13.05885
12.272406 36.194599 3.8370001 13.597654
12.267596 36.522324 3.8083148 12.561874
12.242548 36.992653 3.7813993 12.718217
12.263928 37.412788 3.7514031 13.01523
12.228684 37.755985 3.7232423 12.666667
12.35476 38.265419 3.6189623 14
12.287226 38.633568 3.7383671 13.810167
12.287649 39.041668 3.7676332 13.554626
12.253431 39.43354 3.7886138 13.563964
12.226768 39.826149 3.7679801 12.983105
12.278271 40.217255 3.8237104 13.269833
12.201696 40.608807 3.7824805 12.52975
12.257432 41.013222 3.7957723 12.743549
12.219203 41.446152 3.8331108 12.306875
12.204873 41.749737 3.7897296 12.722955
12.182364 42.209469 3.8049152 12.07959
12.182631 42.607449 3.8244412 12.083819
12.164483 42.98632 3.8166747 12.3719
12.220529 43.387043 3.7910841 12.140651
12.175917 43.785595 3.8350747 12.807167
12.155072 44.198391 3.8705835 12.721208
12.152457 44.633591 3.8807473 11.461555
12.153903 45.031784 3.8265746 11.573531
12.291821 45.332718 3.7031093 11.2294
12.283118 45.83189 3.7244139 12.1
12.265335 46.20068 3.7064202 11.669417
12.273789 46.575809 3.7153647 11.9109
12.226003 57.068123 3.9137633 11.302928
12.289227 57.528324 3.9112322 14.73604
12.140188 57.775856 3.8430238 13.63779
12.125963 58.134872 3.9249094 14.085278
12.107538 58.593216 3.7651682 14.654153
12.223781 30.163309 4.16467 14.0476
12.191327 30.580147 4.1906538 13.400225
12.257524 30.820906 4.1194067 14
12.290831 31.705147 4.1014428 10
12.171231 32.223137 4.0066729 13.0285
12.148596 32.746216 4.0948195 13.029
12.183759 32.879433 4.1048279 13.533751
12.123352 33.461407 4.1548333 13.367
12.137761 33.818848 4.262289 14.0425
12.128979 34.11422 4.2087793 12.528
12.043034 34.635429 4.3201365 13.032
12.096437 34.936646 4.1548247 12.6995
12.298429 35.338726 4.1264138 14.286938
12.289922 35.755508 4.1213937 13.790375
12.17862 36.241951 4.1800323 13.25345
12.204173 36.575237 4.1465259 13.236932
12.290471 37.018322 4.1403842 13.829541
12.287581 37.390297 4.1105933 13.523479
12.237144 37.738098 4.1551752 12.947369
12.166787 38.319973 4.1649218 12.333333
12.328215 38.68544 4.0772347 15
12.324639 39.05125 4.1732731 13.343166
12.259682 39.490742 4.1532764 12.941
12.301926 39.919167 4.1708107 13.571219
12.274275 40.266769 4.1668153 13.713028
12.299259 40.648056 4.1710777 13.550624
12.258455 40.988789 4.1270671 13.786285
12.250666 41.378613 4.1623025 13.4085
12.239847 41.736198 4.1580925 13.499111
12.229296 42.154926 4.1770554 13.548751
12.223978 42.59436 4.1391964 12.791092
12.212076 42.997185 4.1827054 13.1665
12.229135 43.415802 4.2517796 13.856083
12.235921 43.81731 4.2251825 12.927029
12.197351 44.316528 4.2326589 12.948778
12.163227 44.57975 4.1763868 12.081333
12.229413 45.014091 4.1836314 11.909232
12.296687 45.36068 4.2112374 11.057
12.151028 46.61829 4.1501679 12.3
12.247051 46.829906 4.1283979 12
12.266129 57.049679 4.1958499 10.258
12.131569 57.233021 4.2377701 10
12.232286 57.888409 4.1301932 14
12.18047 58.156261 4.2021122 14.774822
12.058785 58.496243 4.0883298 14.934834
12.214219 30.230425 4.6032567 14.050508
12.168134 30.582743 4.6060729 13.411487
12.250713 30.8393 4.5595708 14.639187
12.289417 42.277588 4.4537287 12.0455
12.200774 46.942738 4.4388151 12
12.225084 57.050716 4.5760322 10.336267
12.307351 57.939346 4.4555135 15.0775
12.189749 58.174252 4.4803014 14.750228
12.104953 58.594379 4.5191574 15
12.173109 59.048615 4.5077991 14.108749
12.136553 59.360786 4.5548182 15.08875
12.24324 30.228489 4.9863367 13.720881
12.168751 30.553228 4.958509 13.539056
12.26955 30.8381 4.9845195 15
12.180545 46.68462 4.9860263 13
12.23601 46.820736 4.9344282 13
12.335379 57.029972 5.0177474 11.4
12.119422 30.26959 5.3910069 14.547455
12.160877 30.593756 5.3599806 14.485304
12.309529 30.827866 5.4642653 14.25
12.157861 46.929932 5.237443 13
12.353698 57.01162 5.3318248 12
12.230747 30.268837 5.8494601 13.764706
12.170408 30.565792 5.7829275 14.229688
12.367425 30.876806 5.7812886 13.666667
12.171946 46.705368 5.8143344 14
12.23255 46.81448 5.7532029 14
12.243729 57.04681 5.851851 12.006001
12.197084 30.20492 6.2300844 14.160857
12.191835 30.531462 6.1886392 14.363471
12.042017 46.914192 6.0548844 14
12.322278 56.96117 6.031136 13
12.180405 30.29513 6.7277083 14.571428
12.13426 30.589863 6.6601958 14.956375
12.152756 30.85215 6.5514317 15
12.081935 46.526001 6.662703 15
12.246045 46.897911 6.7492943 15
12.288627 30.25741 6.9193325 14.571428
12.20213 30.501038 6.9337387 14.875
12.254241 30.88327 6.8702202 14
12.118777 46.87661 6.8541322 15
12.281074 30.539078 7.2417097 15
12.261029 30.969765 7.3524942 14
12.214172 30.181166 7.8222313 15
12.240142 30.894125 7.7659335 15
12.066057 46.89196 9.5501623 15.0955
12.502451 54.075249 -1.7929255 7
12.561378 59.147041 -1.7916892 7
12.55978 35.565102 -1.234091 4
12.669698 35.76749 -1.228645 4
12.430992 37.293266 -1.2054577 4
12.422912 38.374397 -1.5249662 6
12.613306 41.960869 -1.5188203 7
12.46982 42.021301 -1.4735593 7
12.587296 30.77367 -1.1303477 6.5
12.447033 31.052689 -1.1201822 7
12.424343 36.905968 -1.1487842 4
12.673409 37.343632 -1.1351922 4
12.575697 37.861919 -0.99191684 4.5714288
12.629354 38.200378 -0.9463715 4.4444447
12.442204 38.718994 -0.97339219 7
12.428578 38.826553 -0.95762241 7
12.461782 44.306416 -1.0689135 3
12.607563 44.546448 -1.0373546 4
12.464874 45.03838 -0.87738431 4.6666665
12.492026 45.393921 -1.000326 5
12.589822 45.729652 -0.98787951 4.5
12.576432 46.167641 -1.039163 5
12.512082 47.432056 -0.88767618 6
12.622271 49.054264 -0.90685481 6
12.510896 50.570614 -1.0367353 4
12.74031 51.856041 -0.98726684 5
12.783715 53.905849 -1.1208338 7
12.654151 58.836536 -0.90330023 5
12.599859 59.578476 -0.95006239 5
12.535071 30.724796 -0.54661477 7.6660628
12.572905 37.902927 -0.57616514 5.852375
12.615761 38.175301 -0.5260849 5.1428571
12.549664 38.481411 -0.56784755 6
12.529574 44.769417 -0.61331141 4
12.45568 44.988766 -0.59711236 5.0368748
12.425081 45.2509 -0.62831748 4
12.43084 45.79734 -0.63101822 4
12.413073 46.203392 -0.63742936 4
12.42308 46.406662 -0.63870621 4
12.667485 58.56778 -0.57795757 5.5
12.444119 30.367752 -0.23319575 8.0579996
12.626545 30.722811 -0.12911674 6.6923075
12.5581 31.018942 -0.15897009 7.1428571
12.587092 31.360003 -0.12437055 6.909091
12.562366 37.864571 -0.22358486 6.1350312
12.583285 38.255707 -0.16568816 6.1923075
12.565977 38.472004 -0.10324096 6.1666665
12.489071 44.678192 -0.17545846 5
12.462201 44.964191 -0.19086163 6.1666665
12.411639 45.226231 -0.1787163 5
12.424823 45.631413 -0.1752293 5
12.598591 46.255646 -0.083251536 6.5555553
12.642369 58.825272 -0.17596634 6
12.636453 59.997864 -0.28196123 4
12.443665 30.390587 0.30112126 8
12.597207 30.669205 0.27242842 7.5030603
12.659848 30.975245 0.24934188 7.6023202
12.69551 31.282658 0.27346721 7.2727275
12.555965 37.856224 0.22716214 7.0037971
12.585487 38.21682 0.16345716 6.8387098
12.577447 38.43988 0.21192372 6.5
12.510905 44.705837 0.26698273 6
12.437364 44.993504 0.20820576 6.2857141
12.667821 45.231163 0.32060078 7
12.443611 45.673145 0.17064311 6.5
12.614227 46.157791 0.16852127 6.8000002
12.47754 58.776062 0.087170504 6
12.627436 30.661318 0.58353895 7.8566642
12.650411 31.024704 0.64621842 8.1605072
12.632177 31.351271 0.63351208 8.0678806
12.586775 31.610041 0.65853518 8
12.545988 37.879032 0.62382907 7.9235516
12.587096 38.233208 0.62424701 7.7059755
12.600533 38.44923 0.55427074 7.3721108
12.481556 44.948757 0.66516656 7.5559034
12.488303 45.51247 0.76583934 8
12.571945 45.805908 0.77039957 8.0283747
12.700314 46.292488 0.77934343 8
12.682629 59.404289 0.70918608 7
12.625238 59.843132 0.58409762 7
12.623956 30.669577 0.994259 8.5468559
12.670953 31.031015 1.0030445 8.8303328
12.655733 31.297182 0.99795282 8.4460506
12.637025 31.715664 0.87763518 8
12.555408 37.862644 1.0451064 8.1728926
12.55507 38.210537 0.99700576 8.2142859
12.53049 38.428059 0.97879183 8.0300722
12.445123 44.753334 0.89801252 8
12.485144 44.99585 0.95311511 8.083333
12.441859 45.246067 0.87065673 8.1289997
12.607589 45.861732 0.88766205 8.0644999
12.6194 46.281525 0.85687357 8
12.44214 46.534386 0.87299204 8
12.645224 30.661812 1.3890207 9.3450651
12.67052 31.012587 1.4096611 9.6099997
12.671573 31.323988 1.3608834 9.2978334
12.529369 37.882706 1.396327 9.0419331
12.560596 38.219219 1.3983241 9.0065279
12.557053 38.440117 1.3798275 9.0167141
12.52706 45.057945 1.2783138 8
12.461847 45.436447 1.3157514 8.0195007
12.57177 45.867996 1.2677437 8.0164995
12.404298 46.332542 1.4134469 8.0150003
12.626717 57.061623 1.3494496 9.1709995
12.642509 30.675087 1.7931468 10.066581
12.660728 31.037308 1.7934371 10.144896
12.621594 31.359941 1.756076 9.6176796
12.474626 31.713512 1.8615317 9.057332
12.456074 32.029915 1.8492014 9.0249996
12.418705 32.629566 1.9084109 9.340251
12.606838 37.033733 1.8181711 10.163333
12.528913 37.856674 1.8003494 9.5032101
12.535685 38.251476 1.8186052 9.3711405
12.534112 38.439968 1.7474997 9.519166
12.649193 39.745647 1.9865314 10.158
12.592261 41.974121 1.9733449 10.1555
12.65138 43.456627 1.7141206 10.14375
12.623818 44.292355 1.7563514 10.137751
12.448237 45.126251 1.687634 9
12.582868 45.369881 1.6815857 9.0515995
12.510525 45.79229 1.6739069 9.053833
12.617167 46.273785 1.6639959 9
12.418235 46.555996 1.752666 9
12.57134 57.397854 1.8787348 10.057334
12.567698 58.15292 1.8183529 8.033
12.741802 30.302963 2.0033948 10.098
12.633524 30.659538 2.2138472 10.970831
12.642589 31.06813 2.1902587 10.51272
12.671344 31.297297 2.1569095 10.75
12.530543 31.781729 2.1402595 10.591625
12.496021 32.069469 2.3228283 11.6035
12.427418 32.609779 2.3175504 10.101
12.507261 33.541222 2.2610395 11.1125
12.46804 33.650494 2.2088859 11.141
12.526306 35.071445 2.260534 11.1285
12.494782 37.41906 2.1520371 11.1515
12.521402 37.865429 2.1835976 10.28125
12.523162 38.242245 2.1501851 10.154281
12.506121 38.45507 2.1279488 10.180357
12.647262 40.465233 2.0061405 10.1575
12.753773 42.18018 2.2430727 11.112
12.606118 43.87738 2.1597652 10.7875
12.693695 44.306259 2.0841992 11
12.501667 45.089317 2.2170243 9
12.486981 45.419178 2.1880469 9.0235004
12.65328 45.821903 2.2876461 9.7071667
12.55528 57.033569 2.1491399 9.165
12.574184 57.552608 2.2285242 10.008179
12.616975 57.652863 2.2874084 10
12.756153 58.365562 2.3557076 10.136
12.473984 59.169754 2.2057004 9.1540003
12.591489 30.371002 2.7010703 11.2673
12.622738 30.650272 2.6152747 11.777244
12.66445 31.050188 2.5913875 11.785735
12.618817 31.34367 2.5495727 10.863942
12.54527 31.679384 2.5733252 10.61657
12.646099 35.443245 2.6010456 11.1035
12.576473 37.468498 2.5569012 11.152
12.534515 37.846172 2.5685935 10.818182
12.537969 38.206203 2.587285 10.959662
12.558188 38.450172 2.5982451 11.457201
12.743848 41.732403 2.4903045 11.1485
12.450239 44.47097 2.6790905 11.09925
12.550319 45.119026 2.536653 9.8233004
12.54572 45.440266 2.5408471 10.043
12.53876 45.81361 2.599896 10.356137
12.664899 46.215088 2.4891741 10
12.440611 46.439114 2.5118575 10
12.514052 57.153019 2.4696121 10.1675
12.524467 57.462318 2.4738581 10.0983
12.622938 57.802383 2.5184748 10
12.607849 30.337786 3.007962 11.240334
12.635634 30.648737 3.0187798 12.524961
12.701672 31.025318 3.0075343 12.678705
12.630596 31.330666 2.9513509 11.252611
12.526448 31.757494 2.9603696 10.069583
12.529533 32.264523 3.1516504 11.471334
12.407145 32.877575 3.1859937 12.158
12.478819 35.465343 3.0125418 12.616501
12.653947 35.681709 3.0445683 13.12525
12.617598 36.292404 3.0630262 13.119
12.542296 36.600452 3.0150187 12.097
12.55419 37.489925 2.9580266 12.131667
12.517803 37.853661 3.0661752 11.78925
12.519451 38.278412 3.0425432 10.983326
12.581844 38.499203 2.9928031 11.389287
12.677707 44.724262 2.978621 11.148
12.50379 45.078407 3.1242356 10
12.436289 45.409065 3.0308361 10.51175
12.594222 45.89399 3.0560906 10.55
12.635062 58.962158 2.8600399 10.0545
12.572594 30.281946 3.5020273 13.794834
12.622624 30.640858 3.3851073 13.211231
12.652286 31.071075 3.4361277 12.371162
12.635446 31.342392 3.3780246 12.331892
12.619451 31.68952 3.4434295 11.8622
12.467493 32.299633 3.4668138 12.1315
12.471396 32.519669 3.4677532 12.803416
12.508834 32.81884 3.5672011 13.128
12.466516 33.380096 3.4405468 10.6485
12.52918 34.539791 3.4729705 12.653999
12.488776 36.007195 3.5790935 12.118
12.564355 37.021519 3.491399 12.289445
12.633185 37.441978 3.2818511 11.6315
12.525981 37.865688 3.4187448 12.058824
12.532509 38.218102 3.3618608 12.036144
12.491584 38.42585 3.3874979 13.057875
12.629568 43.323536 3.473352 12.418834
12.656001 43.939003 3.5123026 11.056
12.57371 44.060162 3.5544333 11.125167
12.705295 44.613209 3.5114174 11.284395
12.541846 45.010769 3.4740186 11.044209
12.603138 45.402187 3.444746 11.521251
12.63165 45.787544 3.3283885 10.6
12.651635 46.201736 3.3258877 11
12.417311 46.459671 3.3363783 11
12.420582 57.732773 3.255928 10.134
12.740967 58.8866 3.3199253 9.1199999
12.57282 30.208246 3.7972088 13.235941
12.595205 30.618238 3.7553029 13.405257
12.708537 31.01738 3.7207949 13.74463
12.539077 31.433231 3.7235403 14.582465
12.548872 31.749889 3.7549534 13.724733
12.545548 32.178066 3.7775879 14.209088
12.539768 32.609406 3.733542 13.976624
12.510867 33.001984 3.7561588 14.133721
12.511602 33.409946 3.8018117 14.113195
12.490486 33.809734 3.8167112 14.142682
12.472366 34.212868 3.8110762 13.904316
12.453262 34.627796 3.7966032 14.074483
12.451189 35.017471 3.7742691 13.868142
12.438775 35.399864 3.7610373 13.772656
12.44895 35.799892 3.7607198 13.596519
12.436744 36.240219 3.8152645 13.566967
12.43254 36.626007 3.8577535 13.299459
12.479634 36.92474 3.7679336 12.458142
12.490109 37.504234 3.816637 12.2052
12.562831 37.845398 3.8161831 12.931034
12.597607 38.197628 3.705888 13.077767
12.42473 40.182827 3.7488282 12.1205
12.411315 40.982422 3.8543673 12.12
12.420689 43.066025 3.8535118 11.0285
12.586072 43.326996 3.6478024 10.53825
12.407485 44.045261 3.9765429 11.028
12.546412 45.086517 3.8017149 12.53275
12.602916 45.33839 3.8637874 11.750667
12.578321 45.831329 3.775332 11.04775
12.511975 46.761917 3.7981744 11.50775
12.558856 46.893837 3.7474658 13.027124
12.576924 57.101559 3.9512119 10.732285
12.651581 57.347755 3.8942564 13.460283
12.605952 57.716549 3.9229813 14.644125
12.572397 58.207863 3.9050453 14.264714
12.579204 58.684704 3.785274 14.135344
12.611389 30.191978 4.1810684 13.999426
12.584873 30.607485 4.2003403 13.650387
12.645384 30.887409 4.1905274 14.2129
12.565378 31.380884 4.0842214 15.036375
12.55605 31.825029 4.1047201 14.882291
12.574529 32.242405 4.1621356 14.868299
12.567124 32.619316 4.1927319 14.605786
12.540154 32.974354 4.1740046 14.644821
12.531657 33.303284 4.1294789 14.776814
12.512716 33.790836 4.1273685 14.744225
12.540459 34.21349 4.1087775 14.195822
12.525033 34.65398 4.1607189 14.265184
12.53706 34.996616 4.1600189 14.245801
12.497785 35.391762 4.211854 14.238653
12.510739 35.833485 4.2460918 14.161933
12.559054 36.207798 4.2795372 14.121208
12.548906 36.539742 4.2534328 13.474215
12.538119 37.014175 4.2405543 13.813601
12.575201 37.3587 4.2080555 13.479785
12.540005 37.855305 4.1681776 13.178572
12.610826 38.098618 4.1012096 13.0505
12.565455 38.880898 4.2815676 11
12.400831 39.317806 4.2316804 11.132
12.573664 39.778286 4.3353796 14.026375
12.650909 40.293262 4.3164811 14.381249
12.651945 40.618195 4.3304348 13.5105
12.640054 41.026928 4.3184209 13.673749
12.496664 41.922215 4.3281889 14.1125
12.631661 42.172173 4.316175 14.1135
12.640768 42.481789 4.3138962 14.112
12.415395 43.03093 4.3757834 13.0225
12.551875 43.424698 4.3550367 13.3475
12.626474 43.82954 4.2840505 12.406001
12.654913 44.167076 4.3532114 13.064625
12.527753 44.651093 4.2439566 11.666667
12.504183 45.074654 4.2135053 12.21245
12.593194 45.324135 4.1648278 12.035071
12.578649 46.598965 4.1190176 12
12.644715 46.839088 4.1478281 12
12.625134 57.075092 4.1192222 10.071428
12.487627 57.235249 4.2435136 10
12.590667 57.918694 4.1480155 14.292376
12.606945 58.125973 4.1409993 15.009283
12.608891 30.21059 4.5896716 13.919717
12.587668 30.636662 4.5886359 13.258433
12.665028 30.851191 4.5258698 14.285714
12.729669 33.564548 4.4236755 14.05525
12.408647 35.503864 4.4085183 13.0425
12.695639 35.664665 4.4114857 13.042
12.471969 36.716415 4.4767718 13.02575
12.6261 36.971794 4.4714518 13
12.550504 37.817207 4.4128904 13.017334
12.716264 42.232281 4.4508491 12.045
12.606139 46.952225 4.4193416 12
12.493233 52.811523 4.6987882 10.0845
12.611177 57.04948 4.5947504 10.8105
12.702869 57.210365 4.6517844 13
12.759876 57.901962 4.5406599 15
12.592838 58.163494 4.4811902 15.069751
12.666739 58.656723 4.5562811 15.0905
12.445229 58.962761 4.5524178 15.08975
12.621069 30.20602 4.9815845 13.764874
12.546731 30.550518 4.9952149 13.561866
12.669878 30.887253 4.9536633 13.666667
12.62807 46.678188 4.946929 13
12.617062 46.825958 4.9624953 13
12.666362 57.072056 5.0749369 11.714286
12.594408 30.235819 5.3968892 14.835273
12.634812 30.507509 5.3568826 14.124417
12.589881 30.879944 5.4382429 14.666667
12.523282 46.933624 5.2141552 13
12.681691 57.016205 5.3208714 12
12.672327 57.224922 5.3637943 14
12.5555 30.263895 5.8244104 13.556273
12.573353 30.555725 5.8263922 14.120999
12.599557 30.871548 5.8276558 14.025126
12.614101 46.704762 5.7964311 14
12.619698 46.825993 5.7801328 14
12.614539 57.050861 5.8491411 12.335251
12.649692 30.158865 6.1283689 14.2037
12.595669 30.519608 6.1967287 14.534249
12.686355 30.956785 6.1782851 13
12.559622 46.931061 6.010427 14
12.791381 57.078667 6.0277138 13
12.650049 57.224873 6.0847902 15
12.543385 30.263247 6.7117372 14.25
12.578612 30.545591 6.622479 15.0425
12.434327 30.923256 6.5795584 14.5
12.604777 46.559254 6.6292953 15
12.647598 46.880123 6.7706146 15
12.537692 56.912231 6.6069856 15
12.533986 30.20999 6.9163342 14.428572
12.633466 30.524826 6.982172 14.910199
12.6212 30.894318 6.994185 14.033501
12.447371 46.885433 6.8219476 15
12.708262 30.559296 7.318099 15
12.55602 30.9716 7.4009862 14
12.581397 30.221378 7.7930331 15
12.783699 30.641916 8.3449306 15
12.540501 31.103077 8.6617317 15
13.176104 52.8936 -2.8621943 6
12.839761 54.023804 -2.2259932 7
13.035167 59.102074 -2.0974946 8.0974998
13.117048 54.212517 -1.7644874 7.5469999
12.841033 36.061646 -1.2200314 4
13.083107 36.448975 -1.2079555 4
13.16006 40.938473 -1.3878925 7
12.92927 53.92461 -1.2571441 7
12.979671 59.077744 -1.2125156 7
12.875695 30.753834 -1.161164 6
12.826793 31.064003 -0.89377767 5
12.963181 37.772068 -1.1255921 4
12.996842 38.337914 -1.1759572 4
13.002389 38.566338 -1.1433855 5
12.958351 39.006054 -1.0640637 4
12.971326 42.764465 -1.1327833 6
12.852892 45.077862 -0.94535297 6
12.929545 45.868782 -0.96085179 5.5
12.862899 46.121758 -1.0281243 3
13.052202 46.636032 -1.012078 3
13.176592 46.818707 -0.99815619 3
12.903009 47.297569 -0.8735252 6
13.057286 49.188625 -0.95765471 5
13.102094 54.823769 -0.89941543 4
12.896693 59.807041 -0.94071066 5
12.811374 30.499353 -0.48249882 8.1479998
12.838758 45.663036 -0.75996655 6
12.892193 30.637178 -0.14291543 6.6311007
12.812797 30.976494 -0.18326505 6
13.122996 40.638702 -0.091507308 7
13.146655 40.801861 -0.074272953 7
12.837612 44.99688 -0.097442865 7
12.821904 45.378887 -0.075069629 7
12.811585 45.742668 -0.068241149 7
13.118462 53.858906 -0.096128963 6.3333335
13.077183 58.822334 -0.15069711 6
12.837339 30.655937 0.32454145 7.6295996
12.819592 30.961292 0.34182161 7.0833335
12.837597 31.263958 0.33931774 7.3333335
13.188681 40.896927 0.26625779 7
12.810922 45.743355 0.063682109 7
12.87331 59.956318 0.34825006 6
12.830041 30.664658 0.5990358 7.7272725
12.84423 31.008415 0.64433885 8.0101671
12.822608 31.271101 0.58055991 8.0485001
13.036235 38.152164 0.70732975 8
12.826995 45.034355 0.78475958 8
12.817691 45.560417 0.77493519 8
13.071959 53.920731 0.42774695 7
13.05721 59.950615 0.47783807 6.2380953
12.868355 30.69245 0.95079339 8.2777777
12.843137 31.059256 0.98605406 8.5097914
12.847466 31.233658 0.88803506 8.166667
12.815184 45.534004 0.80356401 8
12.852123 30.660053 1.4230245 9.1000004
12.834955 31.018751 1.3427535 9
12.835152 31.2444 1.3806161 9
13.128195 57.058014 1.3080039 9.1669998
12.852468 30.669926 1.7733407 9.666667
12.854329 31.038147 1.8221997 9.7058821
12.824178 31.259781 1.9209187 10
13.198631 37.738762 1.8258188 9
13.025386 38.149548 1.8131902 9
13.044471 39.983204 1.8698419 9.0155001
12.997877 42.206264 1.8185941 9.0115004
13.148215 43.471874 1.7549038 10.117
12.984864 43.777367 1.8176197 9.5797501
13.135509 44.320213 1.7636818 10.15
12.812285 45.016479 1.6647196 9
12.801704 45.584854 1.6456115 9
12.801433 57.004177 1.9786401 9.1619997
12.90185 57.477959 1.9899286 10
13.036286 30.1504 2.2815051 9.0825005
12.887728 30.598442 2.1999245 10.475944
12.871136 31.071451 2.1863947 10.137625
12.817361 31.257305 2.2337797 11
13.152067 31.89691 2.1499956 11.161
13.016343 32.130257 2.3143342 11.629749
13.021171 34.114265 2.225528 10.66475
12.875036 35.09753 2.1390028 10.165
12.935284 35.511318 2.2222846 11.157
13.029014 37.393909 2.2305362 11.129964
12.833704 37.647556 2.1897464 10.60775
12.966471 38.1315 2.1775882 11.1505
12.980372 38.852695 2.1690385 11.148251
12.881757 39.808018 2.279233 11.149
13.066123 43.927261 2.1875589 11
12.965753 44.325897 2.0717554 10.57475
12.963199 45.085236 2.3077364 11.132
12.935012 45.812084 2.2631667 10.477
12.961882 57.548592 2.2403114 10.04427
13.031969 57.631924 2.3051991 10.080928
12.876737 58.436821 2.334511 10.1155
12.935315 30.633596 2.6293509 12.102419
12.851719 31.041265 2.54263 11.846154
12.816439 31.241934 2.5574958 11.025126
13.051288 33.471382 2.442961 12.099
12.979356 34.630302 2.5005207 12.1015
12.966271 35.375206 2.4888422 12.1045
12.800808 36.92205 2.6226492 10.155
12.904221 37.445183 2.6695032 11.1535
12.955903 38.513119 2.6526508 12.118
13.101937 41.738747 2.6734748 11.147
12.801425 42.482933 2.4446597 11.144
13.047115 43.212906 2.5258448 10.12
12.903631 45.021851 2.5032411 10.050834
12.932703 45.294487 2.6128676 10.0625
13.006932 45.872375 2.6109796 11.10575
12.977262 57.716198 2.50173 10.048167
12.959442 30.322161 3.0505259 11.565624
12.93732 30.634592 2.9827621 12.593278
12.887795 30.999512 2.9615731 12.233115
13.024679 31.344114 3.0935512 12.6
13.087905 34.697063 2.9064133 13.1135
13.01338 35.545109 3.116358 13.1085
12.975223 35.864506 2.9431243 13.141
12.97569 36.633049 3.0134676 12.0965
13.184032 37.804676 2.9408708 10
13.054297 38.206352 2.9242609 10.07775
13.012917 38.550636 3.0174882 10.969055
12.973132 45.877846 2.8567011 11.096
12.910895 47.083752 2.9929979 10.1325
12.830601 58.443111 2.8677728 10.045
12.97867 30.246515 3.5374563 13.950399
12.974692 30.607821 3.4220796 13.142385
12.944835 30.923035 3.478327 11.879528
13.062783 31.506994 3.3718021 12.016
12.972381 31.726034 3.3770223 11.333333
12.809079 34.783218 3.4800417 13.1495
13.072282 34.980247 3.4798276 13.149
13.014573 36.995155 3.5040584 12.292846
13.098094 37.389313 3.3094869 11.103001
12.964174 37.630623 3.3331568 12.1515
12.906042 38.466763 3.274559 12.149
13.044807 43.257835 3.5329773 11.0165
12.901434 43.82531 3.4546659 12.61175
12.97043 44.086494 3.4758146 11.849376
13.090756 44.629433 3.5306532 11.133104
13.003211 30.224974 3.7805722 13.512658
12.977451 30.609118 3.7673037 13.195134
13.049823 30.903652 3.7397869 13.48223
13.036191 36.933346 3.731652 12.169213
12.942088 37.956192 3.8506062 12.900714
13.045508 38.084579 3.8355527 13.264167
13.177761 41.121437 3.927392 12.1235
13.18787 41.672581 3.7872615 11.0375
13.149473 43.254974 3.6622145 11.0495
13.05194 44.626682 3.6079981 11.129001
13.024426 45.341579 3.8807232 12.406083
12.965382 47.250122 3.9254282 9.0144997
13.082294 57.087597 3.9543977 11.543437
13.029181 57.388382 3.9280744 14.317407
12.973919 57.809814 3.9337823 14.861936
12.954099 58.13773 3.9590478 14.980792
13.028675 58.677814 3.7852774 13.971964
13.02417 59.585995 3.9644535 15.1525
12.990298 59.89193 3.8392856 14.637
12.999641 30.17429 4.1680951 14.185558
13.026513 30.613293 4.1787181 13.532409
13.011888 30.902235 4.1790833 14.2157
12.958842 32.651917 4.2454057 15.0315
12.927856 33.120277 4.2257609 14.57425
13.04626 33.435539 4.2441311 15.061
12.898635 33.8624 4.210844 15.11975
13.005514 34.193668 4.238997 15.066
12.974999 34.618984 4.299509 14.524563
12.990973 35.048271 4.2412095 14.344001
13.036655 35.41246 4.2277427 14.08875
13.045591 35.736816 4.2311378 14.059375
12.975022 36.22747 4.2976689 13.468214
12.978828 36.667522 4.2751813 14.311625
13.017502 37.014084 4.3287067 14.517062
12.96835 37.398121 4.2604227 13.061312
12.987218 37.87215 4.2229586 13.871166
12.92907 38.117416 4.0506792 11.77375
12.971665 38.440804 4.0064201 11
12.850875 38.843155 4.2864041 11.1325
13.00283 39.945297 4.3519597 14.024
13.011395 40.020447 4.3436065 14.026
13.002558 40.600342 4.3298726 14.03725
13.018591 41.065929 4.3443952 13.62645
13.019203 41.402828 4.3351974 13.6735
12.865263 42.302177 4.3357315 14.112
13.044942 42.553749 4.3291178 14.1125
12.931274 43.434204 4.3693047 12.7155
12.901706 43.970795 4.3254094 13.061251
13.043508 44.18576 4.2770066 12.791374
12.852377 44.795292 4.3476787 12.1175
13.00179 45.346916 4.2007942 11.517308
12.925021 46.620918 4.089613 12
13.009346 46.851482 4.1717901 12
13.01856 57.068127 4.2047215 10.326705
12.846503 57.247681 4.2504621 10
13.023466 57.962677 4.0601449 14.092
12.966025 58.142746 4.1888509 15.003228
13.031454 59.569122 4.1551189 15.155
12.992886 30.21364 4.5983639 14.023738
13.010257 30.637522 4.5834913 13.792833
13.011985 30.913805 4.5337353 14.444445
13.013136 33.430515 4.4716535 14.05325
13.120808 33.746559 4.4306531 14.0545
12.984562 35.82695 4.4156609 13.0415
13.000786 36.984741 4.5116439 13.033834
12.954878 37.868698 4.4140778 13.02575
12.809562 42.759903 4.4780087 12.05
12.919209 43.886955 4.4039245 13.0195
12.889041 46.954628 4.406961 12
13.005764 57.066647 4.5560317 10.9141
13.026981 58.179508 4.4682245 15.153666
13.051929 58.526527 4.5222197 15.155375
13.164261 58.819283 4.5291734 15.15625
13.021384 30.232418 4.9781141 13.501667
13.057603 30.552626 4.9830666 13.556666
13.042053 30.935743 4.9648447 14.6
13.143392 46.730309 4.9900136 13
13.01263 46.836971 4.9866629 13
12.852255 57.075214 5.0607734 12.333333
12.962455 57.295879 5.0826459 11.428572
12.901935 30.262583 5.3752737 14.684499
12.96023 30.548067 5.3770537 14.048875
13.025089 31.020227 5.471097 14.4
12.827835 57.178379 5.3420095 12
13.097138 57.342239 5.3512268 13.369166
12.957112 30.286211 5.7665968 13.784562
12.999181 30.585991 5.8090677 14.188654
12.859182 30.962795 5.8863878 15
13.050839 46.706184 5.7911348 14
13.005004 46.831696 5.8048334 14
12.951031 57.148567 5.8321466 13
13.144638 57.260853 5.8871675 12
13.077533 30.207823 6.1180277 14.4
12.999522 30.545471 6.2461057 14.428572
13.081098 46.828938 6.0270233 14
12.997239 57.294582 6.0433702 13.6215
13.018086 30.263647 6.6885333 14
13.003296 30.524706 6.6215825 14.8472
12.858701 30.829609 6.7370386 14.700333
12.995934 46.580948 6.6197133 15
12.984914 46.872555 6.741519 15
12.947338 57.125473 6.6009569 15
13.000222 30.272341 6.9117889 14.6575
13.029284 30.57696 6.9897017 15.018143
12.882752 46.891178 6.8000541 15
13.082097 30.581404 7.3864908 15
12.952157 30.263422 7.7070999 15
13.021155 30.138418 8.0801163 15
13.09585 58.449886 9.10748 14.0415
13.595551 38.759609 -2.6246402 6
13.554769 53.91254 -2.6607292 6
13.248148 58.933678 -2.4610174 7
13.26795 59.08345 -2.1923327 7.730166
13.381935 54.063782 -1.8950305 7
13.459281 31.929766 -1.3075223 3
13.465261 32.315411 -1.2983103 3
13.481623 32.700977 -1.2892492 3
13.496555 33.084431 -1.2825924 3
13.541415 33.466515 -1.2723957 3
13.571263 59.923191 -1.2634754 8.1674995
13.392419 33.150928 -1.1811045 4
13.564521 36.203972 -1.1949558 4
13.272586 36.735386 -1.1987685 4
13.468462 37.015076 -1.1895009 4
13.41541 38.291759 -0.92854279 4.6666665
13.384555 38.649803 -1.1266533 4
13.379963 42.47303 -1.1330949 6
13.455863 43.293659 -1.0583491 6
13.377167 44.676918 -1.089223 3
13.294414 46.118389 -0.99974334 7
13.403858 46.513054 -0.93265301 6
13.535738 47.041019 -0.82312369 6
13.432004 47.302723 -0.97590232 3
13.562334 47.607121 -0.9684211 3
13.563442 50.454227 -0.91078627 5
13.492501 54.262669 -0.86060673 5
13.295145 54.63884 -0.89547795 4
13.377851 58.785484 -0.90042567 5
13.356884 59.413269 -0.94291788 5
13.227903 59.981285 -0.92614502 5
13.45389 30.287973 -0.4392817 5
13.515072 38.237354 -0.78262603 5
13.472446 38.414112 -0.50384462 5.5
13.367054 42.712635 -0.66594505 6
13.513814 53.656818 -0.75257903 5
13.336772 58.666168 -0.40768698 6
13.530564 30.231842 -0.15750398 6
13.590875 38.427776 -0.396474 6
13.365293 40.77417 -0.028550791 7
13.535425 40.840851 -0.0094434107 6
13.476725 46.532253 -0.30526921 8.0819998
13.440683 53.968155 -0.057271007 6.1176472
13.524364 40.759327 0.12652092 7
13.416574 53.866554 0.31504288 6.8000002
13.375017 58.731724 0.11369821 6
13.471429 59.861938 0.30243257 6
13.370989 30.972214 0.64989877 8
13.216708 37.838364 0.70969844 8
13.317763 53.853355 0.45570105 7
13.236626 58.926487 0.57872975 7
13.371183 59.505894 0.72667527 7
13.428765 59.871731 0.59661579 6.8000002
13.501413 57.150097 1.4670289 9.1709995
13.416356 30.94861 1.9921737 9
13.253968 37.086983 1.8400904 10.1625
13.503902 37.60717 1.8658637 9.0185003
13.439835 43.920223 1.8184074 10.116833
13.510194 44.074226 1.8609279 10.116
13.295017 45.552094 1.935406 10.1145
13.420064 57.472511 1.9256396 10.0343
13.418565 30.550682 2.3291318 11
13.408426 31.020889 2.3215985 10.393001
13.475864 31.899775 2.1694283 11.64775
13.300344 32.131527 2.355345 12.1265
13.291986 35.958981 2.2425792 12.1405
13.288109 36.434826 2.2491472 12.135
13.372036 37.423252 2.3186693 11.759917
13.355441 37.686272 2.1855471 10.60725
13.449272 43.959324 2.1914968 11
13.448731 44.32254 2.0421159 10.149
13.424467 44.436687 2.0883377 11
13.334917 45.87471 2.3743727 11.126167
13.49616 57.084965 2.1607437 9.1645002
13.379017 57.577583 2.1972988 10
13.426934 57.636658 2.3134174 10.043778
13.421201 30.597538 2.6140294 12.245689
13.348251 30.904249 2.6380074 12.000799
13.439745 31.290575 2.5712078 13
13.2338 31.772411 2.7103846 10.144
13.269696 32.626389 2.5448115 11.9593
13.548093 34.739044 2.7846045 11.158
13.490898 36.239029 2.6961517 11.1555
13.502251 36.944073 2.6523094 10.1545
13.395386 37.289116 2.6747296 10.652
13.442815 38.539001 2.7184885 11.620251
13.597882 39.072933 2.6634374 10.1465
13.206385 39.552929 2.5339983 11.148
13.201706 41.660347 2.6103191 10.1555
13.430779 42.251949 2.4299901 10.1145
13.42475 42.464203 2.7352576 11.122
13.37597 45.810497 2.6527202 10.621667
13.438402 46.059586 2.511394 10.11
13.402073 57.347363 2.5337911 10.122666
13.412333 57.805664 2.5043933 10
13.340443 30.372593 2.9889431 11.57975
13.372627 30.652941 3.0365007 13.18475
13.442204 30.875679 2.9805686 12.770437
13.276867 31.305799 3.1192477 13
13.561346 31.871918 2.9159484 12.113
13.568338 32.843929 2.8054037 10.137
13.365499 35.701866 3.0826089 13.111167
13.414689 36.699924 2.9962366 12.612499
13.373107 37.330044 3.0237055 11.469333
13.327329 38.237896 2.9324763 11.1255
13.457801 38.537029 2.9807129 11.45625
13.349662 39.765057 2.880645 10.145
13.325752 40.335201 2.838208 10.1445
13.233975 41.709503 2.8960986 11.1505
13.255177 45.425205 2.8024888 10.163
13.494509 45.864559 2.8652744 11.115833
13.431234 46.011292 2.9210384 11.09675
13.45794 30.236311 3.4686029 13.030222
13.385185 30.598265 3.3918765 12.514404
13.41563 30.907888 3.4249954 12.043612
13.401887 31.465376 3.3650479 12.678807
13.42527 31.676552 3.3535192 12.0392
13.50334 36.369457 3.4642863 12
13.4757 36.705551 3.516257 12
13.402118 37.003231 3.5054867 11.8316
13.203094 37.238209 3.4167171 10.12
13.467924 39.952324 3.5822988 12.6075
13.473253 40.222233 3.5650392 15.1385
13.476577 40.642471 3.5585561 15.068874
13.466363 40.965736 3.5592599 15
13.449528 41.409805 3.5649676 15
13.486107 41.839024 3.5776424 13.704999
13.434372 42.167858 3.5827172 15
13.472232 42.534031 3.5748129 13.064
13.423831 43.272469 3.5259736 11.854949
13.434921 43.846313 3.5290544 11.081625
13.43084 44.133266 3.5388911 11.1275
13.411278 44.627438 3.5463843 11.1335
13.391506 57.342415 3.2421844 10.1295
13.391369 30.219151 3.7717972 13.093057
13.389365 30.641939 3.7431209 13.643569
13.399106 30.904964 3.7427609 13.474723
13.54324 36.34296 3.6691582 11.0265
13.339686 36.660275 3.9999444 13.126
13.461086 36.956688 3.712661 12.277778
13.445137 37.913975 3.8157976 13.188973
13.493441 38.160686 3.7401676 12.860138
13.500657 38.656395 3.6320872 13.601999
13.549235 39.38855 3.7944698 14.397667
13.563335 39.648418 3.6662643 13.026
13.536277 40.26738 3.6493173 13.571
13.531802 40.477783 3.6501541 12.52275
13.479926 41.112598 3.6359956 11.560249
13.53219 41.302956 3.8003957 11.604
13.524767 41.825764 3.7904911 11.57975
13.414376 42.752728 3.6216111 13.341834
13.595245 43.042282 3.7370067 11.0235
13.510691 43.272213 3.6518934 11.6965
13.527794 43.955063 3.7644062 11.143333
13.394858 44.061508 3.7657175 11.61825
13.467811 44.549374 3.7116797 11.13725
13.406156 45.426842 3.8391919 12.4783
13.345015 45.879517 3.7833936 12.563875
13.530127 46.272415 3.7771678 14.032
13.429978 57.093388 3.9499238 11.904083
13.486263 57.398796 3.941967 14.049025
13.331651 57.900028 3.9366977 14.797226
13.368273 58.024582 3.9413881 14.956265
13.385427 58.692329 3.7811329 14.565263
13.426708 30.208122 4.1618156 13.817212
13.378771 30.578207 4.1807132 13.119968
13.409677 30.950972 4.2028809 14.229499
13.327909 31.966724 4.2596388 15.03
13.417946 32.704224 4.2392654 14.5775
13.291914 33.275467 4.2614284 15.03
13.313759 33.914162 4.3011436 14.284
13.525695 34.570404 4.3175831 13.577126
13.342125 35.406834 4.2041969 13.4505
13.423262 36.253551 4.2337875 12.903167
13.313615 36.553749 4.3199186 13.0285
13.35044 36.989994 4.1720114 12.738667
13.521618 37.316498 4.2254953 12.0955
13.345288 37.94931 4.1332107 12.963722
13.364963 38.121326 4.0685177 12.04725
13.370598 38.905067 4.2874084 11.135
13.578519 39.315998 4.1241517 14.0265
13.453763 41.25631 4.004447 14.1125
13.473777 41.929089 4.1397495 12.4699
13.490791 42.003201 4.1251082 14.1115
13.436507 43.965782 4.0458665 12.0175
13.447175 44.2006 4.1295838 11.0645
13.445996 44.54324 4.1315465 12.380333
13.400151 45.367023 4.1409588 11.435072
13.390222 46.631454 4.1189041 12
13.437967 46.875057 4.2177305 11.957782
13.423448 57.096947 4.1268001 10.076923
13.403282 57.280922 4.2629414 10
13.280503 57.97654 4.283391 15.078751
13.391385 58.151352 4.1892152 14.968331
13.40992 30.238785 4.6150837 13.73166
13.391278 30.596563 4.582602 12.822971
13.389132 30.924309 4.6063762 14.0162
13.427804 33.728889 4.4505844 14.053249
13.271069 35.985565 4.4204874 13.041
13.489858 37.122627 4.5390902 13.05
13.409835 37.265324 4.4855781 13.017166
13.369717 37.857224 4.4131393 13.016999
13.213097 42.222916 4.4562817 12.0445
13.390747 57.084557 4.6107507 10.630051
13.449201 57.241611 4.5739694 12.033166
13.401366 58.234116 4.4929924 15.153916
13.430405 58.975983 4.5275717 15.156625
13.549023 59.255386 4.5430202 15.1575
13.443301 30.219976 5.0214591 13.564417
13.414014 30.516216 4.9976435 13.118833
13.475484 30.907583 4.9817157 14.75
13.387086 46.710247 4.9967141 13
13.226115 46.83812 5.130383 13
13.406867 57.138786 5.066299 12.006625
13.406767 57.281055 5.0556264 11.252625
13.407219 30.256811 5.3747711 14.614611
13.425408 30.523434 5.3993373 13.799723
13.416952 31.048489 5.446651 14.666667
13.446859 57.125938 5.313457 12
13.453662 57.32534 5.3010817 13.026751
13.398161 30.293762 5.7668514 13.843863
13.417054 30.545677 5.7886548 14.351649
13.356151 30.89068 5.8013744 14.2201
13.416656 46.736759 5.838068 14.020785
13.299492 46.823132 5.8833938 14
13.42092 57.116982 5.7720709 13.205501
13.461693 57.27108 5.9633908 12
13.386556 30.199415 6.1478095 14.186917
13.428872 30.560381 6.1557398 14.2955
13.38292 46.757622 6.044486 14.087201
13.426986 57.315456 6.0253811 14.369
13.354853 30.256849 6.6843109 14
13.432043 30.56369 6.5408783 14.512563
13.279906 30.830889 6.707243 15
13.406483 46.646061 6.6779351 15.024917
13.39945 46.830269 6.7249231 15
13.482595 57.124134 6.5227065 15.005501
13.396403 30.239691 7.0383668 14.565909
13.417507 30.586748 6.9827795 15.0254
13.524805 30.923744 7.0859804 14.1005
13.498375 30.576799 7.3322482 15
13.569718 31.020903 7.5706792 14
13.470034 30.278831 7.7225242 15
13.458593 30.439276 7.9871149 15
13.45559 30.147821 8.1962872 15
13.449107 30.983501 8.8328333 15
13.948384 57.992535 -3.1824732 6
13.7875 39.484238 -2.7908018 6
13.786394 54.262257 -2.4379466 7
13.761045 38.745064 -2.0665629 6
13.854031 54.224911 -1.7618293 7.5467501
13.626637 59.079212 -1.8843834 7
13.891741 30.316338 -1.3857633 4
13.716185 30.527962 -1.3834728 4
13.76098 32.087624 -1.21292 3
13.832429 32.588505 -1.2296489 3
13.624811 33.843243 -1.2570472 3
13.705546 34.314102 -1.2453343 3
13.770762 34.78735 -1.2396141 3
13.849872 35.16058 -1.2323763 3
13.955951 35.576633 -1.2236074 3
13.853755 40.228855 -1.4487121 7
13.720572 32.456741 -1.1937027 3
13.681477 33.013138 -1.1828631 3.5
13.679876 33.284222 -1.1836699 3
13.689279 33.755459 -1.1735948 3
13.710472 34.105946 -1.1650753 3
13.750677 34.560146 -1.1548653 3
13.756666 34.922527 -1.1528119 3
13.78179 35.339359 -1.1496631 3
13.81418 35.747749 -1.1439245 3
13.76376 36.265453 -1.163673 3.5
13.885058 36.555523 -1.1548109 3.5
13.742984 37.377701 -1.1762811 4
13.835308 38.158928 -1.0135384 4.5
13.703865 38.586262 -0.95466346 4.5
13.850718 39.036736 -1.1006908 4.25
13.820205 40.843525 -1.0838822 5
13.794921 42.184101 -1.1333261 6
13.868933 43.034298 -1.0574391 6
13.998466 43.316509 -1.0654447 6
13.605309 43.620228 -1.0637524 6
13.978235 44.006298 -1.0009146 6
13.663278 45.458363 -1.0621676 3
13.806968 45.827324 -1.0512166 3
13.659898 47.7999 -0.96212721 3
13.756824 48.128586 -0.96333092 3
13.866282 48.451569 -0.96357566 3
13.711537 48.921482 -0.93536127 5
13.836529 50.252331 -0.91094112 5
13.977984 50.861866 -0.98126525 5
13.834196 53.988976 -0.85591853 5
13.685502 54.288391 -0.88698 4
13.821944 59.685711 -0.92943817 5
13.85501 38.322826 -0.68993592 5
13.836449 38.427624 -0.51109982 5.25
13.876399 42.767799 -0.56769174 6
13.758063 58.67979 -0.57145137 6
13.604391 30.761169 -0.16343056 6
13.828885 31.397593 -0.26155388 6
13.808194 38.517941 -0.32761762 5.5
13.71912 42.563412 -0.3013806 7
13.846296 53.836037 -0.26010683 7
