# .PCD v0.7 - Point Cloud Data file format
VERSION 0.7
FIELDS x y z intensity
SIZE 4 4 4 4
TYPE F F F F
COUNT 1 1 1 1
WIDTH 1264
HEIGHT 1
VIEWPOINT 0 0 0 1 0 0 0
POINTS 1264
DATA ascii
24.862234 72.428421 1.9713503 12.1455
25.026638 73.702988 1.8741616 8.3741999
25.051815 74.087448 1.9100031 12
25.108887 75.336433 1.6649956 12.145
25.003849 84.296799 1.8100569 12.7925
25.073576 84.468956 1.8392324 11.761001
25.043964 85.05127 1.7768294 12.8115
24.868692 85.808502 1.9337162 13.894571
24.948038 86.132187 1.7992116 13.257928
24.803501 67.947708 2.0791073 11.154
25.140985 68.254013 2.1515424 10.088
24.991709 68.687096 2.2076061 13.1315
25.014124 73.708336 2.1644154 10.175703
25.05065 74.238098 2.0661561 12.8836
24.960611 75.540184 2.1837497 12.614583
24.921093 75.624565 2.3101687 13.1465
25.012178 84.254539 2.1085985 13.75
25.066023 84.591896 2.1167061 13.292101
24.964661 85.076958 2.2714272 9.8408499
24.98468 85.351181 2.2054911 8.4973087
25.049179 85.819359 2.233989 12.028834
25.079378 66.754875 2.6093814 11.1625
24.937016 66.805756 2.5610206 11.162251
24.810247 67.334038 2.7479234 12.152
24.928204 68.616455 2.6931398 12.1535
24.943617 70.242363 2.7400897 12.155
24.937967 70.444939 2.7428949 12.1565
24.88928 70.975998 2.681365 12.1585
25.038633 73.708382 2.5807035 10.971055
24.860903 75.561958 2.6771851 14.1395
25.003195 75.628555 2.6158612 13.6475
25.019058 83.800362 2.6087394 13.110874
25.137043 84.19812 2.6211631 14.374833
24.979046 84.661263 2.6186395 10.948314
25.063053 85.000786 2.6411214 12.754571
25.012632 85.423286 2.6504338 12.404477
25.037998 85.792084 2.6260984 12.191461
25.037779 86.112381 2.641691 12.2733
24.81348 68.025368 2.9006572 14.139
25.050171 73.698082 2.9781678 12.473064
24.976313 75.029488 3.0606415 11.8642
24.848446 75.245766 3.1650293 11
24.98156 84.669998 3.1100483 10.627001
25.049715 85.045532 2.9567175 12.420634
25.018511 85.401123 3.0746398 12.5993
24.805582 85.628479 2.9452949 9
24.856016 86.066505 2.8664241 9.0322495
24.87608 63.064377 3.5754151 9.1794996
24.922022 66.787086 3.4870951 9.1040001
25.15452 68.143295 3.5281541 9.1789999
25.018066 73.698624 3.369689 13.45728
25.004139 75.132675 3.4042163 12.042287
24.925573 75.219139 3.3959324 11.5255
24.82295 83.916321 3.5335836 10.0245
24.990339 84.577065 3.3728249 12.196626
24.938242 85.076317 3.3446751 13.230416
24.977015 85.392456 3.328192 11.674204
25.026228 60.160988 3.9843206 14.654625
24.969271 63.077545 3.6914256 10.792808
24.998102 63.277039 3.7189326 12.134501
25.136913 66.706024 3.7529283 9.0094995
25.111135 66.800354 3.6727765 9
24.961103 69.402328 3.8584507 11.500875
24.898167 69.705971 3.9798017 12.001468
25.07571 73.656044 3.7687538 11.573571
24.93956 75.05011 3.7456987 12.77014
24.93561 75.254028 3.9269707 15.153
25.124556 83.43013 3.7655096 9.6014996
25.010338 84.170845 3.7246099 10.752875
24.98382 84.660721 3.7045867 13.056875
25.033903 85.082253 3.8349419 10.630429
24.926659 85.469574 3.7771764 11.761571
24.927782 60.367466 4.3881588 13.164
24.918348 60.69912 4.3608379 13.1645
25.058681 61.85347 4.3300123 12.169
24.836893 63.017651 4.3133407 13.168562
24.87396 63.349335 4.3547859 12.725778
24.912786 65.960602 4.2848778 13.174
24.918232 66.01503 4.3626351 11.089
24.956858 67.339348 4.2867017 11.481667
24.934855 69.32489 4.143178 13.001
24.921848 69.697723 4.0919957 11.001
25.190731 73.597145 4.3937449 11
25.053806 73.649063 4.2159724 11.906138
25.021967 74.376877 4.376729 9
25.060032 74.668587 4.0909467 15.0195
24.909695 75.073044 4.1705222 12.310624
24.86907 75.220398 4.2623472 13.2623
25.046644 83.112381 4.1722903 12.0355
25.139635 83.381172 4.2293262 11.63245
25.057085 83.697014 4.2966518 11.369834
24.916945 84.568459 4.2850676 11.770437
25.112289 84.981079 4.374289 11.4683
25.169016 85.317886 4.1658659 15.1105
24.920835 60.203312 4.7158442 13.082098
24.916929 60.692631 4.668736 12.939184
24.910213 61.055714 4.6520991 12.906219
24.917944 61.482773 4.5865178 12.3355
24.890656 61.925838 4.7272911 13.16825
24.870085 62.102779 4.597219 13.010512
24.88143 62.586983 4.6515036 13.169125
24.856081 63.057377 4.6360893 12.857939
24.847197 63.411072 4.5991926 12.571375
24.841602 63.745972 4.5464144 12.315
24.834232 64.08194 4.5966926 12.173
24.939171 67.449829 4.4156294 14.1765
24.951706 67.742386 4.4190683 14.0885
24.922588 68.054245 4.4131136 14
24.967184 68.411255 4.4291725 14
24.877527 69.900047 4.4481897 14
24.859478 70.044258 4.4497948 14
24.808701 70.422676 4.4547911 14
25.090712 73.472763 4.465456 11.918722
24.967331 73.653816 4.4289651 13
25.035458 74.331146 4.5411487 12.50975
24.802193 74.665359 4.4308658 12.0095
24.971087 75.086014 4.6866512 13.459024
24.891581 75.227463 4.705946 12
25.070827 83.844093 4.6991487 12.397228
25.108299 84.011612 4.7740898 13.047
24.88846 84.647606 4.5668492 11.434292
24.976656 85.044746 4.615551 11.264312
24.979773 85.305061 4.7187009 11.0225
24.815458 60.10955 4.8004084 13.1655
24.870255 61.301304 4.810287 13.1675
24.835987 61.942955 4.8123331 14.1665
24.860342 62.289253 4.8017907 13.56835
24.807186 65.178284 4.815484 14.1725
25.098024 73.320084 4.8574691 10.1785
25.149454 73.607208 4.9226503 10.1045
24.966557 75.053314 5.0874491 12.914556
24.93672 75.263306 5.1432109 15.16175
25.001314 83.856445 4.8330536 13.0365
25.03768 84.122536 4.9805841 13.032125
24.970104 84.733109 5.0423689 12.676041
25.031507 84.975677 4.9986978 12.227301
24.942316 85.385719 5.0711384 12.478666
24.98455 75.088142 5.3636651 14.07075
24.836376 75.255867 5.4635878 13
24.999619 84.676559 5.4360847 13.104841
25.121393 84.910965 5.3091564 12.684499
24.881495 85.385857 5.3289084 12.349999
24.981117 75.122025 5.7033176 14.894735
24.969913 75.290596 5.9578919 12.925834
25.039032 84.668404 5.6524978 14.026464
25.071323 84.939835 5.6663032 13.023
24.90159 75.129723 6.2219214 14.029083
24.808887 75.286697 6.3423023 12.1125
24.976191 75.163712 6.4827361 14.28025
24.972704 75.254227 6.5876131 14.044
24.984116 75.297607 6.9542651 13
25.185173 74.955246 7.7750535 14
25.182905 75.04184 8.9312725 15.174
25.168333 75.260757 10.59863 14.061
25.124598 75.158188 10.829841 14
24.903475 75.346024 11.072051 14.172
25.066507 75.776993 10.822536 15.103
25.040209 75.360718 11.406982 15.11
25.045107 75.265381 12.614032 14.5
24.878035 75.36972 12.951629 15.172
25.223593 75.911446 -2.8409982 4
25.291887 87.467033 -3.0078554 5
25.411716 87.728943 -2.9811845 5.4444447
25.329456 88.501205 -3.0763662 5
25.360359 89.59433 -2.9650674 6
25.326794 71.832695 -2.6075172 5
25.469086 72.168457 -2.6191542 5
25.447514 72.770691 -2.5201952 5
25.551502 73.538719 -2.7219121 7
25.491125 74.220398 -2.6720955 4.3333335
25.211636 75.88813 -2.7833331 4
25.465672 81.996223 -2.635071 6
25.458496 82.002045 -2.5715535 5
25.3241 87.582596 -2.7008455 6
25.410748 87.807495 -2.6483023 6
25.45583 88.035568 -2.6048005 6
25.273285 65.277 -2.1251755 7
25.288052 73.924576 -2.2592871 5
25.387541 74.048058 -2.1562393 5.6666665
25.246132 84.730591 -2.1946969 7
25.24877 86.32943 -2.1197248 7
25.398205 73.881775 -1.8369117 6
25.427229 74.072754 -1.7286997 6
25.374018 83.786354 -1.6820769 8.0900002
25.304192 86.063629 -1.9042076 7
25.541187 74.105537 -1.3115108 7.5532498
25.377846 82.187286 -1.3677279 8.1146669
25.231846 83.484085 -1.4108298 8.0629997
25.309978 83.620316 -1.3551329 8.0555
25.51016 85.178505 -1.3051633 8.1339998
25.36042 85.415718 -1.5115116 8.1149998
25.371614 66.771248 -0.82486588 8.1129999
25.440731 74.126747 -1.0472746 7.5855002
25.338129 85.285629 -1.0880848 8.1140003
25.555288 86.36795 -1.0878215 8.1359997
25.374186 60.231567 -0.51308608 1.6666666
25.355749 60.672344 -0.49690822 1.9090909
25.361544 61.035511 -0.51270819 1.3333334
25.464367 61.392071 -0.50649691 1.6
25.278929 61.857479 -0.48183545 0.85714287
25.435394 62.151955 -0.51374704 1.7142857
25.362043 62.720062 -0.47258505 0.40000001
25.362919 62.939564 -0.4842813 0
25.349348 64.376945 -0.50272483 2
25.467901 64.594475 -0.49394324 2
25.283955 65.082619 -0.53889257 3.6875
25.331804 65.356926 -0.53193176 3.8666666
25.305582 65.861794 -0.47956526 1
25.49791 66.330879 -0.49309489 1
25.542252 66.477371 -0.47464633 1
25.484953 66.95546 -0.50836468 6
25.290306 68.091904 -0.44741201 0
25.345625 68.490234 -0.44193345 0
25.326363 68.915245 -0.42453882 0
25.324903 69.348541 -0.41825268 0
25.259281 69.604065 -0.40245658 0
25.228001 72.682739 -0.56352317 7
25.381384 74.158821 -0.55827498 8.0671816
25.215456 84.993385 -0.41711965 8.1324997
25.302763 85.479866 -0.5791173 9.118
25.568159 71.057953 -0.3558071 1
25.425146 71.430893 -0.34648764 1
25.271175 71.859085 -0.34280792 1
25.474281 72.390404 -0.0069734603 5
25.503288 72.475441 -0.2916162 4
25.446842 74.166504 -0.092019014 9.0704994
25.465771 81.512001 -0.12303855 4
25.500301 85.154533 -0.1217563 10.12
25.427534 86.301544 -0.18387933 8.1415005
25.315247 72.330269 0.21335071 4.8000002
25.383808 72.543274 0.21571428 2.7333333
25.214867 73.222412 0.33861804 3
25.393578 74.161469 0.11212763 9.2271242
25.526552 81.936348 0.13838784 4
25.350485 84.716835 0.10413785 9.4553337
25.449322 84.846588 0.20187034 10.1105
25.412924 85.438171 0.18584862 10.62
25.560701 85.846756 0.36818406 11
25.214268 86.768517 0.18239118 11.0575
25.375101 72.730759 0.58256602 2.0104165
25.364244 72.902916 0.64815974 4.2727275
25.478306 73.268127 0.59401786 3.5
25.448095 74.180084 0.59966248 10.05905
25.371042 81.821091 0.61770082 5.5
25.299831 82.058006 0.59997135 5
25.316671 83.870934 0.74628484 11.341063
25.383299 84.034019 0.74545979 11
25.541052 85.929108 0.5414415 11
25.432919 86.182701 0.6714803 11.09425
25.388664 86.578392 0.60195017 11.054977
25.386892 86.873703 0.57839227 9.1175003
25.58539 61.720509 1.1617143 9.132
25.56485 64.157753 1.1142929 9.1225004
25.557549 64.651001 1.0859606 9.1219997
25.270344 67.343246 0.98258394 9.1269999
25.329443 72.757996 0.83347666 4.3333335
25.3559 72.980042 0.87599522 4.3205128
25.398893 73.414032 0.94125074 4.6742425
25.344656 73.749321 1.0215759 5.1111112
25.437933 74.196243 1.0023706 10.569
25.279623 75.507492 0.9556058 5.3333335
25.361898 75.629402 0.97958356 5
25.488453 81.707985 0.9981041 6.0769229
25.364416 82.22612 1.0234773 6
25.430044 82.519882 0.98815632 6
25.35125 82.84893 0.99715549 6
25.206656 83.528419 1.1289711 12.1215
25.348022 83.86602 0.96916872 11.980392
25.376629 84.144638 1.0537826 12.0948
25.507439 84.55291 1.1515412 11.081333
25.286457 85.087387 1.000787 12
25.459087 85.90625 1.0978425 9.6702499
25.353249 86.202972 0.90697223 11.505899
25.571255 86.657158 0.82038033 11.1125
25.440056 67.410103 1.5830811 10.1615
25.373329 73.709938 1.4061567 7.1460781
25.43317 74.185677 1.4295738 11.4621
25.571234 74.467079 1.3634977 9.1344995
25.282841 82.308388 1.4512639 7
25.495239 83.076569 1.3614806 8.1044998
25.323689 83.330421 1.3600889 10.11425
25.373442 83.918724 1.2938079 12.113
25.34733 84.28685 1.3851888 12.160501
25.345661 84.629341 1.3509796 12.226334
25.377764 85.083618 1.4007287 11.348875
25.371174 85.835655 1.3315231 12.53175
25.324951 86.219902 1.4932724 13.058144
25.34392 86.411087 1.2727813 12.067
25.470427 67.330177 1.666335 11.3472
25.556767 70.186668 1.7736562 11.087667
25.471216 71.77446 1.9745295 12.147
25.372648 73.709099 1.8854101 8.1337738
25.432739 74.229713 1.7943105 12.088834
25.31794 75.102982 1.9738766 13.1375
25.418198 75.354828 1.8770934 12.644312
25.416212 84.363174 1.9117754 13.0575
25.472836 84.591125 1.75618 12.54425
25.482435 84.963181 1.8539504 11.120501
25.260441 85.374039 1.6990846 12.323928
25.229074 85.88343 1.6394544 12.400001
25.362558 86.242813 1.8492839 13.4552
25.34831 89.980072 1.9493079 8.0670004
25.356287 66.653381 2.3715656 13.1415
25.326643 66.856575 2.3307207 11.157
25.285774 67.830032 2.2106931 13.1366
25.347534 68.015434 2.1496146 11.156
25.598906 69.508568 2.0344667 13.13825
25.57023 69.913849 2.0187063 11.16
25.52264 70.912529 2.085288 13.126
25.510303 71.263748 2.0755374 13.126125
25.470858 71.785469 2.0584779 12.799751
25.466227 72.252007 2.2344368 13.628375
25.427229 72.531616 2.0702071 12.799167
25.441893 72.877502 2.2784524 13.794999
25.346588 73.727753 2.1470709 10.285192
25.411835 74.155479 2.1030691 13.076849
25.414112 75.652588 2.305187 13.148999
25.365911 84.237762 2.2560415 13.773083
25.354078 84.581688 2.0980036 13.278749
25.382168 84.9963 2.2663779 10.830144
25.296419 85.323318 2.2632265 8.8855467
25.260902 85.760101 2.3478253 12.0895
25.381794 86.472572 2.032856 13.114
25.492676 66.819809 2.5417247 11.1635
25.570574 69.58197 2.6085484 14.137501
25.541655 69.814178 2.5591564 12.1545
25.456482 72.256958 2.4705575 14.13
25.430351 72.483162 2.5451045 14.128
25.429577 72.922195 2.4973242 14.128
25.351591 73.719734 2.5879884 10.941797
25.385864 75.534073 2.4058733 11.066
25.497591 75.639595 2.5932035 13.649876
25.380802 83.921402 2.6377826 14.115
25.32905 84.15316 2.5935934 14.485143
25.36359 84.644753 2.6302381 11.804397
25.330568 85.08223 2.5696428 12.130769
25.417744 85.360428 2.6885781 10.385521
25.354128 85.841225 2.5749402 13.597983
25.303226 86.035027 2.6028311 15.094437
25.397516 73.708885 2.999666 12.509261
25.221142 75.533524 2.9277406 10.1785
25.444 84.646294 3.1227825 9.7863159
25.455269 85.025169 3.0340271 14.018788
25.395124 85.359978 2.9971521 11.6626
25.345446 85.638336 2.8173075 8.1789999
25.524237 63.079571 3.5900478 9.1789999
25.486938 66.979698 3.4878819 9.0869999
25.401266 73.70591 3.3462181 13.454319
25.520178 83.446625 3.5171051 10.0885
25.482906 84.246094 3.436111 11.0885
25.36812 84.618271 3.3267663 11.122296
25.358828 84.94796 3.3517792 12.847175
25.352814 85.417259 3.3344088 12.136626
25.393665 85.755844 3.3501704 10.429688
25.324827 60.168373 3.9261346 13.161857
25.340076 63.153484 3.7188587 11.62675
25.490646 66.778358 3.692317 9.0895004
25.408579 66.83596 3.7241685 13.175166
25.395973 69.389153 3.9023168 15.002
25.456696 71.833611 3.764086 12.024
25.403152 73.667511 3.7475533 11.68911
25.236649 74.678658 3.9189627 9.1064997
25.460615 75.087387 3.8543069 13.717834
25.355162 83.473335 3.8573885 10.020282
25.464733 83.935875 3.8307242 10.085062
25.342619 84.234314 3.8209062 10.32515
25.361048 84.592445 3.7460644 11.807001
25.340118 84.961601 3.7269146 12.6481
25.514801 85.300247 3.871156 11.0265
25.387823 60.160973 4.0512376 14.655375
25.344933 66.030975 4.3789439 11.0885
25.507641 67.374458 4.2374034 13.177
25.435993 73.640213 4.2955933 12.280736
25.259382 74.366806 4.380641 9
25.384541 74.622543 4.1295137 15.02
25.423456 75.110703 4.2776432 11
25.351133 83.125893 4.156949 11.0215
25.379669 83.41449 4.1568813 11.704959
25.404497 83.726448 4.1448202 11.413384
25.491957 84.129272 4.0039039 10
25.218641 84.634567 4.3632808 12
25.368286 85.355637 4.0043998 11
25.408318 73.436897 4.515501 12.4064
25.482664 74.618736 4.4542885 13.011625
25.36194 74.848412 4.450458 13.01175
25.245886 83.249947 4.4137368 12.01
25.358355 83.918419 4.7281675 11.945136
25.328508 84.044907 4.7895236 13.04425
25.344713 84.99649 4.5267634 11.693583
25.468164 85.406738 4.658886 11.02489
25.546896 85.621483 4.4628353 10.0185
25.457056 73.370331 4.9756484 10.0895
25.432405 75.032021 5.0935359 12.860751
25.534765 75.257439 5.1044178 15.162
25.561209 83.542854 4.8642478 11.691334
25.436317 83.82946 4.881104 12.211341
25.373507 84.185341 4.9184632 12.704895
25.280552 84.674263 5.0257282 13.024375
25.563267 84.842468 4.8195405 11.021
25.535881 83.967499 5.4050808 12.712891
25.400787 84.192108 5.3106122 12.253885
25.404062 84.595543 5.5267086 13.536332
25.524746 75.296715 5.9461746 13
25.550051 83.819504 5.6960573 13.2148
25.351591 84.605812 5.708066 14.023209
25.574106 84.89473 5.6659136 12.021125
25.420786 75.120697 6.2343907 13.662455
25.518072 84.518715 6.3115125 13.378884
25.363041 75.187057 6.4743114 13
25.388542 75.2565 6.5883107 14.353429
25.540302 84.628212 6.4483218 15.026125
25.393011 84.957542 6.7805185 15.01
25.588285 75.142021 6.8421116 15.168
25.331987 75.322815 6.9189076 13
25.464769 75.046135 7.7296267 14
25.507347 75.839355 10.321694 15.0975
25.472578 75.28511 10.559088 14.063749
25.54368 75.360962 10.812218 15.1195
25.264233 75.34256 11.577402 14.17
25.818516 73.101532 -2.8683379 7
25.798517 74.312225 -2.8399146 4.5
25.697786 81.783119 -2.9156389 4.5
25.723545 87.054153 -3.0585763 5
25.786545 87.599724 -3.0326943 5
25.752098 87.809517 -3.0345278 5.6666665
25.822575 89.103004 -3.0696418 5
25.923183 89.401741 -3.0599914 5
25.714336 66.357071 -2.4603651 7
25.836102 66.463028 -2.5772071 7
25.699951 72.172707 -2.6524339 5
25.792055 72.498138 -2.6333973 5
25.846336 72.964874 -2.5381134 5
25.760588 73.340607 -2.5586026 7
25.869207 73.731148 -2.4209507 7
25.760565 74.181694 -2.6296248 4.75
25.657839 81.874496 -2.7003238 5.3333335
25.837778 82.118362 -2.5701306 5.4000001
25.652258 82.410843 -2.4045544 6
25.744919 83.092041 -2.4453924 6
25.695646 87.816048 -2.5155556 6
25.789913 88.161835 -2.6277716 6.1052632
25.990826 88.478485 -2.5486684 7
25.666082 73.259705 -2.3043532 7
25.708681 73.871254 -2.1765428 5.25
25.903585 74.040794 -2.2049496 5.6666665
25.740858 86.506775 -2.38076 7
25.954674 73.857834 -1.9257259 6
25.864405 74.078354 -1.612937 6
25.904955 87.887199 -1.9791446 7
25.790192 74.242546 -1.2267201 8.1125002
25.889149 82.192879 -1.364713 8.1145
25.712046 83.422676 -1.3785229 8.0748329
25.927309 83.835426 -1.4234719 8.0705824
25.966576 73.988037 -0.87492931 8.0950003
25.779325 74.096909 -1.086977 7.482667
25.949358 83.339981 -0.98568332 8.099
25.814556 86.1436 -0.96371764 8.1569996
25.889093 86.565948 -0.87361354 9.0944004
25.774815 60.231171 -0.50127876 1
25.731453 60.629932 -0.49059081 2
25.802395 60.891769 -0.50332028 1.8
25.845354 61.434559 -0.50062323 1.75
25.706091 61.804478 -0.47950429 1.4
25.791685 62.245693 -0.51250213 2.3333333
25.710701 62.631283 -0.49184743 1.375
25.802788 62.996662 -0.46797618 0
25.992096 63.23156 -0.49758416 2
25.910446 65.896912 -0.47894114 1
25.937502 66.216118 -0.49020743 3.3333333
25.682016 66.469978 -0.52265275 4.1323128
25.893095 66.972687 -0.50825918 3.4705882
25.92326 67.295395 -0.49807462 3.625
25.872265 67.844193 -0.43879241 1
25.969017 68.021011 -0.47988659 3.8
25.933998 68.658676 -0.40828469 1
25.873009 69.057892 -0.40305698 1
25.894936 70.728989 -0.41825113 4
25.833467 71.150291 -0.40880933 4
25.995991 71.322716 -0.43208772 6
25.746677 74.17614 -0.53821361 8.0680676
25.616739 85.704666 -0.56540769 9.1094999
25.915031 86.058014 -0.48152584 9
25.933531 69.053238 -0.39934173 1
25.870071 69.461899 -0.38942081 1
25.852331 69.886894 -0.38323021 1
25.767977 70.262108 -0.37265939 1
25.692636 70.639061 -0.36600509 1
25.873827 71.093987 -0.36322737 0
25.759418 71.557564 -0.39478734 3.8666666
25.701183 71.976692 -0.38869634 3.8666666
25.819595 72.213661 -0.35012606 2.5999999
25.806183 72.518799 -0.19172227 5.1052632
25.992231 73.985138 -0.3797543 8.132
25.782246 74.107445 -0.1237364 8.7833748
25.778227 84.683449 -0.040922392 10.119
25.67083 85.467522 -0.18780851 8.1365004
25.715015 85.758728 -0.25651079 10.0575
25.866608 72.549171 0.18312943 2.0714285
25.823198 72.886681 0.31408998 1.9166666
25.729317 74.174637 0.20681372 9.079875
25.781269 81.665237 0.12834544 4
25.729465 84.733116 0.059413802 10.08675
25.765427 84.987144 0.2070151 10.46577
25.738176 85.42363 0.24528648 10.587687
25.807323 85.765587 0.32572699 10.6443
25.827848 86.149666 0.25100353 10.6854
25.853786 87.854813 0.13137649 11.1495
25.788483 72.710838 0.71927983 4.8653846
25.819172 72.882858 0.59775078 3.3333333
25.680889 74.193665 0.55340034 10.058001
25.769529 81.832817 0.58618122 5.3333335
25.750685 82.146431 0.74359089 5.7894735
25.842653 84.24527 0.66939205 11.116
25.904028 84.566818 0.74298108 11.4739
25.844988 85.117149 0.76744318 11.112
25.89786 85.52813 0.784159 12.123
25.711845 85.858795 0.69580531 11
25.958822 86.165802 0.73563665 11.05575
25.792915 86.661674 0.67587692 12.0385
25.859097 60.928051 1.121341 9.1335001
25.777529 61.82093 1.1090175 9.1264992
25.90287 72.668365 0.8381657 5.5
25.805626 73.025932 0.86206776 4.3645835
25.740812 73.41214 0.92629147 4.7916665
25.893045 73.69957 1.0191832 5
25.619621 74.150482 1.0763251 11
25.850945 81.742661 1.0280204 6.125
25.674141 82.203476 1.0064602 6
25.755577 82.672668 0.87560588 6
25.925159 84.26033 0.92499232 11.616375
25.888132 84.599426 0.86680615 11.748959
25.817907 85.049278 1.0510343 11.782666
25.839632 85.387741 0.88854396 12.060249
25.750336 85.82383 1.0252936 11.933001
25.824623 86.236717 1.0405056 11.599501
25.803749 86.564804 0.9420225 12.085358
25.820026 86.973114 1.0649524 11.612249
25.807766 73.719948 1.392303 7.0242472
25.904724 74.136688 1.3016793 9.8951006
25.96751 83.154266 1.4775703 7
25.751345 84.657394 1.4119987 12.58975
25.803993 84.930626 1.5628235 13.052501
25.915518 85.464432 1.4081554 12.586374
25.846384 85.842133 1.3578569 12.33455
25.853237 86.170334 1.3501128 12.274055
25.926313 86.708809 1.2389982 11.5945
25.855835 60.086601 1.6984857 10.105249
25.683952 67.278107 1.6823393 12.139
25.884687 70.026909 1.6830648 11.153
25.806442 73.724861 1.8819264 8.2831163
25.702496 75.433174 1.8170886 12.480667
25.826048 84.731606 1.6928943 13.087125
25.770864 85.371246 1.883938 11.766666
25.892063 85.749458 1.8589172 13.669907
25.86145 86.218201 1.9335214 13.01775
25.918343 62.23357 2.2521105 10.1665
25.695681 66.520294 2.1250179 11.155
25.671604 66.906799 2.2964694 13.1445
25.702332 67.235352 2.2521036 13.144
25.65197 67.838646 2.1902823 13.14075
25.617844 69.099968 2.0661902 13.139
25.820536 73.739922 2.1943877 10.089989
25.953074 75.108612 2.0251443 13.143
25.900667 75.438766 2.1686668 12.708501
25.79055 75.656456 2.2187073 13.148666
25.951048 84.36702 2.012105 15.133
25.860435 84.686981 2.1345224 8.4063931
25.82485 84.988579 2.3016953 9.709384
25.834059 85.43589 2.1349261 13.067078
25.786478 85.68206 2.1383131 13.078429
25.963417 89.921722 2.3521113 8.0235004
25.830427 61.90514 2.4414198 10.162
25.868174 66.751343 2.4505627 13.1465
25.814875 66.840813 2.5280843 11.16275
25.766754 73.723206 2.5704298 10.56929
25.792198 75.618431 2.4987471 13.813
25.860453 84.710213 2.6512544 9.4434614
25.820868 84.976318 2.6216092 12.819519
25.802187 85.341209 2.6578519 11.288751
25.932854 85.639603 2.7514691 9.04
25.798941 89.865227 2.6450434 8.0225
25.761766 73.707664 3.0001044 12.436875
25.66617 75.044746 2.9356124 11.169
25.923805 75.687782 2.8302441 14.1495
25.89669 83.37516 3.1724393 9.0477495
25.922644 84.240463 3.1634715 9.7461424
25.836283 84.597832 3.0547457 9.0783997
25.775312 84.998352 3.0220349 14.097729
25.778591 85.311729 3.0522254 11.513143
25.896502 85.690002 2.9277868 8.5167503
25.802767 73.701393 3.3546915 13.678954
25.960936 83.056587 3.574017 11.0405
25.891523 83.35952 3.275352 9.2634993
25.841492 84.320976 3.2561057 9.7796926
25.808031 84.582512 3.2901771 10.17444
25.745758 85.089455 3.2319717 13.298751
25.738462 85.499809 3.3140471 10.033167
25.829741 86.250778 3.4559927 9.6261005
25.848648 60.238289 3.853724 12.827334
25.794447 63.126331 3.6932955 10.405899
25.871729 63.442436 3.7109704 13.024858
25.899597 63.726784 3.6486392 14.165751
25.92926 64.288124 3.8968709 15.166
25.923203 66.689194 3.7687807 9.0089998
25.885046 66.815613 3.678066 12.146251
25.827946 69.404259 3.9204342 15.002
25.794081 73.684967 3.7587306 11.854237
25.781736 75.073547 3.879678 13.165501
25.92267 83.055283 3.745528 10.271125
25.941368 83.462654 3.8264434 10.355611
25.694925 83.643593 3.8293374 10.088698
25.77055 84.144661 3.8098583 10.687917
25.851604 84.604279 3.8140135 10.823333
25.762768 84.92598 3.8644857 11.0255
25.806213 85.323898 3.9402096 11.03425
25.842157 60.180336 4.055892 13.826835
25.772053 66.033508 4.3943319 11.088
25.660753 67.304214 4.2179203 10.0895
25.765608 68.121422 4.1480355 12.1785
25.829769 73.657776 4.1874166 12.749519
25.762575 74.384048 4.392211 9
25.742512 74.627136 4.1187119 12.4472
25.706476 75.11644 4.2607503 11
25.971846 75.278709 4.0382257 12
25.95639 83.192062 4.0873194 12.07175
25.851847 83.400429 4.1712112 11.362468
25.711796 83.816353 4.2529292 11.694222
25.731714 84.183174 4.178896 10.679334
25.777349 84.698708 4.313652 10.009
25.972437 85.520874 4.0203066 10.344501
25.904657 73.507736 4.4881978 11.783437
25.904959 73.645653 4.4594293 14.333333
25.827364 74.371475 4.5486107 12.209
25.818451 74.681023 4.500917 15.01675
25.74633 74.811157 4.4452491 12.210499
25.805162 83.526123 4.4742594 12.02
25.680796 83.814896 4.7041941 12.405654
25.845201 84.398514 4.589375 11
25.884571 84.636101 4.5321169 10.840251
25.842203 85.024124 4.6747551 11.016608
25.738846 85.421394 4.6858954 12.03475
25.651409 73.341248 4.8703952 10.178
25.922916 74.349281 4.85742 13.0095
25.788418 75.015793 5.0999265 12.6945
25.753681 83.824028 4.8838282 12.527775
25.838066 84.086044 4.9984498 12.305862
25.944799 84.6343 4.9627056 13.041
25.731062 84.946121 4.8822327 11.020875
25.913383 75.166603 5.5641818 12
25.839222 83.571701 5.4113302 14.072
25.66185 83.853172 5.3969994 13.025167
25.747231 84.209709 5.4740028 13.368251
25.726593 84.654648 5.5312891 12.275103
25.850977 84.910973 5.3994012 11.680333
25.959341 75.377312 5.9272671 12.665688
25.637032 83.689209 5.6651535 12
25.866056 84.339729 5.8676038 12.691334
25.708258 84.665497 5.8599567 13.191501
25.799419 75.116722 6.2175431 13.385437
25.778255 75.229561 6.2902269 14.571875
25.717865 84.307098 6.0940394 13.520624
25.801624 84.541779 6.2375169 13.737037
25.826078 84.93502 6.2758265 13.856632
25.670046 75.198929 6.4676042 14.373668
25.742598 75.25618 6.5595293 14.019429
25.828026 84.583961 6.5364113 14.82505
25.701862 84.881821 6.4596405 13.0215
25.797884 75.105148 6.8172636 15
25.692774 75.267395 6.8654871 13.5865
25.699076 75.03331 7.3452959 15
25.752184 75.097794 7.6502786 14.75
25.81411 75.355209 7.7601304 14.75275
25.666277 75.012665 9.1346512 15
25.758076 75.304008 10.583733 13.5
25.796093 75.844101 10.626284 15.1005
25.905357 75.489075 11.269281 14.0315
26.038015 73.477066 -2.8521404 7
26.137548 87.991196 -3.0656664 5
26.015644 88.037468 -3.0173309 5
26.19854 88.522774 -2.949497 5.5714288
26.05455 89.52079 -3.0790243 5
26.091953 72.394623 -2.6544099 5
26.212622 72.972649 -2.6148913 5
26.221514 74.219864 -2.6496112 4.3333335
26.320385 81.951302 -2.6947312 5
26.236601 82.099495 -2.6105762 5.3333335
26.196825 82.442436 -2.5531714 5
26.076487 88.321938 -2.4908273 6.5
26.229607 88.61631 -2.59991 6.4444447
26.332655 88.886566 -2.5033939 7
26.305361 66.414764 -2.1128995 7
26.242821 84.839081 -2.0480499 7
26.231514 88.407822 -2.394794 6
26.077648 74.053947 -1.7142035 6
26.372898 82.263725 -1.9404701 6
26.372925 82.713318 -1.965461 6
26.316179 84.742813 -1.6828588 8.0939999
26.012987 88.098297 -1.9509317 7
26.025606 82.191689 -1.385094 8.1134996
26.320564 83.335533 -1.3729635 8.1435003
26.377302 83.676224 -1.3608019 8
26.386557 87.474174 -1.3344758 8.1260004
26.170967 74.121826 -1.0361674 7.8255997
26.372402 82.901093 -0.94684881 8.1499996
26.204878 83.368423 -0.95763642 8.1260004
26.267494 83.747086 -0.99453324 8.0955
26.290901 86.746017 -0.9126578 9.0625
26.233303 87.084503 -0.96004415 9.132
26.24575 60.245083 -0.53413022 3
26.135378 60.602722 -0.47258386 1.8571428
26.168936 60.981621 -0.50340194 2
26.188593 61.416813 -0.50115401 1
26.085453 61.809303 -0.47156319 1.5
26.15107 62.188732 -0.50211501 2.5
26.142252 62.589081 -0.47780091 0.875
26.151279 62.955299 -0.48824811 0.5
26.275343 63.542187 -0.49209827 2
26.124842 64.290825 -0.47882465 2
26.13361 66.561813 -0.49183577 3.4000001
26.223431 67.023926 -0.50783998 3.2633123
26.256613 67.503548 -0.46233127 2.5
26.232807 67.865509 -0.43125331 1
26.276047 68.236023 -0.4212563 1
26.283375 68.480637 -0.41118425 0
26.206266 68.952194 -0.40190151 0
26.347086 69.411575 -0.43038413 4
26.139448 72.958817 -0.55082113 7
26.234867 74.243973 -0.63356769 8.0852499
26.35614 83.173706 -0.77385151 9
26.238596 83.574715 -0.61495614 8.7233334
26.003563 85.897301 -0.53064513 8.1309996
26.236052 86.117554 -0.51773179 8.7919998
26.239693 69.131187 -0.3956942 1
26.21413 69.438774 -0.38584337 1
26.178877 69.85257 -0.3776699 1
26.204838 70.304253 -0.370655 1
26.149229 70.648079 -0.36727169 1
26.167139 70.957703 -0.37252992 2.4000001
26.123535 71.432556 -0.36744264 3.1666667
26.070751 71.877258 -0.3571676 2.75
26.319172 72.343681 -0.33897689 3.5999999
26.208363 72.543228 -0.18951817 4
26.188066 72.843292 -0.070585854 7
26.237675 74.256058 -0.028877556 9.0795002
26.180582 81.508766 -0.14732023 4
26.289062 83.040344 -0.12299901 8.7426672
26.248617 83.297913 -0.12139545 10
26.296385 85.000961 -0.17736052 8.1409998
26.19647 86.12767 -0.19284809 10.030001
26.375587 87.098038 -0.025186962 9.1094999
26.163731 87.435852 -0.36934754 10.063
26.223434 72.625198 0.11951772 2
26.142714 72.934174 0.19250166 3.6666667
26.238487 73.857193 0.14911997 9.0775003
26.154213 74.18676 0.10106911 9.076333
26.212381 82.123604 0.14767048 4
26.188057 84.954376 0.30210552 10.854751
26.059084 85.386444 0.35215247 11.11925
26.069124 85.834015 0.29210508 10.587749
26.27673 72.702156 0.55654782 4.3076925
26.213409 73.027893 0.64865518 3.2424242
26.140198 73.360466 0.65921611 2.6666667
26.143522 74.291885 0.63430762 9.8537502
26.377478 81.704346 0.71341527 6
26.245327 82.171303 0.58177686 5.1999998
26.064606 82.585884 0.517308 5
26.1507 85.010468 0.619232 11.190676
26.274265 85.261101 0.65743679 11.61875
26.121716 86.304405 0.62974477 10.5795
26.217192 86.548615 0.75432932 11.112
26.339472 61.776554 1.1662894 9.1315002
26.101574 66.669579 1.0279946 9.1064997
26.178049 67.412697 1.0346419 9.1141672
26.251019 73.005737 0.85643595 5.0384617
26.176283 73.393265 0.96212888 4.4814816
26.239525 73.754349 1.0517639 5.3888888
26.24888 74.141747 1.1120297 9.1217499
26.172352 81.711731 1.0412413 6
26.043797 82.133591 0.98502672 6
26.277632 84.696175 1.0585967 12.042333
26.222719 84.93 0.97154379 11.604928
26.068151 86.311478 0.90979862 12.071001
26.181515 86.637352 0.95655626 11.819125
26.158699 86.864449 1.101743 11.746333
26.21035 67.271904 1.5800664 12.1425
26.18502 73.718071 1.3936094 7.0114908
26.127876 82.94175 1.3247813 7
26.261824 84.708763 1.3512797 12.946786
26.257692 84.862923 1.3462399 12.214999
26.07556 85.263481 1.369508 12.707166
26.153927 85.840179 1.5592101 12.0685
26.038015 86.170227 1.3391305 11.702499
26.068886 86.433098 1.3358641 12
26.055599 67.509262 1.6171482 10.16
26.252443 70.256279 1.7312442 11.15475
26.21323 73.731148 1.9080125 8.2391329
26.391939 75.162315 1.6226467 13.1315
26.148729 75.441353 1.7125847 12.152
26.278706 84.227867 1.7403581 13.45275
26.251736 84.594208 1.8201817 11.358072
26.264286 84.848419 1.8861048 13.4513
26.204727 85.406494 1.7104615 12.259167
26.100264 85.787697 1.7601863 12.89893
26.13846 66.674805 2.2243593 13.1435
26.056431 67.820137 2.1111267 13.1415
26.167852 73.739799 2.1760874 9.7692585
26.197927 75.492828 2.2136662 10.910344
26.184015 75.674713 2.258158 13.152125
26.208036 84.201927 2.2418821 14.63203
26.250801 84.62851 2.1092167 12.676228
26.264162 84.9664 2.1805964 12.417937
26.146437 85.386009 2.1667628 14.053801
26.078762 85.814697 2.0262778 12.8216
26.224453 89.945404 2.3631353 8.0376673
26.026295 66.849327 2.5129304 11.164
26.233433 73.728333 2.5882394 10.303981
26.109064 75.660919 2.6135013 14.1465
26.296745 84.298965 2.4593184 14.6175
26.153097 84.625435 2.6699052 9.3043661
26.150085 85.066895 2.5873525 14.242032
26.246048 85.364502 2.6694717 14.150229
26.174013 85.623039 2.6785419 13.1085
26.080444 89.91391 2.4012148 8.033
26.190191 73.716179 3.01104 12.044864
26.234629 75.129463 2.9328778 11
26.267641 75.267784 2.9917262 11.450857
26.310009 75.708466 2.82617 14.152
26.005901 83.337616 3.1307893 8.1780005
26.3057 84.375908 3.0082006 8.6940002
26.099142 84.484596 3.1020229 9.1920223
26.193335 84.949005 2.8767478 11.6075
26.10919 85.417191 2.818681 14.11075
26.141413 85.791824 3.1744244 9.0235004
26.246464 86.075409 3.1436582 9.0244999
26.1845 60.201057 3.5455718 12.329103
26.21314 60.589214 3.5591834 12.273
26.227404 60.950077 3.5451164 12.154551
26.146452 61.439316 3.5659838 11.336686
26.128771 61.883137 3.5828836 11.555919
26.227755 62.181835 3.5764308 11.381905
26.015987 66.896729 3.5140152 9.0869999
26.252407 73.715912 3.3465075 12.419634
26.395817 75.042435 3.5194292 13.1645
26.311941 75.241699 3.3793647 11.69175
26.300079 83.138374 3.5842142 11.043667
26.181244 83.261765 3.5129459 10.2487
26.165159 84.56369 3.2721503 9.7472858
26.268147 84.944054 3.2654991 10.048167
26.128471 85.817657 3.273067 9.1756668
26.195616 86.173813 3.4764023 10.0315
26.195076 60.156132 3.7141545 12.248659
26.213173 60.494953 3.6403065 11.593311
26.172686 61.005276 3.6152201 11.348326
26.171089 61.333111 3.7481675 12.76125
26.150072 61.765713 3.6496706 12.877
26.230036 62.132835 3.6536295 12.913688
26.084318 63.167091 3.6920218 12.77475
26.138979 63.254482 3.7522707 11.171333
26.172327 66.774689 3.7196984 9.1785002
26.271549 66.829834 3.7215867 12.63175
26.131195 69.631798 3.9129894 11.50125
26.220701 73.694595 3.7938735 11.843878
26.064054 74.67395 3.9976943 9.1785002
26.211777 75.123116 3.8417468 12.378773
26.34358 75.271637 3.822799 15.15675
26.16033 83.090263 3.7571638 10.368222
26.146439 83.383369 3.7971523 10.165665
26.146671 83.725136 3.8352306 10.323851
26.144377 84.083801 3.8602128 10.398812
26.093391 84.698799 3.7899902 11.009875
26.232576 84.997726 3.9445701 10.06675
26.3241 85.284637 3.9142468 11.049749
26.097839 85.850105 3.9850037 8.1785002
26.058525 60.175972 4.0887599 13.825168
26.24395 61.303364 4.3338332 15.16275
26.357924 62.398418 4.3109379 15.1635
26.341131 62.85519 4.218606 13.168167
26.340517 64.169327 4.2459898 15.16725
26.21314 64.791557 4.2663212 13.1715
26.339678 64.995163 4.2069798 12.42317
26.254219 65.431381 4.242322 14.17175
26.233345 65.873413 4.2296801 12.67425
26.246325 66.652695 4.238059 12.17625
26.262373 67.012817 4.2395568 12.576449
26.204662 67.417252 4.2375202 12.1775
26.247274 67.828827 4.249125 12.51125
26.22533 68.181694 4.2569733 12.6785
26.24407 68.533676 4.2574754 12.429188
26.206049 69.047424 4.211803 12.072882
26.194635 69.464561 4.2219515 12.000919
26.132753 70.17704 4.2351871 11.903387
26.10956 70.684296 4.2510276 11.875281
26.096087 71.07431 4.2661605 11.875344
26.082659 71.466583 4.2827411 11.875406
26.066694 71.819099 4.2989554 11.903597
26.081263 72.268913 4.3226142 11.939001
26.204641 73.677368 4.1512728 12.705175
26.253843 74.621269 4.1911383 14.016
26.350943 75.160011 4.0544429 12
26.234669 75.287827 4.135107 12.309072
26.059311 83.024399 4.0667324 12.051999
26.093622 83.417908 4.1900868 11.528625
26.3456 84.112778 4.3267827 12.045201
26.017986 85.029243 4.1797786 10.02
26.307564 85.375107 4.0443382 11.033501
26.272984 64.910027 4.637217 13.173
26.192602 66.048981 4.4121652 11.0875
26.254795 67.555481 4.408052 13.1775
26.209414 69.111618 4.4267411 13.0005
26.162161 69.911072 4.524848 12.6685
26.054905 72.423729 4.5083947 12.0055
26.15505 73.491089 4.4800916 12.229635
26.144917 73.704529 4.4330611 12.333333
26.385719 74.381477 4.5315328 12.008968
26.151384 74.538177 4.4544911 12.0095
26.343004 75.076103 4.6154137 13.8869
26.222746 75.244293 4.6316795 12
26.099306 83.953247 4.7039304 10.099001
26.167843 84.10434 4.7064142 11.02118
26.136396 84.565262 4.6275454 11.450929
26.24378 85.660133 4.5745506 12.045
26.188284 73.407463 4.9457531 10.133249
26.033936 74.353943 4.8485994 12.008
26.21357 75.091232 4.941319 12.876369
26.225845 75.326279 5.0328026 14.08175
26.287384 83.530212 5.1090102 12.3535
26.173964 83.796135 5.003509 12.023078
26.163446 84.094444 4.9028549 13.043281
26.354471 84.761436 4.9938016 13.054166
26.355198 75.108765 5.5179272 14.614125
26.174932 75.31778 5.3782535 13
26.181807 83.471123 5.3217731 13.535251
26.167229 83.726677 5.3762126 12.656625
26.143888 84.497314 5.5652442 14.03875
26.190332 84.804672 5.3275027 11
26.011877 85.339767 5.3053651 12.0245
26.211327 75.125015 5.8594108 14.862287
26.32342 75.296883 5.8823996 13.571428
26.186438 84.202599 5.8633418 12.691167
26.228401 84.587357 5.8007388 12.809965
26.189426 75.137184 6.191936 13.363636
26.251068 75.34346 6.3114018 13.277625
26.24243 84.192612 6.1780829 14.514675
26.14517 84.54258 6.2407193 13.781418
26.024136 85.094894 6.2495627 15.046
26.250933 75.125 6.7657499 15
26.188828 75.284592 6.59267 14.248927
26.086372 84.58139 6.4308782 15.0345
26.025183 75.335495 6.8586898 13
26.356266 75.261734 8.5119724 13.113
26.185444 75.582748 9.9872379 14.1105
26.063171 75.343048 10.53059 13.704333
26.251122 75.537643 11.233099 14.0335
26.707129 79.595016 -2.8660293 4
26.560982 81.865585 -2.8765361 4
26.591459 88.182556 -3.076375 5
26.538145 88.512421 -2.949568 6
26.674788 89.090782 -2.8844008 6
26.600597 89.471451 -3.0364034 6
26.471497 89.667122 -3.0964999 5
26.633568 72.785011 -2.6406929 5
26.602604 73.018127 -2.5694981 5.5
26.542997 73.517067 -2.6381238 7
26.683075 74.243874 -2.6416361 4.3333335
26.609125 82.05072 -2.5654595 5.5
26.553682 83.052284 -2.4035919 6
26.633417 88.711998 -2.7998433 6
26.511797 89.025276 -2.5893383 6.5333333
26.659508 89.231934 -2.6789732 7
26.489582 72.891991 -2.055346 6
26.678177 74.289024 -2.1698062 5
26.721979 74.469131 -2.1704848 6
26.669395 82.704834 -2.1662364 6
26.686569 83.02552 -2.0393498 7
26.715851 84.693474 -2.0254958 7
26.532555 84.968063 -2.054354 7
26.422304 88.673141 -2.0023584 7
26.799282 66.82753 -1.6605216 6
26.523794 72.823715 -1.9094656 6
26.630901 74.280434 -1.7132244 6
26.573225 74.487366 -1.9844398 6
26.605392 82.234711 -1.9551188 6
26.672266 82.618393 -1.7899709 6.5
26.592606 82.968338 -1.8148285 7
26.50061 88.497246 -1.8685465 7
26.452778 73.645447 -1.4899453 7
26.648497 74.298126 -1.3672189 7.2282
26.523773 74.48201 -1.3293564 7
26.51725 82.17067 -1.4115589 7.8352504
26.570265 82.74942 -1.5631051 7
26.566139 82.995277 -1.3876693 8.0438175
26.51302 83.450607 -1.3377396 8.0162859
26.572813 83.875168 -1.3769617 8.0553999
26.570183 84.082794 -1.4224592 8.0637493
26.592442 86.289139 -1.4168469 8.1324997
26.614281 86.528099 -1.2648391 8.1225004
26.645306 87.393021 -1.2496275 8.1327496
26.640776 66.619667 -0.97892994 7.5555
26.750366 66.833389 -1.0130123 7.3753333
26.55094 73.842674 -0.89499569 8.0384617
26.627373 74.288284 -1.0471994 7.3475552
26.702671 82.774979 -1.119519 8.0230999
26.687746 82.909851 -1.1188856 8.0226812
26.439541 83.495132 -1.0421966 8.1515007
26.759562 85.288757 -0.93691891 8.7784996
26.591652 86.01857 -1.0754155 8.1300001
26.751507 86.902443 -0.97409707 9.1324997
26.757311 87.796669 -1.1291792 9.1342497
26.719048 88.144394 -0.95286852 9.1292496
26.618956 60.193188 -0.50939482 1.5
26.52528 60.614937 -0.46896195 1.8571428
26.623487 61.032101 -0.48375133 2
26.551367 61.446156 -0.49604657 2
26.57448 61.757946 -0.46598494 1.125
26.616146 62.267101 -0.50062901 2.625
26.523436 62.63744 -0.44859737 0.40000001
26.602938 62.918381 -0.49156547 1.6666666
26.47646 63.200089 -0.46560854 0
26.562048 63.952515 -0.47852021 2
26.789307 64.207703 -0.47922948 2
26.563572 64.59433 -0.49048203 3.3333333
26.712692 64.859711 -0.48628095 3.3333333
26.490122 65.523636 -0.49203306 3.2857144
26.678404 65.796738 -0.47565565 2.5
26.615622 66.158653 -0.56544924 5.54775
26.557192 66.466537 -0.47610769 3.5999999
26.643763 66.908646 -0.49437669 4.5
26.637478 67.50174 -0.42614409 2
26.586231 67.889252 -0.42340162 1.5
26.585958 68.322021 -0.41829735 2.6666667
26.531555 68.678482 -0.41078746 1
26.54221 69.101723 -0.40377375 1
26.701748 71.39299 -0.42187786 6
26.628485 73.92823 -0.52880621 8.3486252
26.600433 74.313194 -0.58428478 8
26.509501 74.477173 -0.67111582 8.0526667
26.683222 83.041962 -0.65019071 9.0477781
26.596703 83.410721 -0.60810751 8.9307775
26.738436 83.69767 -0.68133372 9.0574999
26.735752 84.111931 -0.79757917 9.1389999
26.477789 85.903015 -0.53146809 9.1125002
26.599537 86.107651 -0.61179495 9.1145
26.64341 86.440689 -0.5569604 8.0535002
26.716614 66.416557 -0.011979927 8.1370001
26.740442 66.987938 -0.14687198 8.24825
26.730078 69.09993 -0.38164482 2
26.607117 69.433037 -0.38244838 1.5
26.538074 69.806114 -0.37784326 1.3333334
26.761681 70.353783 -0.38470718 3.5999999
26.686253 70.746185 -0.37130868 3.3333333
26.575636 71.094437 -0.32985222 1
26.628286 71.379486 -0.3683584 4
26.587238 71.815697 -0.34575263 3.4000001
26.715357 72.134514 -0.3059389 1.6666666
26.617886 72.585098 -0.12849689 3.4000001
26.554846 72.808517 -0.052067474 1.5
26.679235 73.595154 -0.26833892 9
26.563559 73.83992 -0.29045811 8.9755669
26.597256 74.325264 -0.098522045 9
26.511322 74.513657 -0.013634335 9
26.511446 81.523842 -0.20488597 3.3333333
26.60034 83.130569 -0.1855212 9.5542498
26.683153 83.363487 -0.13412574 9.9487391
26.612358 83.728531 -0.26661026 8.0485001
26.747118 85.749413 -0.14446189 10.109333
26.557209 87.459595 -0.30660087 10.082832
26.772858 66.965126 0.069302343 8.5797501
26.646111 72.660789 0.19515204 2.425926
26.587601 72.904778 0.23626797 2.375
26.57353 73.347336 0.2216032 4
26.568771 73.854782 0.23532064 10.021455
26.564678 74.304352 0.16684034 9.1274061
26.732656 74.829926 0.39479354 8.0900002
26.745861 81.823181 0.092624113 4
26.502132 82.252815 0.39125684 5
26.459249 82.646027 0.30950978 8.0815001
26.507107 83.426781 0.062007666 10.162499
26.408827 85.054222 0.27448902 11.1215
26.672871 85.770317 0.072801284 10.110833
26.687803 86.07901 0.044299934 10.1105
26.5408 86.959229 0.35268092 10.58525
26.498178 87.474976 0.26921731 10.408
26.609102 66.518173 0.61091673 9.1097507
26.759426 66.886688 0.52401823 9.7705631
26.568737 72.699791 0.44947979 4.0999999
26.561193 72.969414 0.58193582 2.3883336
26.566626 73.203629 0.63297868 7
26.620657 73.902222 0.71585387 11
26.610867 74.33477 0.59613085 10.144215
26.72925 74.47937 0.61267364 10.1595
26.631994 81.836189 0.61417818 5.3333335
26.559193 82.118881 0.57630998 5
26.405731 85.497818 0.73307717 11.111
26.797674 86.711624 0.51479423 11.1135
26.713594 86.940224 0.56189734 11.11
26.777836 87.323257 0.63079226 11.1075
26.698944 87.643326 0.46846914 12.04
26.584082 61.836739 1.1223503 9.1259995
26.698631 66.457047 0.89373314 9.0964994
26.753929 66.983147 0.96986824 10.080125
26.570362 73.039948 0.87238997 4.1500001
26.592115 73.33477 0.96219105 4.5151515
26.574472 73.831902 1.0263546 9.2065773
26.594507 74.364059 1.0668772 10.890375
26.541059 74.496635 0.97152436 11.1455
26.585796 81.681824 1.046393 6.0555553
26.606258 82.237549 1.0045892 6
26.541515 82.582321 1.0023434 6.25
26.539337 82.923737 1.0564198 6
26.571766 84.69709 1.0527426 12.369375
26.656216 84.914612 1.1334617 11.890501
26.76523 66.91687 1.3919779 10
26.57267 73.767212 1.4200283 8.2437563
26.569065 74.340157 1.3370659 11.09964
26.502138 74.509384 1.5027581 12.1455
26.514427 81.767059 1.3697097 8.1040001
26.430086 82.598892 1.469647 8.1094999
26.571407 82.895851 1.2600669 7
26.607224 83.457138 1.4990724 7
26.601515 84.125984 1.3996937 14.1335
26.619349 84.647469 1.3874893 12.757799
26.534063 84.926361 1.3049644 12.2456
26.596231 70.156502 1.774478 12.112499
26.750141 73.57486 1.7139747 8.1075001
26.565365 73.797859 1.8266234 9.7299557
26.592981 74.317513 1.7123419 12
26.577494 75.185844 1.6732135 12.56675
26.580975 75.357224 1.6861906 12.1224
26.616877 84.150536 1.8137497 13.1135
26.49358 84.714729 1.8309081 12.86745
26.429857 84.917679 1.9031682 13
26.689194 85.70932 1.9673367 8.1149998
26.664616 86.575844 1.9161847 8.0889997
26.759165 66.920197 2.0763052 12.5
26.78105 69.976196 2.2454324 12.154
26.738222 71.057892 2.3271725 14
26.731689 71.304749 2.2027955 14
26.772383 71.606308 2.315578 14
26.769753 72.015648 2.2425706 13.573
26.650854 73.135544 2.157876 13.146
26.676998 73.324043 2.2429082 13.715917
26.631454 73.761574 2.1969757 10.333901
26.400457 75.142525 2.0403042 13.1465
26.537664 75.479134 2.1982496 10.837434
26.576056 75.661972 2.1209567 11.182157
26.455677 84.083275 2.2237916 13.147667
26.449995 84.526611 2.1714768 13.5595
26.502892 84.950371 2.1306763 12.632501
26.717316 86.091545 2.2086794 8.0191669
26.736937 86.549614 2.2403851 8.0375834
26.423769 89.864716 2.3492556 8.0392494
26.582529 73.736809 2.5871127 11.079467
26.481359 75.567047 2.6900711 13.152
26.517336 75.67395 2.518892 13.948901
26.639528 84.343666 2.6965625 8.0889997
26.435467 84.42424 2.5202653 13
26.46991 85.142822 2.6306527 14.553249
26.428432 85.398331 2.6563017 12.055
26.685886 85.855095 2.7175224 8.7111673
26.59635 73.725937 2.9835038 12.677073
26.563099 75.121101 2.9556098 11.031301
26.63986 75.311096 2.964623 11.247
26.556904 84.54837 2.9940932 9.0232506
26.548111 84.962791 3.1244464 8.9416246
26.507107 85.792168 3.157021 9.0236664
26.796974 86.385742 2.8408012 9.0450001
26.735123 86.591888 2.8974836 9.0246992
26.581678 87.055092 2.8804579 9.0415001
26.778412 87.278915 2.9288628 9.0375004
26.528683 60.122822 3.5770214 14.664
26.486168 60.630688 3.5732052 14.657187
26.619528 61.08279 3.5401969 11.8185
26.494839 61.26775 3.5633504 12.911438
26.665184 62.181656 3.5793178 12.830417
26.633665 73.487442 3.3398163 9.0970001
26.603523 73.721458 3.3731377 13.738541
26.562958 75.072968 3.5149713 11.166667
26.622114 75.304695 3.3451011 11.822822
26.579813 83.933517 3.5991728 11.071
26.678406 84.585617 3.2901514 9.4831438
26.505892 84.858284 3.3290291 10.0357
26.691683 85.581413 3.2725589 9.1485643
26.424408 85.809631 3.2247224 9.5429993
26.521929 60.223179 3.6233847 12.874876
26.481989 60.511208 3.6420434 14.816333
26.592213 61.014099 3.6718884 12.122499
26.735851 61.247765 3.6226361 12.163833
26.579756 62.228107 3.6686199 13.732607
26.647297 63.198162 3.6915214 11.171
26.578775 63.233509 3.7724755 14.415188
26.702946 66.70285 3.7872927 9.0085001
26.601772 66.840134 3.7313676 11.58725
26.737858 69.458847 3.9570284 15.0035
26.785118 69.652733 3.944993 14.0025
26.59733 73.702271 3.7156281 13.860059
26.550531 75.140755 3.7980289 12.396071
26.634686 75.306511 3.7823133 14.3262
26.637299 83.787651 3.7604556 11.037499
26.597668 84.059448 3.6821206 10.0745
26.59626 85.02578 3.9090352 10.1725
26.449394 85.290154 3.9848988 11.037
26.446367 60.050362 4.1572919 14.65575
26.427713 60.529118 4.2164879 15.156
26.460438 61.086643 4.1906605 14.161
26.439083 61.622971 4.1943655 14.1625
26.425203 62.609722 4.2292213 15.16275
26.785593 65.944252 4.3467097 15.1725
26.620203 66.004349 4.3291469 13.174
26.598446 67.30497 4.2462392 15.176
26.604097 73.674797 4.2927284 12.730363
26.602945 74.67038 4.0746622 10.59425
26.579805 75.174431 4.082932 12.574876
26.571949 75.304771 4.1630421 12.351111
26.587252 84.246422 4.2829781 11.310501
26.680737 84.610153 4.3770819 12.05125
26.635824 85.356018 4.0526261 10.6296
26.402714 62.394665 4.5490994 15.164
26.416979 63.108116 4.4704275 15.1655
26.507929 73.447533 4.5053806 12.18302
26.584885 73.656708 4.4272666 11.003
26.597136 74.429924 4.460638 9.0118332
26.656939 75.050652 4.6588359 13.448417
26.569313 75.295219 4.6137528 12.449214
26.412031 83.970665 4.4158764 12.035
26.605791 84.219429 4.6024919 11.36375
26.709986 84.524307 4.5272894 11.071667
26.662346 84.824677 4.436626 12
26.765476 73.406792 4.8336582 12.059001
26.51815 75.11515 4.9188266 12.785714
26.618198 75.237068 4.977303 13.741714
26.505112 83.429848 5.0831342 11
26.401215 83.919312 5.057806 13.035
26.636429 84.222206 4.9616427 12.693916
26.598234 84.498894 5.0166783 13.030149
26.416718 84.861633 5.0698071 13.064
26.540245 75.08181 5.5557294 15
26.615019 75.313721 5.3736477 12.855077
26.443634 84.352959 5.5231152 14.04
26.58073 84.60302 5.4883742 12.844137
26.61639 75.135246 5.8042521 14.333333
26.649847 75.264984 5.8264375 14.302893
26.532526 84.352715 5.6835842 12.260331
26.6521 84.593246 5.6524301 13.533625
26.578983 75.132263 6.1296477 13.461538
26.618984 75.253647 6.1958327 13.582277
26.448769 83.963272 6.0652628 12.018
26.493849 84.290604 6.1778007 14.6349
26.536932 84.537437 6.0934286 14.676834
26.47031 84.816231 6.0064454 12.0195
26.551779 75.137856 6.7324195 15
26.607061 75.332985 6.5685315 13.575571
26.530382 75.220665 7.5503254 15
26.644457 75.188713 7.7294521 15
26.631424 75.30056 7.7631893 15
26.676275 75.098022 9.0300798 15
26.435556 75.338356 10.384647 13
26.624151 75.872414 10.172204 15.092
26.569403 75.269615 10.704425 13.666667
26.705879 75.449013 11.026281 14.443667
26.548769 75.374649 11.312875 14.1685
26.616457 75.36113 12.562367 14.79325
26.645582 75.269516 12.840902 14
26.507065 75.385422 13.268233 15.1685
26.887833 72.965195 -2.8519833 7
