# .PCD v0.7 - Point Cloud Data file format
VERSION 0.7
FIELDS x y z intensity
SIZE 4 4 4 4
TYPE F F F F
COUNT 1 1 1 1
WIDTH 1281
HEIGHT 1
VIEWPOINT 0 0 0 1 0 0 0
POINTS 1281
DATA ascii
9.814991 -68.121986 4.979176 10.467896
9.8969269 -67.72477 5.0204363 11.003625
9.8290443 -85.2453 5.4131517 10.583251
9.8139467 -85.128975 5.3564796 9.7709675
9.8680239 -75.262779 5.3425679 9.4302139
9.797122 -68.111259 5.4110198 11.065321
9.8781347 -67.766838 5.3926063 11.606295
9.9001026 -60.48703 5.5774422 12.053
9.8302174 -85.251991 5.6413798 11.759555
9.8174334 -85.149727 5.6381783 11.092285
9.8790884 -75.226257 5.8647285 10.2023
9.9931316 -75.144234 5.9356318 9.0105
9.8023548 -68.083984 5.8134642 12.118564
9.8556261 -67.784454 5.8053699 12.444165
9.9894485 -67.593277 5.9666023 14
9.9534407 -75.275383 6.1407042 10.669833
9.9178696 -75.186104 6.1477704 10.696667
9.8000507 -68.067276 6.2003255 12.859956
9.86131 -67.826111 6.1431937 12.622116
9.8940487 -67.583961 6.2709699 14.781375
9.9303646 -75.295349 6.4516673 11.2052
9.9618654 -75.191788 6.5012326 11.5
9.6313419 -68.436432 6.5915084 11
9.7773247 -68.107391 6.575563 12.841393
9.8117723 -67.839607 6.5141945 13.23305
9.8105965 -67.566818 6.5469027 14.622101
9.7835112 -68.313034 7.0073042 13.090532
9.6396599 -89.990051 7.4915648 10
9.8573294 -68.241508 7.3653746 13.427167
9.6640415 -89.977531 7.8755803 11.243335
9.8351688 -67.850716 7.7937255 14.527562
9.7793837 -89.91835 8.1815739 13.286718
9.7751532 -67.845993 8.1526384 11.51875
9.8326597 -89.846664 8.5433321 12.490637
9.8139372 -67.855637 8.4239559 14.552
9.7340164 -89.818153 8.9026718 12.407001
9.9862642 -89.25209 9.0485039 12.098
9.9803143 -89.163078 8.8629131 12.1
9.7574396 -88.541374 9.010437 13.992281
9.7772179 -88.197006 9.0706816 11.725062
9.7980356 -88.63092 9.4248266 13.2065
9.7878075 -88.209854 9.3676386 13.838222
9.8017159 -87.982681 9.5188665 12.178
9.849515 -67.780159 9.4760761 13.37
9.8503571 -89.687798 9.9013891 12
9.7937937 -89.47451 9.8629675 12.59775
9.9459991 -88.673111 9.7886906 13.455167
9.7943792 -88.265518 9.6665344 13.791
9.9145279 -87.937592 9.665658 15.1705
9.8767424 -89.718887 10.170991 13.05475
9.8200111 -89.506882 10.092984 13.5585
9.9021664 -88.626381 10.684964 14.1015
9.8656425 -88.266792 10.72079 12
9.830987 -87.855606 10.681314 12
9.7491236 -67.804947 10.554736 14.3675
9.87356 -89.803711 10.892109 12.077
9.792305 -88.346664 10.984294 12.073
9.7666178 -67.781296 10.972096 13.515749
9.8103848 -89.899284 11.247109 12.071
9.785697 -89.131203 11.275497 15.1075
9.8978376 -67.74588 11.25715 15
9.8361578 -88.534882 11.86335 13.546
9.6163111 -67.619095 11.926955 15
9.6709557 -89.623123 12.326425 14.0005
9.6783075 -89.265564 12.022688 14.092
9.7974825 -88.164703 12.272676 14.047501
9.8043528 -87.711304 12.159189 13
9.7791204 -67.678024 12.268303 14.52075
9.6988602 -67.572723 12.210389 15
9.9427376 -89.895081 12.700221 13.074
9.6044207 -89.068329 12.750907 13.0705
9.9690771 -89.56955 13.507996 14.091
9.8357067 -88.771286 13.469784 14.5465
9.9334364 -89.053085 13.646958 14.084
9.8932905 -88.750343 13.782372 14.5855
9.6759472 -89.475891 14.273376 15.0955
9.7623549 -88.89257 14.311746 15.0945
9.7546415 -88.691498 14.199229 15.047501
9.792304 -67.821167 14.348416 15.0275
9.9450893 -89.504135 15.895542 14.0215
9.9675703 -89.645309 16.192366 14.0235
9.893116 -89.168655 16.152182 15.067
10.210373 -75.321259 -0.28237623 4
10.341524 -75.262733 0.19980264 4
10.381604 -75.463654 0.6444481 5
10.345669 -75.329926 0.90402865 5
10.117091 -75.401794 1.4351109 4
10.077431 -75.701431 1.7864183 3
10.245252 -71.834717 2.3611009 1
10.348541 -71.509071 2.2745225 1
10.024703 -70.142715 2.1874859 2
10.153419 -68.346962 2.0450892 3
10.285623 -67.964722 2.3963156 4
10.327328 -83.451355 2.5335038 5
10.26884 -82.84848 2.7955258 0
10.227107 -82.521629 2.7849166 2.2
10.187627 -82.08194 2.7662659 2
10.210149 -81.760284 2.7173498 2.8
10.244363 -81.47068 2.7048492 2.5714285
10.152101 -81.073074 2.6685805 3
10.202037 -80.579163 2.6756401 1.4285715
10.13544 -80.261261 2.6828127 0.5
10.100411 -79.784134 2.6491795 1.2
10.361481 -79.434532 2.6024885 2.6666667
10.287732 -79.046082 2.5943348 2
10.229567 -78.65976 2.570399 2.2
10.09976 -78.238388 2.5471461 2.2
10.114213 -77.838882 2.5055633 3
10.224205 -77.352692 2.4726489 3
10.263009 -76.931099 2.4540522 2.5714285
10.187691 -76.620232 2.5274389 3.7272727
10.132569 -76.308403 2.5779307 3.5999999
10.155746 -73.244888 2.6006999 2
10.044276 -72.935661 2.5778415 2.3333333
10.249517 -72.672623 2.5887585 1.8
10.130063 -71.803711 2.544816 2.25
10.108069 -71.525269 2.7936993 3
10.314842 -70.851479 2.577352 3
10.176464 -70.204498 2.4431884 3
10.19262 -68.00341 2.405149 4
10.155017 -84.130562 2.9695287 6
10.198177 -83.776237 2.9878638 3.6666667
10.17909 -83.463524 2.8873887 1.5
10.145316 -82.991913 2.8343258 2
10.231761 -82.612091 2.8268933 1.5
10.355672 -81.931503 2.8022242 1
10.32139 -79.915543 3.1147234 5
10.20909 -79.474869 3.089654 5
10.092299 -76.078156 2.9350367 3.5999999
10.17275 -75.952553 3.0468693 2.7619045
10.189003 -75.412071 3.0724466 5.6140351
10.382755 -74.656479 3.0208409 4
10.060653 -68.098862 2.8281519 5
10.296179 -67.952072 2.8066363 5
10.091909 -85.227066 3.5979276 2
10.126801 -84.999466 3.5784769 3
10.187132 -84.584679 3.4865935 2.5999999
10.232882 -84.206795 3.4531662 2.3636363
10.230537 -83.869804 3.3251276 3.3
10.059064 -80.651253 3.577405 6
10.22885 -80.211586 3.5674043 6
10.194358 -79.908318 3.5515475 6
10.071177 -79.446503 3.5226073 6
10.005485 -76.003227 3.3351357 0
10.064542 -75.954979 3.4955146 4.0166664
10.196506 -75.400253 3.3721318 3.5950353
10.186029 -68.043884 3.2346473 6
10.242532 -67.747406 3.5305805 7
10.213902 -85.324013 3.8189797 3.75
10.130791 -85.036682 3.8181744 4.1750002
10.17217 -84.774673 3.6745684 2.8611114
10.028321 -75.932762 3.8313076 5.6428571
10.181201 -75.361755 3.8040729 6.1300817
10.378303 -72.587341 3.8541863 7
10.168401 -68.085335 3.7067199 7.3333335
10.260616 -67.82402 3.791055 7.6762834
10.203057 -85.254684 4.1983504 5.7555556
10.201031 -85.102982 4.1315775 5.3619795
10.175533 -75.358566 4.1788058 7.8367867
10.215486 -75.192528 4.1690645 8
10.06083 -68.113556 4.1259155 9.0500002
10.255613 -67.788391 4.1694274 8.7210913
10.235387 -85.231911 4.5816603 7.0724721
10.257772 -85.109734 4.6642108 7.4480867
10.164637 -75.332268 4.5728154 9.4039383
10.08856 -68.082779 4.5877252 9.9465561
10.238008 -67.756889 4.5880136 9.800293
10.1502 -85.259705 4.9275126 8.4704542
10.199738 -85.120682 4.9534225 8.4875574
10.164987 -75.307159 4.9880428 11.243312
10.131978 -68.075066 4.9662337 10.903609
10.246469 -67.744965 5.0378933 10.758617
10.235542 -85.247383 5.4008865 10.287693
10.165329 -85.087669 5.385848 10.033812
10.156465 -75.286316 5.3574834 11.605263
10.140422 -75.134087 5.2378182 9
10.07125 -68.046684 5.4368963 12.875
10.193059 -67.773628 5.393044 11.779621
10.306881 -67.559563 5.3411994 10
10.153246 -85.213684 5.7223716 10.60675
10.067221 -85.144211 5.6251073 11
10.155216 -75.28318 5.7651258 11.893425
10.054719 -75.157555 5.9221559 10.5415
10.065616 -68.038887 5.7602186 13.75
10.192148 -67.715683 5.7942743 12.827262
10.252622 -67.570938 5.8361306 11.4048
10.30888 -75.69017 6.3285847 14.016084
10.176256 -75.28717 6.1918869 12.526609
10.10723 -75.171585 6.2470574 11.428572
10.076283 -68.031013 6.2029128 13.928572
10.130054 -67.772789 6.1807594 14.153125
10.225651 -67.567795 6.2079191 13.923077
10.127664 -75.60733 6.4522924 11
10.187239 -75.357292 6.5178018 12.472863
10.130399 -75.179382 6.5549989 13.4
10.331059 -68.408272 6.6984553 11.0725
10.163054 -68.178345 6.6712551 12.775828
10.170939 -67.821205 6.5344987 13.61305
10.264264 -67.545921 6.5241604 13.463546
10.216102 -68.302605 6.9722362 13.536698
10.077929 -68.434814 7.288507 11.0775
10.151384 -68.209198 7.3872628 14.112682
10.140878 -67.960556 7.3004069 11
10.312485 -67.824821 7.7740979 14.527
10.27962 -67.802979 8.2037964 13.5135
10.032617 -88.570908 8.7761126 12.0995
10.05417 -88.399231 8.7892685 11.0005
10.279291 -67.819511 8.5111332 14.01225
10.282618 -89.455292 9.0462608 13.406301
10.3387 -88.965508 9.0770912 12.488072
10.221117 -88.634064 9.0511723 12.833328
10.062254 -88.303925 9.0548306 12.695
10.328276 -89.714676 9.5427465 13.372167
10.244275 -89.432503 9.4435921 14.391643
10.235723 -89.019661 9.4474583 13.76925
10.185049 -88.563347 9.3716774 13.578026
10.050325 -88.314377 9.3851566 14.087875
10.207373 -89.38131 9.7910194 14.087749
10.178616 -88.920723 9.8628807 13.335251
10.155612 -88.696686 9.673646 13.559
10.101798 -89.99778 10.015655 12.179
10.191008 -89.005432 10.192461 13.643
10.271397 -88.726631 10.258386 13.003166
10.33334 -67.797501 10.386746 13.0195
10.270871 -88.955978 10.566118 13.351916
10.160149 -88.74295 10.702331 12.53825
10.228602 -67.762787 10.586198 14.340333
10.214622 -88.957748 10.997505 12.0735
10.148033 -88.379021 11.039374 15.107
10.25431 -67.742188 10.961004 14.258375
10.27442 -88.924843 11.320865 15.052999
10.253306 -88.586105 11.289736 14.397499
10.214591 -67.729233 11.440454 15
10.256719 -88.947639 11.876086 13.36575
10.092451 -88.740616 11.943705 13
10.261629 -88.532928 12.180998 14.2386
10.233464 -88.273651 12.375897 14
10.223934 -67.595268 12.052671 14.0215
10.347915 -88.868637 12.506086 14
10.285786 -88.569931 12.489437 14.0321
10.21619 -88.378265 12.450508 14
10.15064 -88.632156 12.820509 14
10.147155 -89.710152 13.349551 14.093
10.248324 -89.383911 13.43919 14.088
10.242144 -88.946602 13.415371 14.2186
10.156249 -88.632454 13.436246 15
10.22549 -89.39003 13.638376 14
10.179395 -88.920212 13.789027 15.023875
10.079686 -88.722954 13.794847 15
10.152956 -89.533966 14.318049 14.071
10.300187 -89.524223 15.391795 15.077
10.043819 -89.266464 16.026047 15.0685
10.313056 -89.852348 16.569183 15.0115
10.311439 -89.426979 16.645681 15.01425
10.022545 -89.839928 17.16111 15.0165
10.421364 -75.137161 -0.23289932 4
10.510626 -75.096886 0.11546609 4
10.534745 -75.009468 0.83575916 5
10.584476 -74.966171 1.530959 4
10.79761 -74.791397 1.377014 3
10.761449 -78.590858 2.2298179 5
10.74788 -78.110153 2.2014239 5
10.653922 -76.690552 2.3831284 4
10.621117 -76.348335 2.3605957 4
10.449694 -71.121742 2.3425562 2
10.476143 -68.857475 2.1697915 3
10.601485 -67.919441 2.3837008 4
10.656379 -82.978409 2.6100719 5
10.579236 -82.628014 2.7109201 4
10.62443 -82.2146 2.7420695 3.25
10.608848 -81.879372 2.6762273 3.1666667
10.633101 -80.929504 2.7186306 1.2
10.626258 -80.64843 2.6722524 2.3333333
10.619389 -80.241592 2.6281252 3
10.606244 -79.808884 2.6197846 2.5999999
10.594775 -79.425591 2.6187899 1.7142857
10.56961 -78.967186 2.5708847 3.5
10.702827 -78.576935 2.5385437 3.75
10.646554 -78.168144 2.5200145 2.6666667
10.580347 -77.799599 2.504446 2.4285715
10.585106 -77.485695 2.4785752 2.375
10.645065 -77.0793 2.4461725 2
10.526543 -76.524597 2.4457943 3.2
10.625894 -76.196579 2.5261724 4.375
10.635528 -75.898079 2.4538872 5
10.423549 -73.231056 2.5868094 0
10.435415 -73.129547 2.6406567 1
10.632591 -72.549278 2.7041216 2.8333333
10.625427 -72.017105 2.6773033 4
10.650638 -71.815796 2.6128895 3
10.658512 -71.440834 2.7534854 4
10.540135 -70.964706 2.6104703 3.5
10.593964 -70.600006 2.7631884 4
10.586267 -70.276688 2.6573193 4
10.490736 -68.007843 2.4042108 4
10.547196 -67.869064 2.5464258 6
10.598397 -84.61879 3.1515603 6
10.546338 -83.670288 3.0537639 3.625
10.616575 -83.506836 2.9594586 3.9166667
10.651712 -82.983238 2.8338785 2.4000001
10.586644 -82.778122 2.8018935 3
10.727509 -82.245537 2.8177576 1
10.467302 -76.068214 2.8731713 4
10.75738 -75.804268 2.9148734 2.3333333
10.689157 -75.379501 3.0937507 4
10.61997 -74.998856 3.0263278 4.125
10.573983 -74.653671 3.0401671 2
10.661267 -74.383919 2.9378548 0
10.723598 -72.687302 2.9737644 4.090909
10.665237 -72.307922 2.9526899 4
10.660665 -71.784683 2.9098697 4
10.63045 -71.211624 2.8671095 4
10.557462 -68.086098 2.9101124 5.6666665
10.54944 -67.763588 3.0606031 7
10.564041 -66.320648 3.0936704 7
10.416208 -89.989639 3.465477 5
10.663074 -84.99366 3.5221436 3.25
10.58939 -84.605537 3.4912333 3.03125
10.614237 -84.173439 3.4420455 2.5555556
10.507441 -83.907112 3.3499033 2.5
10.595483 -83.581261 3.2493801 4
10.417201 -78.640747 3.5615184 6
10.715481 -72.613152 3.4090359 5.5416665
10.581348 -72.043152 3.5097122 6.5
10.669582 -71.796524 3.5405049 6
10.674545 -71.411255 3.5418389 6
10.62693 -70.984261 3.521287 6
10.623616 -70.580437 3.4696071 6
10.601024 -70.226089 3.4220092 6
10.535601 -68.04998 3.4224129 6.6666665
10.557705 -67.809525 3.3320649 6.3333335
10.589732 -85.28334 3.8159463 2.8888891
10.578005 -85.033844 3.7794769 4.223958
10.633085 -84.651596 3.6045344 1
10.686858 -72.609383 3.8064492 6.6714725
10.671018 -72.198357 3.7596283 6.5651112
10.65616 -71.57476 3.6084306 6
10.60314 -68.049217 3.769887 7.6666665
10.620687 -67.79406 3.7448564 7.5498533
10.535533 -85.300026 4.1829219 5.7333336
10.60273 -85.130997 4.1270776 5.4375
10.652347 -68.039238 4.2884812 8.3653631
10.572201 -67.759827 4.1757174 8.4387188
10.530758 -85.267265 4.5884943 7.3305497
10.535233 -85.118317 4.5833516 7.1212239
10.600048 -68.02523 4.5907469 8.1781664
10.604217 -67.755882 4.588789 9.6499996
10.510248 -67.568504 4.5651817 10.5
10.526417 -85.250038 4.9233341 8.3703747
10.572021 -85.08902 4.9020405 8.2051926
10.608851 -68.055779 4.9534364 10.141129
10.600745 -67.767738 5.0027533 10.242065
10.606421 -85.268608 5.3804784 10.315132
10.573955 -85.098389 5.3692365 9.9294834
10.699657 -68.013062 5.4427385 11
10.625717 -67.771629 5.4125128 11.433571
10.598823 -67.577057 5.3860888 9.7542496
10.785621 -85.284889 5.6321297 12.12225
10.72126 -68.240265 5.9121375 9.0137501
10.639511 -67.752029 5.7688789 12.082749
10.603681 -67.568687 5.831996 11.149285
10.497194 -75.641083 6.2589574 12.8405
10.452891 -75.597878 6.3450832 10.084
10.622019 -67.735107 6.1852469 13.074562
10.593539 -67.558022 6.2314401 12.446571
10.411835 -75.589142 6.444438 15.094
10.666133 -68.20417 6.6965866 12.560846
10.620991 -67.887329 6.5561204 13.294
10.559989 -67.552086 6.5344558 13.190582
10.606544 -68.269203 7.000936 13.305863
10.693415 -67.814323 7.1753168 10
10.619691 -68.237328 7.3219886 12.874441
10.704472 -67.922714 7.5050111 13.151501
10.659105 -67.874954 7.8142338 12.582023
10.613451 -67.847008 8.1990213 13.488795
10.692883 -68.179649 8.7369633 11
10.595206 -67.817833 8.5758886 12.709
10.644831 -89.777328 9.1151934 11.51875
10.536194 -89.430298 9.1047907 12.886301
10.492749 -88.875198 9.1434994 11
10.496233 -88.754921 9.0768337 11
10.776156 -68.138046 9.018631 11.0345
10.644369 -67.771088 9.0044937 13.450055
10.540792 -89.774399 9.2694893 12.418312
10.515361 -89.423676 9.369894 12.94475
10.490638 -89.001709 9.3719473 13.057875
10.471691 -88.763145 9.5132618 15.1195
10.562606 -67.77948 9.3735867 14.30715
10.445526 -89.349678 9.9395351 14
10.459413 -88.932739 9.7972183 13.1035
10.622748 -67.707085 9.8240776 13.7398
10.732054 -68.084419 10.1963 12
10.644733 -67.703232 10.248043 13.896833
10.413579 -89.273788 10.423907 14
10.653295 -88.896744 10.56349 13.025312
10.538878 -88.741722 10.64752 14.101
10.605107 -67.750793 10.590082 14.4155
10.608245 -88.961662 11.014756 13.703167
10.50841 -88.642738 11.02244 13.109449
10.428067 -88.331078 11.093334 13
10.579211 -67.693878 11.025861 14.125
10.57476 -89.386284 11.387674 13.427834
10.520381 -89.071655 11.307519 14.071125
10.479187 -88.598854 11.416772 13.031499
10.617639 -67.657364 11.256152 13.666667
10.445885 -89.061653 11.869441 14
10.525167 -88.955879 12.084673 13.75
10.470687 -88.650238 12.294327 14.0189
10.611081 -67.548508 12.16203 15.0165
10.716165 -89.29007 12.599405 13.071
10.622151 -88.89653 12.556221 13
10.522037 -89.532188 13.599483 14.0845
10.718506 -88.169189 13.986866 14
10.537495 -89.22139 14.179671 15.049
10.757683 -87.839806 14.757086 15.0835
10.609801 -67.46682 14.516121 15
10.761849 -89.263496 15.584778 15.074
10.793544 -89.943924 15.867954 15.0715
10.635665 -88.984085 15.72725 15.0355
10.411228 -89.361206 16.09425 15.066
10.595096 -89.792801 16.561071 14.0245
10.603759 -89.504707 16.673632 14.0255
10.718742 -88.948792 16.43989 14.025
11.092129 -74.540527 -0.86436582 3
10.932836 -74.618217 -0.44304273 4
11.114756 -74.415543 -0.38969156 4
11.192035 -74.37928 -0.03546679 4
11.038016 -74.595047 0.23057382 4
11.086853 -74.757538 0.61110616 5
11.020687 -74.490219 0.84568942 5
11.120864 -74.64315 1.4879475 2
10.812392 -81.471115 2.3876619 5
10.912843 -80.992165 2.3522055 5
10.950966 -80.507599 2.3220367 5
10.919017 -80.025749 2.2983754 5
10.94204 -79.53891 2.2681243 5
10.802704 -79.071846 2.2547052 5
11.124824 -77.047722 2.2828982 6
10.948073 -76.595673 2.352551 4.75
11.010537 -76.161232 2.3524337 3.5714285
11.084476 -73.641571 2.1749921 6
10.880922 -68.201637 2.3407052 4
11.107992 -83.034485 2.7528188 3.8
11.011408 -82.593216 2.7490768 3.3333333
10.914378 -82.189194 2.7325344 3.5
11.043829 -81.750473 2.6980598 4
11.025792 -81.425781 2.7039647 3.3333333
10.947145 -81.023979 2.6532934 4.3333335
11.031567 -80.638618 2.6497326 3.3333333
10.984772 -80.187965 2.6286497 3
10.97206 -79.807625 2.6164398 2.1666667
11.036003 -79.383499 2.5687456 2.8
10.99338 -79.019318 2.5652907 2.4000001
11.010875 -78.691124 2.5482781 1.1428572
10.90974 -78.252373 2.5188739 1.6666666
11.002012 -77.828499 2.4591677 4.6666665
11.084054 -77.370255 2.4585166 2.6666667
11.012903 -76.990692 2.4338672 2.75
11.090701 -76.583138 2.4272621 0.5
10.911783 -76.100471 2.555414 0.83333331
10.952085 -75.832764 2.5900285 2.875
10.974142 -72.714012 2.6800056 1.7368422
10.985106 -68.143143 2.7087302 4.6666665
11.124372 -67.901596 2.5905294 4.4375
11.077776 -66.078979 2.5688899 6
11.047734 -83.763435 2.8764029 6
10.977047 -83.3442 2.9549651 3.5
10.834431 -83.061279 2.8163834 3
11.026577 -82.467216 2.829107 1
11.03353 -75.754929 2.9583485 3.1818182
10.961116 -75.486992 2.9862406 2.9444444
10.999008 -75.004105 2.9937904 3.2857144
11.016076 -74.727676 2.9975595 4
10.953668 -72.686432 2.9947355 3.5763366
10.973759 -68.12236 3.1534252 6
11.146254 -67.895439 3.1367767 6
11.165993 -65.418945 3.0865414 7
10.881076 -85.227417 3.5759969 3
11.129148 -85.024178 3.5138223 1.5
11.035701 -84.55455 3.5210626 2.5384614
11.033384 -84.210938 3.4589367 1.7142857
10.96743 -83.88868 3.3719504 2.6666667
11.053793 -83.51841 3.2783754 4.3333335
10.933952 -72.654846 3.4088438 5.296104
10.891809 -68.042358 3.3417945 6.5
11.072081 -67.817497 3.5126607 7
11.127993 -65.759575 3.5475357 8.0675001
11.098575 -65.403137 3.5281341 8.0670004
11.046717 -85.309723 3.671643 3.5
10.994791 -85.013031 3.7882884 4.2857141
10.957924 -72.637238 3.8308468 7.0801249
10.954753 -68.084335 3.7881272 7.7142859
11.086526 -67.78521 3.7907131 7.8187499
10.996109 -85.293083 4.1735473 5.8666668
11.044798 -85.074165 4.0650725 4.8974357
10.942535 -68.071587 4.1659756 8.715086
11.006247 -67.761536 4.1507525 8.6602364
10.94727 -85.227661 4.6573186 7.4867773
11.009872 -85.160774 4.5274343 7.0534234
10.953805 -68.050262 4.6102791 10.100957
11.018867 -67.76358 4.5737424 9.8299189
10.992197 -67.561066 4.4908991 10
10.951856 -85.272392 4.8738852 8.1780005
11.048587 -85.157715 4.9089198 8.111825
11.173517 -84.328857 4.8041725 8.0810003
10.967927 -68.042686 4.9606853 10.615693
10.999115 -67.770958 4.9592576 10.405125
11.173398 -67.584648 4.8113852 11
10.987047 -85.246407 5.4067631 10.216964
11.049964 -85.127899 5.3438582 9.4216909
10.96122 -68.021309 5.3284125 11.886364
10.994695 -67.782288 5.38553 11.580769
11.057504 -67.562508 5.3739786 10.2033
11.038762 -85.251511 5.6370292 11.097301
11.131305 -85.154861 5.6083193 12.069125
10.927 -68.023788 5.7532263 12.19541
10.986697 -67.851166 5.7899294 12.99252
11.0733 -67.573509 5.8363152 12.018801
10.932284 -68.006393 6.1718183 14
10.944659 -67.875404 6.1880188 13.408295
11.004323 -67.570709 6.1634436 13.919292
10.98491 -68.221626 6.68047 12.685792
10.931034 -67.901131 6.517983 13.102783
10.964166 -67.502022 6.508945 13.595857
10.977307 -68.259766 6.9682698 12.822929
10.846506 -67.86367 7.1716723 10
10.987766 -68.220551 7.3220506 13.192441
10.987629 -67.90255 7.492003 12.0065
11.029788 -67.927536 7.8037229 13.264264
11.011058 -67.891136 8.275877 13.751092
10.918579 -67.858757 8.6321621 13.255001
10.97028 -67.82975 8.9956694 13.531626
10.910042 -67.773094 9.4448509 14.0233
10.910211 -67.754929 9.8427382 13.389875
10.927814 -67.717941 10.13729 13.406801
10.892814 -89.298805 10.574304 12.333333
10.861628 -89.042847 10.589676 14.4446
10.910639 -67.755951 10.585002 15.009
11.014318 -89.300049 10.838181 15.11
11.007436 -67.691498 11.022159 14.4181
10.942214 -67.640762 11.255182 14.5
10.816002 -67.559189 11.441517 13.5
10.837692 -67.984055 11.682899 13
10.932141 -67.579605 11.731109 14
10.940224 -67.937637 12.059556 13.0345
10.949218 -67.507133 12.229646 14.8
11.086578 -89.470039 12.647393 13
10.863233 -67.487885 12.674085 14.25
10.898413 -67.882538 13.1854 14
10.994927 -67.465973 13.1261 14
11.141395 -89.698685 13.29518 14.0915
11.011699 -89.346573 13.371446 15.094
11.052822 -89.011604 13.611578 14.077
10.904964 -88.427628 13.85956 14.0735
10.976477 -67.843765 13.605089 14.0345
10.96271 -67.405777 13.836016 15
10.933038 -88.641068 14.049364 14.022834
10.986893 -67.380539 14.189226 15
10.926182 -89.626289 15.8945 15.069
11.173458 -89.265274 15.845199 15.033751
10.911624 -89.975769 16.096682 15.0665
10.893714 -89.293663 16.613029 15.012
11.215613 -74.305115 -1.1962234 3
11.570394 -73.931618 -1.1235911 3
11.560195 -73.890999 -0.59338391 4
11.209391 -74.287521 0.7095412 5
11.597408 -73.963692 0.98139876 3
11.349941 -74.463951 1.4401096 3
11.242008 -77.481667 2.3115268 6
11.396183 -76.986382 2.376627 4.1428571
11.308885 -76.560806 2.361702 3
11.305802 -76.290314 2.3442876 3.5
11.397953 -75.906166 2.3395035 3.75
11.466853 -75.575119 2.3411484 5
11.418725 -73.686714 2.3395634 6
11.287338 -72.649384 2.3730955 4
11.589558 -69.166779 2.3490381 3
11.297902 -68.778206 2.2687824 3
11.38619 -82.907951 2.6982446 3
11.336474 -82.581795 2.7609975 2
11.415147 -82.282043 2.7313759 2.5
11.347217 -81.869881 2.7179005 2.3333333
11.469304 -81.399033 2.6890876 1.25
11.427403 -80.991028 2.6683767 1.25
11.436848 -80.636795 2.6238039 2.4000001
11.416521 -80.276405 2.5990136 3.75
11.409522 -79.851753 2.5948691 2
11.349936 -79.520653 2.5867896 1
11.251283 -79.041649 2.5458136 3.25
11.508937 -78.591057 2.4867668 3.8333333
11.459987 -78.205475 2.5201395 2.25
11.393044 -77.792366 2.4828472 2
11.393495 -77.355843 2.434361 2.6666667
11.349119 -76.933067 2.4444551 1.3333334
11.509299 -76.77417 2.4031742 1
11.307921 -76.384384 2.4081132 2
11.426763 -75.74707 2.5370951 2.6111112
11.464675 -75.477211 2.556653 2.6666667
11.446627 -74.964203 2.6514156 2
11.424873 -72.647758 2.7054913 2.125
11.533446 -72.164307 2.6673388 1.6
11.534707 -71.904236 2.6010842 1.25
11.482183 -71.401154 2.714246 2.4166667
11.447446 -70.80648 2.4621937 2
11.455502 -70.497513 2.708468 3.2777777
11.330818 -68.099846 2.4637136 4
11.419868 -67.887665 2.5907111 4.9166665
11.586908 -84.311859 2.9514837 6
11.25875 -83.442772 2.8714848 5
11.418745 -83.125343 2.9653258 3.1111112
11.315508 -82.670792 2.8374314 1
11.274449 -75.641014 2.9787676 1.8333334
11.33581 -75.339165 2.9904928 2.2
11.330927 -75.019287 2.9401054 3.75
11.458584 -74.530014 3.0142708 3.75
11.414126 -74.18293 3.0051186 2.75
11.438784 -73.984749 3.0057528 1
11.428631 -72.636818 3.0050054 3.7212071
11.540977 -72.176025 2.9981847 3.4375
11.526731 -71.788635 2.9389188 3.1041667
11.455725 -71.480034 3.036541 3.8333333
11.486518 -71.11528 2.9946084 3.8541667
11.451488 -70.555519 3.1815319 5
11.334129 -68.078667 3.0935576 5.75
11.469606 -67.868721 3.0690269 5.8000002
11.501706 -84.961662 3.5765619 3.3333333
11.416595 -84.546631 3.5312848 2.6666667
11.463507 -84.184464 3.4634511 3.125
11.383367 -83.847237 3.4116418 1.9230769
11.404003 -83.430176 3.3140554 3.3571429
11.512452 -83.177643 3.2338588 3
11.459874 -72.605133 3.3792119 5.2806625
11.54814 -72.180588 3.378823 5.3125
11.544602 -71.906349 3.3734269 5.1666665
11.475924 -71.476936 3.4206142 5.5846558
11.47434 -71.033737 3.3296914 5.3333335
11.453899 -70.581291 3.5034916 6.25
11.335918 -68.044922 3.5372102 7
11.402017 -67.80909 3.4891109 7
11.414148 -85.352859 3.7585385 3
11.352844 -85.031021 3.7548239 4.6999998
11.273902 -84.713646 3.6240664 3.5
11.455704 -72.588951 3.814487 7.1669841
11.538574 -72.239876 3.8045647 7.4294233
11.561543 -71.850685 3.7851176 7.2944446
11.463119 -71.462936 3.7510533 7.125
11.48597 -71.076958 3.6473925 6.6666665
11.475782 -70.582062 3.680001 7
11.30739 -68.021408 3.8828716 8
11.394688 -67.725426 3.7965422 7.9200416
11.423644 -89.812653 4.3958101 8.1704998
11.488468 -85.718239 4.1628375 5
11.295158 -85.335983 4.1529222 5.75
11.388101 -85.093384 4.1651316 5.6111112
11.390903 -68.023567 4.2338371 8.256875
11.415555 -67.712814 4.1897049 8.5306101
11.30128 -67.562218 4.2960067 9.5
11.394855 -89.756859 4.4041748 8.1704998
11.476539 -89.511673 4.4308786 8.1704998
11.421275 -85.250145 4.7213316 7.7438331
11.358886 -85.152428 4.5496583 7.0841432
11.389005 -67.716339 4.5753336 9.7828598
11.30785 -67.57399 4.5614471 10.397722
11.504162 -85.24511 4.980473 8.662467
11.454118 -85.09362 5.0136924 8.5690327
11.595586 -84.592659 4.8040986 8.0710001
11.398778 -68.044922 4.9277935 10.899678
11.38958 -67.735596 4.9747772 10.050944
11.356734 -67.584129 5.1247625 10.333333
11.373665 -85.255035 5.3536181 9.9364109
11.444324 -85.149651 5.3803873 9.8173447
11.414337 -67.70134 5.3740182 11.729697
11.374151 -67.573418 5.3917761 11.2053
11.358582 -85.210152 5.6005821 12.132
11.35895 -85.174614 5.6234026 11.750333
11.427049 -67.715294 5.7656713 13.268372
11.412157 -67.564888 5.8659587 11.782773
11.548877 -67.711906 6.0383472 12.364499
11.426032 -67.540009 6.2054887 13.407
11.422292 -68.189003 6.7029157 13.481334
11.439611 -67.924477 6.5782056 12.82825
11.447086 -67.499405 6.5092573 12.648767
11.403225 -68.252403 6.9481287 12.990105
11.514215 -67.820343 7.1859546 10
11.373885 -68.212845 7.311862 13.525001
11.444856 -67.927101 7.455883 12.417999
11.415207 -67.902367 7.8077517 13.178347
11.436852 -67.877655 8.1961336 13.581501
11.425345 -67.857544 8.5693312 13.908187
11.462729 -68.146606 9.0917654 11.033
11.396793 -67.817017 8.953948 13.822056
11.328083 -67.79953 9.394887 13.884356
11.458799 -67.745903 9.8085032 14.026401
11.382839 -67.730171 10.164618 14.369834
11.362359 -67.746346 10.704977 14.369667
11.269853 -67.727745 11.162625 15.076
11.383851 -67.492111 12.164372 15
11.26421 -89.538048 12.628776 13
11.353333 -89.754288 13.036107 14.04775
11.316595 -89.223724 13.103901 15.177
11.33026 -89.874115 13.490062 14.085
11.397362 -89.37175 13.374772 14.592
11.392941 -89.831001 13.767301 14.550501
11.419034 -89.210968 13.837541 15.096
11.519027 -89.294678 14.129285 14
11.41367 -88.986351 14.234659 14.037999
11.396766 -67.573738 14.239524 15.024
11.497236 -89.41021 14.60493 15.09
11.463533 -88.944206 14.772801 15.0845
11.33919 -88.748314 14.505066 15.091
11.334831 -89.324326 15.7795 15
11.419883 -89.522598 16.141239 14.021749
11.841675 -73.453682 -1.3755748 3
11.689172 -73.828102 -1.0269108 3
11.896578 -73.526489 -0.94477576 3
11.656266 -73.776634 -0.49492288 4
11.700362 -74.029633 0.39464146 5
11.781205 -73.709824 0.025061283 3
11.67217 -73.751312 0.56016421 4
11.84563 -73.557457 0.58582044 5
11.716172 -73.994232 1.1035644 2
11.900559 -73.441711 1.1169485 3
11.983959 -86.032196 1.4867152 7
11.687885 -73.901306 1.2766725 2.5
11.761022 -75.523582 1.8789017 6
11.888411 -77.622253 2.385268 5
11.842567 -77.308289 2.3663471 5
11.839942 -76.85598 2.3742006 4
11.756262 -76.545059 2.3741481 2.25
11.767905 -76.132385 2.3370409 2.6666667
11.78194 -75.757622 2.3261781 2.75
11.880649 -75.464226 2.336966 3
11.978683 -75.077919 2.3461046 4
11.924226 -73.383705 2.3563721 6
11.960306 -70.332619 2.39136 2
11.689272 -68.956009 2.3239193 3
11.719623 -83.004311 2.7746625 5.3333335
11.875615 -82.710419 2.6710486 4
11.847536 -82.19075 2.7526872 2
11.857725 -81.776054 2.6839333 4
11.807313 -81.321083 2.6724489 3.25
11.621503 -80.968925 2.6319666 5
11.912807 -80.608856 2.5630732 4
11.883643 -80.275101 2.5497751 4.1999998
11.872182 -79.86541 2.565675 3.3333333
11.842213 -79.432335 2.5456901 3.4285715
11.706685 -79.047104 2.5347688 2.8
11.824563 -78.620888 2.52672 2.3333333
11.740005 -78.167747 2.4845891 2.6666667
11.826231 -77.821381 2.4576082 2.5999999
11.773493 -77.428291 2.4331675 2.1666667
11.769372 -77.107468 2.4151084 1
11.947488 -76.49868 2.4073796 0
11.64548 -75.623505 2.5882754 3
11.766402 -75.413826 2.5267568 4.1875
11.873382 -74.942513 2.783498 2
11.620784 -72.625557 2.4862881 5
11.851388 -72.223572 2.6990736 1.6
11.881683 -71.874878 2.6140053 1.875
11.715919 -71.424194 2.7326486 2.5
11.741274 -70.989426 2.5124731 2
11.89888 -69.621819 2.435468 3
11.823465 -68.091248 2.5191979 4.4000001
11.846082 -67.806305 2.7031188 6
11.692564 -84.509903 3.0190892 6
11.794255 -82.946777 3.0488534 2.8125
11.942873 -82.73381 3.1058748 4
11.739764 -75.325966 2.9357111 2.6944444
11.724646 -75.022629 3.0205669 3.4722223
11.796191 -74.644135 2.950182 3.3076923
11.788887 -74.190079 3.0180175 3.4545455
11.890007 -73.88842 3.0724719 2.4666667
11.781811 -72.213852 2.8971579 2.5
11.693886 -71.887543 2.876688 2.7
11.836685 -68.098076 3.0913444 6.1999998
11.714488 -67.914948 3.0451257 6
11.984713 -85.221046 3.5495298 4
11.68642 -84.852592 3.5686011 2
11.748351 -84.57196 3.5402608 3.1875
11.770448 -84.280487 3.4993911 2.5999999
11.790293 -83.81443 3.4116001 2
11.812394 -83.383347 3.3842914 2.4666667
11.925076 -82.980827 3.2415826 3.6666667
11.951789 -82.770256 3.2002115 4
11.828244 -68.034195 3.505038 7
11.816163 -67.806236 3.3617291 7
11.821836 -84.992874 3.7808077 4.5714288
11.736961 -84.738831 3.7490993 5.25
11.602184 -72.58654 3.9540305 8
11.854445 -68.067757 3.7814784 8
11.759493 -67.800819 3.7500737 8.0215168
11.903338 -89.33136 4.392252 8.1704998
11.705407 -85.689507 4.2005711 5.3333335
11.798375 -85.382072 4.1711307 5.5833335
11.824347 -85.099106 4.1318049 5.378788
11.842731 -68.042374 4.1904449 8.7026844
11.76947 -67.78846 4.1849289 8.7637587
11.823532 -67.590378 4.3591681 8.6785002
11.736411 -89.69574 4.5870051 8.132
11.799953 -89.367836 4.4930458 8.1548328
11.635509 -89.190025 4.4248924 8.1700001
11.89047 -85.236336 4.5903563 7
11.792409 -85.070511 4.6483722 7.5222645
11.855586 -68.029648 4.5987415 9.727067
11.772335 -67.808464 4.6203532 9.7421942
11.719691 -67.582993 4.7868581 10
11.706248 -85.22686 4.9503131 8.5244503
11.805946 -85.068901 4.9420328 8.2578011
11.861108 -68.023743 4.9526887 11.648062
11.796419 -67.899002 4.9583001 10.025968
11.796797 -67.559746 5.0883994 9.0206671
11.833256 -85.298088 5.2820554 9.4932499
11.820038 -85.073891 5.3563523 9.6368065
11.888194 -68.046776 5.3631921 10.179
11.819405 -67.829529 5.3802314 11.643999
11.763799 -67.583588 5.4221263 11.13375
11.881128 -68.035606 5.9862447 10.077
11.812083 -67.858124 5.8039122 12.068922
11.758353 -67.555878 5.8549833 12.342979
11.842872 -68.120758 6.1769862 10.01725
11.853371 -67.871483 6.1989932 12.976242
11.797026 -67.540192 6.1970162 13.057534
11.854807 -68.180634 6.6592927 13.45572
11.79701 -67.895576 6.5216823 12.932426
11.79599 -67.496826 6.4812388 12.65857
11.712434 -89.977791 6.9500813 9.1227503
11.760406 -68.224075 7.0084996 13.086809
11.688307 -67.814819 7.1175427 10
11.78889 -68.210793 7.299222 13.810861
11.894286 -67.852127 7.416419 11.4049
11.8372 -67.877815 7.8147364 13.535771
11.874608 -68.010551 8.1641121 12.077
11.820975 -67.837173 8.198576 12.686632
11.850572 -67.802193 8.5943136 13.018542
11.776743 -67.795715 9.0441542 13.615702
11.854259 -67.755524 9.4047155 13.105649
11.779278 -67.714699 9.7247944 13.006599
11.921927 -67.729576 10.154288 13.885572
11.818166 -68.044769 10.653696 12.0315
11.880459 -67.656464 10.606146 13.752188
11.705523 -67.638145 11.045319 13.676999
11.897514 -67.591507 10.979064 13
11.938282 -89.960213 12.376884 13
11.737713 -67.544594 12.024713 14.02
11.835908 -89.6082 13.560794 15.0965
11.892711 -89.59214 13.479858 15.096
11.766733 -89.737465 13.880787 14.390334
11.722286 -89.36631 13.973812 14.5835
11.973535 -67.556084 14.141487 15.0225
11.907069 -67.43055 14.468619 15
12.036318 -73.216354 -1.2635002 3
12.298427 -72.824013 -1.0758454 3
12.134782 -73.044144 -0.63207722 3.8
12.176519 -73.097267 -0.2667473 3
12.060828 -73.082672 0.27687171 3
12.372545 -72.528412 0.20342439 3
12.028573 -73.29483 0.67101288 3
12.183286 -73.008316 0.61602581 3.6666667
12.397892 -72.612045 0.53197861 3
12.149903 -73.382202 1.0219665 2
12.149387 -73.03376 0.95707285 3
12.16596 -86.851303 1.978412 7
12.154877 -76.070419 1.9159156 6
12.362 -85.106155 2.1084847 7
12.391413 -77.423584 2.344646 5
12.361926 -76.941833 2.3405933 4.5
12.24279 -76.559029 2.3481328 3.5
12.181327 -76.160408 2.3374557 3
12.207873 -75.790047 2.2711203 4
12.246964 -75.302231 2.3419127 3.6666667
12.280492 -75.012444 2.3295162 4
12.28587 -73.218559 2.3647361 6
12.264171 -70.196243 2.3026922 2
12.135161 -68.768593 2.2057018 3
12.131557 -82.505974 2.5819261 4
12.148676 -82.302498 2.6967459 3.6666667
12.239487 -81.745079 2.720439 2
12.247009 -81.248131 2.6092269 4
12.259246 -80.955551 2.623899 3
12.189142 -80.63842 2.5773294 4.1428571
12.218379 -80.095833 2.535851 4
12.121718 -79.870201 2.5771179 3
12.104607 -79.390854 2.4957602 4.3333335
12.211143 -78.957336 2.5107772 3
12.193949 -78.515907 2.4896238 2.5999999
12.16659 -78.181473 2.4804788 1.6666666
12.114151 -77.80719 2.4573591 2
12.148933 -77.379532 2.4389744 3
12.170317 -77.004967 2.4264259 1.5
12.077164 -76.634811 2.409071 2
12.129604 -75.294189 2.4090691 3
12.154907 -75.124519 2.5870872 5.3333335
12.354056 -72.427345 2.5251689 5
12.32627 -72.13076 2.6896179 5
12.271114 -71.714745 2.6135724 2.8333333
12.232924 -71.420296 2.6151738 2
12.021282 -71.107376 2.5902755 2
12.385668 -70.605583 2.7874918 4
12.340265 -70.16082 2.7152355 4
12.116169 -68.039322 2.4572735 4
12.159649 -67.840591 2.6256652 4.7777777
12.099111 -83.425194 3.1434908 6
12.243048 -82.618912 3.0079176 3.6666667
12.072288 -75.261879 2.842134 4.25
12.197371 -75.064804 2.9081345 3.2727273
12.210599 -74.521263 2.9381785 3.8181818
12.228939 -74.185234 2.9578519 4.25
12.123553 -73.91433 3.0303819 3.9761903
12.137498 -73.262001 2.9816577 2
12.04836 -73.191933 2.9661355 7
12.181492 -72.380348 2.8896692 6
12.386908 -71.690659 2.9644318 5
12.0985 -68.011093 2.9376175 5.3333335
12.200126 -67.888535 3.0327027 5.8000002
12.385411 -85.26564 3.5979757 3
12.166943 -84.95916 3.557081 2
12.107787 -84.516106 3.5228868 3.4000001
12.230433 -84.238304 3.4416337 2.5555556
12.148911 -83.756828 3.458833 1.9333333
12.230434 -83.385536 3.4091694 2.6111112
12.192521 -83.056137 3.3309534 3.4000001
12.365027 -72.451302 3.3074565 6
12.378437 -72.346405 3.339128 6
12.392463 -71.734688 3.4606764 6
12.392812 -71.39315 3.5148978 6
12.383857 -71.177864 3.4716864 6
12.387984 -70.515549 3.4634213 6
12.352505 -70.117355 3.4335308 6
12.248231 -67.860283 3.4336076 7
12.265159 -84.981239 3.8027337 4.6500001
12.312645 -83.551689 3.6713755 2
12.310365 -79.843231 3.7204936 6
12.213033 -78.227844 3.7051389 6
12.184054 -72.535591 3.7827806 7
12.239013 -72.229172 3.7935193 7
12.397218 -71.455994 3.8562148 7
12.061913 -68.058594 3.9041131 8.666667
12.211773 -67.750587 3.8153231 8.0552921
12.13128 -67.583313 3.9827528 9
12.204628 -88.905327 4.3816891 8.1689997
12.00726 -85.614601 4.3015757 6
12.19377 -85.388397 4.172636 5.4000001
12.183342 -85.07975 4.2019353 5.7348485
12.064859 -68.024216 4.1450386 9.4624996
12.20266 -67.712212 4.1749215 8.819911
12.207453 -67.575836 4.2454667 9.1487141
12.136566 -85.302551 4.5966749 7
12.21747 -85.120506 4.6469784 7.4909997
12.00786 -84.35215 4.6819844 8.0740004
12.053988 -68.006721 4.5750594 10.833333
12.179179 -67.724915 4.5566158 10.028945
12.246642 -67.563446 4.6037183 10.301063
12.147589 -85.263184 4.8536987 8.2060003
12.197449 -85.078537 4.9187527 8.2012491
12.145111 -68.023804 4.9423003 11.1305
12.162209 -67.877609 4.9643855 10.959728
12.227338 -67.575104 5.0027728 10.598
12.168288 -85.212067 5.4982347 10.623625
12.196788 -85.066368 5.3328619 9.5414696
12.140497 -67.784439 5.3308697 12.780682
12.215862 -67.540977 5.445333 12.098433
12.110691 -67.806679 5.7796841 14.239939
12.213179 -67.534569 5.8030519 13.440683
12.02104 -67.837753 6.1053391 15
12.19967 -67.496758 6.1754246 13.673234
12.182819 -68.218636 6.7225924 12.668375
12.181113 -67.923058 6.6167536 13.486884
12.244693 -67.438408 6.5102935 13.016929
12.233721 -68.211205 7.0017705 13.339625
12.185052 -68.164154 7.3278694 13.816893
12.131992 -67.854309 7.5712428 12.52125
12.165542 -67.836182 7.8156714 12.676875
12.157045 -67.851028 8.1878166 13.456667
12.167669 -67.867264 8.5304337 13.276864
12.148936 -67.806206 8.9677649 13.678084
12.215115 -67.774948 9.397481 14.148
12.119379 -67.765709 9.8522682 13.90995
12.285304 -67.571892 9.8156223 15.0465
12.156048 -67.704643 10.199795 14.333333
12.259903 -67.579376 10.25704 14.016
12.210471 -67.714531 10.494036 14.009
12.314485 -67.545067 10.521199 15.018
12.244122 -67.653061 10.932228 14.5
12.226596 -67.534515 11.194991 13
12.08702 -67.73143 11.351791 15.046499
12.191657 -67.520905 11.448452 14.2077
12.193036 -89.235062 11.957365 13.0775
12.240705 -67.47789 11.814801 13.75
12.292217 -89.716171 12.143394 15.096
12.206655 -89.254868 12.35228 13.0715
12.235238 -67.877441 12.253129 13.032249
12.288122 -67.421921 12.169972 14.333333
12.250257 -89.429993 12.664674 13.006
12.280693 -67.457939 12.603435 14.2089
12.047546 -89.402229 13.157257 15.0945
12.285175 -67.421173 13.055405 14.5
12.353615 -89.233582 13.388463 14.0775
12.310915 -67.364502 13.283183 15
12.355324 -67.32885 13.706381 15
12.002214 -89.907166 14.112719 14.0695
12.368765 -67.46698 14.177797 15.0225
12.126939 -89.80468 14.512642 15.092
12.446624 -72.456451 -1.337894 3
12.756104 -71.714073 -1.3967705 3
12.436482 -72.400154 -0.84711885 4
12.590885 -72.231873 -1.0041134 3
12.529632 -72.277832 -0.60185766 4
12.764316 -71.868553 -0.57743174 3
12.782261 -71.580734 -0.61708689 4
12.481275 -72.545715 -0.22685328 3
12.682014 -71.730759 -0.060747761 3
12.603003 -72.049744 0.29013848 3
12.606923 -71.950203 0.051881082 3
12.482281 -72.856201 0.68022949 2
12.641724 -72.246178 0.57878411 2.6666667
12.666543 -71.946953 0.74255544 3
12.419902 -72.493546 0.84886169 3
12.522911 -76.626541 1.9512419 6
12.744564 -85.163208 2.0647087 7
12.784759 -82.048088 2.3470891 5
12.525485 -78.223625 2.3921063 5
12.454679 -77.282227 2.3873198 4
12.596478 -76.926476 2.3917711 3
12.591449 -76.557686 2.3572483 2.3333333
12.594519 -76.139442 2.3496766 1.2
12.566504 -75.679001 2.3274808 1
12.549151 -75.360359 2.2879322 2.5999999
12.587237 -75.136185 2.2787962 3.5999999
12.796047 -74.70343 2.3816705 5
12.773643 -72.558426 2.1999154 5
12.439938 -71.511185 2.3867798 3
12.518005 -67.994072 2.3645055 4
12.509726 -82.937569 2.7353072 6
12.492799 -82.55629 2.726243 3.5
12.605968 -82.158661 2.6563995 4.2142859
12.568239 -81.819244 2.6977546 2
12.600852 -81.401199 2.6454365 2.2857144
12.65763 -80.986504 2.6501691 2.5
12.64607 -80.594406 2.585381 3
12.643219 -80.117584 2.5439932 3
12.599658 -79.80191 2.5362704 3
12.539492 -79.379662 2.5248263 2.3333333
12.614819 -78.923981 2.4818888 3
12.627272 -78.538704 2.4358008 4.5
12.710865 -78.105667 2.4589744 3
12.667618 -77.723869 2.4438467 2.5
12.597023 -77.329247 2.4346516 1.5
12.577557 -76.970978 2.4111888 1.6
12.605916 -76.767799 2.4115508 1
12.583989 -74.986259 2.6153724 3
12.630108 -74.662102 2.4321728 3.5999999
12.648365 -72.628471 2.7037828 4.75
12.445901 -72.150887 2.6294215 3.3333333
12.435455 -71.83799 2.5782483 3.3333333
12.444147 -71.49485 2.6371117 3.4285715
12.449194 -70.903481 2.4132957 2
12.435791 -70.686852 2.5001118 2.5
12.588875 -67.824516 2.675009 5
12.777147 -84.367905 3.0880914 6
12.489919 -82.526321 3.0537407 3.5714285
12.743852 -82.278831 3.0206754 3.2
12.5448 -74.887115 2.8678315 2.4285715
12.64663 -74.63868 2.8785682 2.6666667
12.562804 -74.207962 2.9402688 2.9545455
12.555696 -73.770767 3.061774 3.2352941
12.631588 -73.39518 2.9864578 2.8499999
12.721492 -73.073013 2.9569063 3
12.597981 -72.63134 3.0020485 3.7607408
12.461821 -72.2714 3.0077686 4.3000002
12.443657 -71.79039 2.9670429 4.6071429
12.45361 -71.453674 3.0223942 4.4666667
12.444776 -70.94194 2.8993597 3.75
12.64185 -68.036201 3.1485715 7
12.59098 -67.765953 3.0273757 6.0208335
12.435197 -84.997665 3.5398114 2.5
12.642762 -84.659172 3.5558224 2.75
12.607828 -84.211098 3.4977 2.75
12.584032 -83.763199 3.4162221 2
12.562842 -83.402023 3.3942902 2.2307692
12.573743 -83.051315 3.3338485 1.6666666
12.562592 -82.585373 3.2721236 3
12.613566 -72.616005 3.3856323 5.1411562
12.434428 -72.223915 3.4759057 5.9166665
12.43558 -71.87809 3.5479219 6
12.433536 -71.447533 3.4399686 5.7142859
12.432917 -70.990067 3.4262516 5.6999998
12.594646 -67.763611 3.4183254 7
12.69087 -67.599533 3.3994899 7
12.557954 -85.252716 3.9399624 4
12.622956 -85.065117 3.8191395 4.6875
12.415795 -84.770576 3.6546373 5
12.622881 -72.599495 3.7998986 6.9435868
12.447428 -72.27565 3.9103267 7
12.437693 -71.906418 3.7749169 6.5999999
12.414848 -71.586876 3.8674197 7
12.653863 -68.019775 3.7072642 8
12.598659 -67.777756 3.7593896 8.0060577
12.589779 -67.584549 3.7712696 7.6666665
12.654223 -85.23996 4.1986775 5.6999998
12.545394 -85.091652 4.1847129 6
12.509785 -68.027596 4.2939014 8
12.610477 -67.759506 4.1945248 8.5859032
12.624591 -67.573822 4.2119055 8.6717291
12.62573 -85.242073 4.5679173 7.1581116
12.597566 -85.100998 4.633759 7.5866055
12.623548 -68.287476 4.648026 8.0314999
12.609156 -67.723892 4.5705328 9.8721361
12.639657 -67.556328 4.6024289 10.014734
12.662772 -85.246384 4.9150801 8.4547033
12.641125 -85.096024 4.929852 8.3599682
12.698235 -84.774117 5.0621819 9.1529999
12.557849 -68.00618 4.8850803 10.37125
12.634728 -67.89798 4.9410048 10.656611
12.581376 -67.531013 5.0397515 10.776
12.603774 -85.23201 5.3508534 10.493889
12.655293 -85.114349 5.3315706 9.336751
12.587669 -67.769661 5.3627853 12.16709
12.64114 -67.534988 5.4002419 11.7555
12.626909 -67.800171 5.7671866 11.825273
12.606806 -67.506622 5.7997437 12.986717
12.702404 -67.834381 6.176796 11.574722
12.606837 -67.464378 6.2026734 13.314813
12.581424 -68.184235 6.6862497 12.720308
12.641621 -67.867966 6.5600944 13.011717
12.541688 -67.388985 6.4899101 12.849584
12.625756 -68.183647 7.0570073 13.209763
12.589291 -68.179482 7.3397732 13.022786
12.488216 -67.811165 7.5421891 15.0245
12.66205 -67.702995 7.720253 14.0235
12.785991 -89.952774 8.2530251 13.1645
12.603453 -67.707443 8.2267714 14.773375
12.644271 -67.729446 8.5492268 15.023251
12.681113 -67.586952 9.5538654 14.018499
12.447843 -67.653709 9.63906 15.021
12.700934 -67.562851 9.8759031 14.017
12.746154 -67.638313 10.122069 13.54675
12.42813 -67.558517 10.0806 14.518
12.627459 -68.076859 10.44556 12
12.534348 -67.646164 10.57583 14.28075
12.530141 -67.702042 10.96807 15.0765
12.558928 -89.879066 11.706611 13.001
12.562751 -89.806168 12.227438 14.429334
12.660362 -89.566483 12.389888 13.0695
12.70155 -89.108963 12.134692 13.0745
12.641373 -89.452728 12.568735 14.594749
12.653908 -89.677628 12.974785 14.426999
12.634701 -89.574738 12.992961 14.089
12.758525 -89.450272 13.403378 15.097
12.502013 -89.519287 13.817649 15.096
13.036382 -70.595566 -1.6014024 2
12.839795 -71.434181 -1.2965759 3
12.98841 -70.879471 -1.2566407 3
13.012937 -70.776566 -1.574331 2
13.139771 -70.229721 -1.2989316 3
12.838664 -71.609283 -0.96653551 3
12.813761 -71.558357 -1.1601319 3
13.024888 -70.951111 -1.0208414 3
13.118623 -70.637833 -0.85415655 3
13.183365 -70.288826 -1.1179037 3
12.847847 -71.471504 -0.50484318 4
12.976756 -71.151222 -0.4317863 3
13.088305 -70.680344 -0.50101721 3
12.954915 -71.531151 -0.28791931 3
12.827252 -71.490471 0.25766116 3
12.998665 -70.950737 0.23450449 3
13.181982 -70.63446 0.56822085 4
12.878488 -68.216354 1.9657527 2
12.851476 -76.982475 2.2776511 6
13.008489 -76.481178 2.381345 1
13.174904 -75.829956 2.3217993 1.75
13.050647 -75.519096 2.2929044 2.5999999
12.974292 -75.056328 2.2851241 3.5714285
12.987879 -74.740967 2.3167427 4.5
12.805493 -67.810493 2.3240926 4
12.949752 -82.127777 2.7486758 2.5
13.164197 -81.775871 2.6184232 4.5
12.923712 -81.461601 2.6951673 3
12.998791 -80.947624 2.6182668 2.3333333
12.945506 -80.578339 2.5703366 3
12.878302 -80.228333 2.5398712 4
13.084711 -79.634216 2.5353105 3
13.043091 -79.28054 2.5220129 3
13.03913 -78.959671 2.5131285 2.6666667
12.964895 -78.507553 2.4943898 2
12.983539 -78.142082 2.4812484 1
13.007604 -77.795059 2.4733334 1.3333334
13.097435 -77.472519 2.4450936 1.5
12.961325 -77.087036 2.4239819 1.5
13.025366 -74.722656 2.7281411 4
13.034575 -74.031593 2.7918453 3
13.039429 -72.644577 2.7834694 4
12.876053 -68.077362 2.6967037 5
13.059981 -67.79377 2.5738606 4.6666665
12.867715 -82.628677 3.1833599 4
13.000185 -82.152977 3.0657599 3.5999999
13.150887 -81.976448 3.025331 2.25
12.945388 -74.844673 2.8382967 0
12.990603 -74.659447 2.8800719 2.3636363
12.999242 -74.101341 2.9014771 3.1666667
13.020991 -73.772125 2.9826431 4.4285712
12.978756 -73.499397 3.0166612 3.4038463
12.817182 -73.068443 2.9822567 1
13.028193 -72.604652 3.0002673 3.7211537
12.970397 -68.068817 3.0544937 6
12.969102 -67.719414 3.0191646 6.3125
12.975677 -89.921921 3.4426606 4
13.164607 -84.800446 3.5467904 4
12.988641 -84.567169 3.5282485 4
12.988484 -84.226082 3.4713931 2.8181818
13.083598 -83.755333 3.4371536 2
13.020012 -83.436478 3.4007227 2.3333333
13.023961 -82.948158 3.3563793 2.3
12.938477 -82.645355 3.280653 2.875
13.106032 -73.680122 3.2250984 1.8333334
13.027276 -72.592819 3.3896146 5.2604165
13.127174 -72.332466 3.5142686 7
12.893684 -68.050919 3.2815297 6.8333335
12.946321 -67.724174 3.3328319 7
13.00351 -67.592239 3.5063264 7
12.833669 -85.211586 3.8349388 4
12.993163 -85.019684 3.8278093 4.869565
12.958052 -84.580826 3.640785 4.1999998
13.127555 -83.128342 3.6836464 2
13.050912 -72.579666 3.8563969 7.3370066
13.137184 -72.333199 3.9194853 8.0286665
12.949521 -68.025276 3.8286488 8.3999996
12.989529 -67.761497 3.7599652 8.01826
13.084258 -67.569733 3.845243 7.7618752
12.919637 -85.240677 4.1304574 5.3333335
13.005078 -85.09742 4.1927466 5.833333
12.949681 -68.015831 4.1576805 9.4404755
12.962028 -67.773537 4.1631041 8.6944828
12.957358 -67.588394 4.225801 8.4386005
12.899688 -89.253281 4.5907869 8.1245003
12.879091 -85.228592 4.4476585 6.5
12.991079 -85.087181 4.5620513 7.1032896
13.149156 -84.547195 4.6756139 8.0745001
12.961466 -84.265129 4.7752738 8.0815001
12.900047 -68.011337 4.558383 10.023833
12.942569 -67.851799 4.5614924 10.128741
13.052245 -67.563278 4.609076 10.285682
13.04435 -85.240067 4.9731812 8.8309002
12.960708 -85.085236 4.9180317 8.2468796
12.818302 -84.750313 5.1563082 9.1129999
12.847813 -68.014549 4.8682399 9.0229998
12.959898 -67.923195 4.9738193 11.123073
12.97244 -67.558647 4.9839258 11.307118
13.003436 -85.213005 5.3774886 10.292999
12.984303 -85.076637 5.3281512 9.4875555
12.94278 -67.860931 5.3800259 12.323171
13.050497 -67.533295 5.4356217 12.069281
12.938375 -67.872772 5.7784042 13.347914
12.993215 -67.527405 5.7829332 13.373659
13.165894 -89.727615 6.2702022 9.0780001
13.053655 -89.03891 6.3981457 9.0714998
12.882531 -67.855499 6.1836944 13.375436
13.007899 -67.465706 6.2009969 13.409637
13.188763 -89.907135 6.4423299 9.0749998
12.955985 -68.147186 6.6758657 13.249617
12.958055 -67.87114 6.5434203 12.92931
12.963343 -67.416138 6.5531502 14
13.108807 -89.626404 6.9352946 9.0025005
13.131587 -89.463165 7.1451249 10.29175
13.063187 -88.939598 7.0558591 9.5882502
13.032402 -88.599678 7.1634955 10.1725
13.023409 -68.168076 6.9442105 13.191819
13.045351 -89.774879 7.3432736 12.264281
13.085011 -89.44664 7.4089761 12.267834
13.038159 -88.962807 7.4740806 12.549251
13.101482 -88.684486 7.4034319 12.047501
13.113519 -88.006287 7.573102 11.0985
12.981133 -68.17617 7.2855077 13.358278
13.013615 -67.778221 7.581604 13.348916
13.010249 -89.84642 7.8400421 11.0834
12.98935 -89.452003 7.6293211 12.1655
13.128412 -88.948502 7.733541 13.810333
13.110876 -88.61731 7.7068486 12.113376
13.150043 -88.311279 7.9275217 13.144
13.048637 -67.68129 7.7730284 13.51175
13.057508 -89.843239 8.1308699 12.144857
13.148571 -89.563385 8.2515993 11.67075
