# .PCD v0.7 - Point Cloud Data file format
VERSION 0.7
FIELDS x y z intensity
SIZE 4 4 4 4
TYPE F F F F
COUNT 1 1 1 1
WIDTH 81
HEIGHT 1
VIEWPOINT 0 0 0 1 0 0 0
POINTS 81
DATA ascii
0.49801394 -132.24702 11.840531 10.1405
1.7615434 -122.48013 10.581166 10.14425
2.163142 -122.37636 10.942954 10.156
2.1405113 -133.85797 12.310423 10.1455
2.2565207 -142.41776 15.286911 11.14
2.6245573 -122.5237 10.918187 10.1495
2.9059753 -130.95395 11.707417 10.14225
2.9236877 -132.13348 13.332176 11.132
3.4915659 -122.4838 11.213984 10.124
3.4730859 -133.0889 13.924296 11.1425
3.7275622 -121.85976 11.928473 11.144
3.6604986 -130.92805 12.83906 10.12
3.6571202 -142.85013 15.505536 11.141
4.0981174 -132.07506 11.908397 10.143
4.0743132 -131.80385 11.786963 10.1425
4.1325259 -121.41215 11.956008 11.145
4.2974286 -132.50761 13.742611 11.1425
4.4784484 -133.24258 13.966108 11.143
4.6693463 -133.65939 14.008762 11.1435
5.0389204 -132.46376 11.600551 10.1365
4.8186312 -131.15295 11.754861 10.144
5.0413032 -142.28658 15.470851 11.1425
5.5077801 -131.26009 14.792927 11.0905
5.9494824 -135.0211 14.194515 11.143
6.5550265 -131.70287 13.776248 11.1455
6.9375358 -131.75621 13.751852 11.144751
7.3936925 -131.72145 14.010776 11.1475
8.0675449 -130.89055 13.901011 11.148
8.1946287 -132.78717 17.049583 12.1155
8.6629114 -130.09433 11.906149 10.1485
8.6036682 -132.70128 12.322066 10.1145
8.531744 -131.64885 13.826352 11.1465
9.0116873 -133.67607 13.237785 10.1285
8.9377937 -130.55913 13.881801 11.1485
9.1272249 -130.81621 14.000631 11.1495
9.4570551 -130.5166 13.608338 11.1465
9.5915899 -133.05293 15.121985 11.109
9.8802471 -133.07674 11.705121 10.1265
10.158801 -130.31805 12.029151 10.156
10.093635 -130.5473 13.700324 11.1475
10.771013 -132.73523 11.656482 10.127
10.713076 -134.09401 14.946434 11.1295
10.905989 -133.30272 14.595783 11.151
12.402832 -133.6817 11.905009 10.121
12.773111 -133.64607 12.192112 10.1175
12.816079 -133.53664 12.194139 10.1475
13.323028 -141.47868 12.489397 10.1315
13.305193 -132.81906 14.18619 11.1485
14.148879 -132.50073 12.341388 9.0109997
14.521242 -133.49272 14.798551 11.1525
15.166278 -132.06213 12.926584 10.134
15.708668 -131.7782 12.849202 10.1345
15.979536 -134.02122 14.958364 11.112
17.191805 -134.34848 12.768859 10.1325
17.447729 -133.46375 13.153044 10.13
17.523693 -132.12325 12.984856 10.127
17.367514 -131.74403 14.104901 11.119
18.308964 -131.22925 12.855837 10.133
19.584297 -131.9754 12.419987 10.1335
19.491362 -133.3465 15.264661 11.129499
19.787746 -132.7756 15.124889 11.125
22.719273 -133.4155 12.204853 10.1225
23.265152 -134.67032 12.094827 10.1265
23.647692 -131.12558 12.317548 10.122
23.690447 -131.65625 12.890462 10.1385
23.984423 -133.61101 15.316494 11.1385
24.301756 -132.05049 11.843624 10.1465
24.124207 -132.13232 12.831587 10.1385
24.285027 -130.70168 15.387768 12.1275
24.79435 -133.7243 12.236464 10.113
24.538296 -140.40996 16.729265 11.13
24.840849 -131.61993 11.701299 10.1325
25.113609 -132.44949 13.122942 10.138
25.052898 -130.57237 14.803576 11.139
29.096554 -131.00867 13.44365 11.1405
29.162703 -131.25233 13.612367 11.1385
28.887405 -130.78427 14.173965 11.125
28.980774 -132.30197 14.646451 11.1245
29.595304 -149.34262 18.554424 11.139
29.947052 -121.15604 10.60837 10.0915
29.861095 -120.25876 12.364553 11.1275
