# .PCD v0.7 - Point Cloud Data file format
VERSION 0.7
FIELDS x y z intensity
SIZE 4 4 4 4
TYPE F F F F
COUNT 1 1 1 1
WIDTH 1256
HEIGHT 1
VIEWPOINT 0 0 0 1 0 0 0
POINTS 1256
DATA ascii
7.3717704 110.46283 -0.68107277 9.0539999
7.3701382 118.23967 -0.66842037 9.0585003
7.4702072 118.74484 -0.60944629 9.0165834
7.4994464 119.05162 -0.62895399 9.0144281
7.3694854 90.172302 -0.19196101 10.930567
7.5696034 90.67527 -0.26428744 11.030572
7.4256344 90.9086 -0.23625629 10.650949
7.4511151 91.461212 -0.23682496 11.0545
7.386734 91.604988 -0.25622863 9.1774998
7.3646598 92.649681 -0.25059685 11.91324
7.4039063 92.82 -0.306034 13.05675
7.4107242 110.2097 -0.19103941 12.422336
7.3093877 111.92994 -0.24686864 13.1265
7.4045486 117.66771 -0.31338921 11.116
7.4416242 118.68784 -0.20248844 10.0353
7.5125422 118.99796 -0.2527771 10
7.5210867 119.29742 -0.2840237 10
7.4160223 90.243889 0.23209345 11.024501
7.429873 90.550041 0.22180188 10.429667
7.2674904 91.08017 0.05887017 13.050749
7.384706 91.403488 0.22155008 10.887187
7.5288291 91.904648 0.26165381 12.971144
7.4778848 92.220543 0.072351553 11.258056
7.4104495 110.2206 0.21551506 13.553622
7.5338798 118.77441 0.37710643 10
7.5243549 118.90583 0.1652019 10
7.4228163 90.325432 0.51771063 11.448214
7.3149443 90.497482 0.52686846 11.142313
7.4321017 91.425919 0.54712391 13.605893
7.4266706 91.774605 0.59392476 12.749036
7.4185534 92.152519 0.74350345 12.324142
7.2232494 92.68721 0.71992052 10.1765
7.3955307 110.19413 0.57814372 12.994412
7.4603701 118.69649 0.55776566 11
7.4523749 118.97998 0.54488671 11
7.4221005 91.529884 0.81184518 10.1425
7.4169745 91.875015 0.92990297 13.111637
7.3813324 92.167809 1.0376092 11.568688
7.3697481 92.521515 0.96631402 12.952447
7.4912949 109.82631 1.1225814 13.6938
7.369173 110.15263 0.96938187 13.851851
7.39712 119.36118 0.99786192 11.033
7.2683825 91.94043 1.2874638 14
7.4254236 92.279572 1.3725083 13.14095
7.4433036 109.80051 1.3246777 13.7208
7.3871174 110.17782 1.3081707 7
7.2540913 90.305 1.6530429 8.0600004
7.2483721 91.133865 1.8942957 8.0462856
7.4178967 91.361916 1.898471 8.0484009
7.5998507 91.907928 1.6594263 8.0834999
7.3217268 93.127693 1.9085196 8.0626249
7.4423041 93.354172 1.8758245 8.0566664
7.5501666 109.87214 1.9218483 10.107
7.4920673 93.175453 2.0502787 8.0415001
7.3798752 109.75347 2.2505026 13.08825
7.5164018 110.13453 2.3033953 8
7.2882051 90.846931 2.6382415 9
7.3494105 91.354378 2.7109344 9.047554
7.4214454 92.542389 2.7808414 9.0470009
7.2510386 92.93573 2.779978 9.0485001
7.3829269 110.16068 2.5975382 8.0203991
7.5253844 110.58578 2.5652802 8
7.3948259 91.091873 2.8412173 9.04
7.3227396 92.994942 2.8777049 9.0447502
7.5854454 109.9069 2.9131703 13
7.4235172 90.329956 3.4071078 10.042113
7.3884211 90.593704 3.4072154 10.0483
7.4852233 109.84189 3.3500519 12.780167
7.3654728 109.9211 3.7790921 10.2635
7.394032 109.91985 4.080554 9.7540722
7.3799958 110.29868 4.1748638 9
7.4310832 109.90391 4.6597037 14.775428
7.2401915 109.79169 5.1437898 14.123
7.4188676 109.68041 5.4886732 10
7.4701228 110.05621 5.2263861 12.1075
7.3720555 109.97762 5.7124925 15.131
7.3795457 109.58599 6.9998455 11
7.441699 109.70248 7.022738 11.0058
7.4210243 109.51724 8.3758402 12
7.4555392 109.50233 8.4598875 12.025832
7.5477891 110.12467 8.7890387 14.1075
7.3676515 110.0387 9.0016365 15.10975
7.2155285 109.55228 9.9354086 13
7.343183 109.62039 9.9223261 13
7.415658 109.90002 12.69956 13.61775
7.3582282 110.2528 12.774606 14.152
7.5307884 109.9367 13.620311 14.1015
7.9819841 110.0377 -5.2542233 5
7.6734748 110.11448 -4.4211054 2
7.8406134 101.87399 -4.0722623 5
7.8284202 110.12029 -4.1491876 3.9032259
7.6634445 119.13227 -4.3154078 6
7.7869587 119.32299 -4.0020838 6
7.7884746 95.320831 -3.6160913 5.5
7.9457417 95.898529 -3.60782 4
7.8473935 96.156532 -3.6530631 4.1428571
7.7679949 96.594604 -3.7026682 3.4285715
7.7780037 97.040703 -3.7981327 2.7777777
7.6982045 97.291397 -3.8500671 5
7.7828474 97.749802 -3.8593111 5
7.8054156 98.061386 -3.8626664 5
7.7755876 98.55088 -3.8709798 3
7.7988057 98.941109 -3.8776636 3
7.8496475 99.314613 -3.8822534 2
7.8752966 99.793053 -3.8884795 2.2727273
7.8484926 100.18895 -3.8892336 3.8888888
7.8178945 100.52754 -3.8979177 2.3
7.8035083 100.99972 -3.907217 2
7.8733683 101.32538 -3.9223576 1.8
7.8805952 101.74666 -3.934788 2.25
7.8986707 102.19522 -3.9552639 1.6666666
7.8746877 102.70343 -3.9659154 3
7.8288174 103.04524 -3.9706798 3.6666667
7.7838311 103.3687 -3.8718772 4.4285712
7.6165762 109.97724 -3.7782516 6
7.7899508 110.13581 -3.8093553 4.1428571
7.8023367 111.38661 -3.7332478 6
7.818397 118.2879 -3.7207911 6
7.6375957 118.48789 -3.9051507 5
7.8098264 119.35654 -3.7522686 6
7.80165 92.283752 -3.217 3.4000001
7.830771 92.585052 -3.2387204 3.75
7.8294473 92.958504 -3.2598648 4.4444447
7.8013883 93.364601 -3.2853982 4
7.8095746 93.679527 -3.3135221 2.6666667
7.8045125 94.181778 -3.3564105 4
7.8253317 94.636658 -3.3846583 2.2083333
7.823926 95.044617 -3.4601555 2.8636363
7.7698636 95.376968 -3.5435126 4.5
7.7821884 95.733459 -3.5622804 3.75
7.9585528 98.534248 -3.4415329 7
7.9975395 100.52384 -3.4861248 7
7.795259 103.07485 -3.2881069 6
7.7841768 103.4306 -3.3915372 4.4499998
7.7525253 103.75533 -3.3271825 3.8
7.7469726 104.21387 -3.3136246 2.4193549
7.8525181 104.56957 -3.3091433 2
7.7571459 104.89661 -3.2933948 2.9000001
7.8184228 105.30004 -3.4395049 2.6666667
7.7885656 105.6242 -3.2788 3.25
7.8168812 110.17372 -3.386174 5.2279067
7.8623061 111.75993 -3.5990613 6
7.8310695 90.200417 -3.1038477 4.5714288
7.7942934 90.624657 -3.1118751 4.090909
7.8408237 90.95787 -3.1420979 4.2727275
7.7724662 91.428474 -3.1681294 4.9000001
7.8592114 91.858597 -3.1977801 5
7.8395252 92.249809 -3.1780982 4
7.6123042 92.878792 -3.1085982 3.5999999
7.8173041 93.242729 -2.807478 6
7.8168182 94.147766 -2.8605628 6
7.9288864 105.06301 -3.1411445 6
7.7286754 105.63385 -2.9606378 4.520833
7.7968092 110.18044 -3.0125213 6.1666665
7.6261125 110.4947 -2.8961322 7
7.887845 111.43587 -3.0623577 6
7.8794522 111.76673 -3.0096035 6
7.8357348 118.29257 -2.8430359 7
7.8400402 91.883957 -2.7396085 6
7.8586817 92.601097 -2.7794285 6
7.9168172 92.986153 -2.7785139 6
7.611999 105.47741 -2.5752861 7
7.7707081 105.65303 -2.6505566 6.0384617
7.808897 110.19662 -2.6189237 7.0727272
7.8935075 111.00729 -2.781544 7
7.9382663 111.31568 -2.7279406 7
7.6318178 118.75474 -2.5389011 8.0834999
7.6914377 118.83321 -2.4602215 8.0845003
7.7321577 105.44666 -2.1615617 7
7.7634878 105.65432 -2.3237114 7.5779896
7.7837925 110.19105 -2.2139263 8.0025797
7.8300037 110.68406 -2.1828411 7
7.874289 111.01315 -2.1808457 7.2249999
7.9938092 111.23622 -2.0147474 8.1274996
7.6228075 117.89191 -2.3857384 8.1164999
7.8417945 118.17408 -2.2463171 7.447
7.771946 119.37759 -2.1849716 7.5555553
7.7758241 110.20288 -1.8476571 8.7649145
7.8675489 110.57481 -1.8968863 8.1102858
7.8772922 111.00747 -1.8965716 8.0860548
7.8823056 111.20908 -1.9720925 8
7.6888885 117.41682 -1.7969135 8.7635002
7.8149891 118.25513 -1.8404241 8.5117779
7.6201124 119.02016 -1.9674591 8
7.8376331 119.3873 -1.9560772 8.018858
7.7875834 92.843102 -1.2593489 8.151
7.8162251 110.2098 -1.4075743 9.8134165
7.8486757 110.61447 -1.3697563 8.0233746
7.8600898 110.99519 -1.4003813 8.0279999
7.8257494 118.20797 -1.3887254 8.0340004
7.9426494 119.34232 -1.3854506 8.519125
7.8144941 92.676765 -0.93718904 10.345964
7.8135142 92.969055 -1.0066048 9.8612022
7.9576421 94.364578 -0.9170894 10.191083
7.945632 94.490639 -0.87074918 11.121861
7.7710619 110.20979 -0.99835104 10.678213
7.8668633 110.57388 -0.98899192 9.1090765
7.930182 110.84618 -1.0239241 9
7.8469682 118.29958 -0.99717301 9.2666998
7.8809142 119.39924 -1.0781128 9.0263996
7.722527 90.197807 -0.43900752 9.1514997
7.7358856 90.757118 -0.55879486 10.641699
7.7837348 90.866089 -0.59685117 10.721001
7.8218546 92.684944 -0.56752694 11.172712
7.77212 92.899597 -0.61297172 10.663348
7.9321589 94.217087 -0.63418776 11.253448
7.8879728 94.622833 -0.55164701 12.055182
7.9159575 94.814789 -0.55742717 13.0655
7.7986288 110.22517 -0.61021823 11.590625
7.8674712 110.62861 -0.54890573 9.0267143
7.8581352 110.8972 -0.5376578 9
7.8307009 118.26589 -0.60367149 9.0462503
7.8950295 119.40652 -0.65284002 9.0349998
7.8964267 90.148346 -0.13794303 12.052833
7.7993555 90.559967 -0.23482223 10.086833
7.7155676 90.823051 -0.16530871 10.0175
7.9355202 91.670044 -0.11072119 11.754333
7.9750161 92.132355 -0.15830341 12.02825
7.7888346 92.624687 -0.21049064 12.150037
7.6570854 92.826012 -0.309982 9.1745005
7.8679981 94.33242 -0.096262269 11.688562
7.9016695 94.61956 -0.21174915 13.322949
7.891408 94.807777 -0.13124324 15
7.7868013 110.22694 -0.20049295 12.307648
7.7031751 117.43483 -0.31408501 11.1155
7.764791 118.25799 -0.13300817 10.044
7.6625075 90.018318 0.047054227 12.0355
7.7100301 90.777534 0.14491045 9.0369997
7.7926841 91.449142 0.1139567 11.22
7.6667018 92.285538 0.15243706 12.257299
7.7282805 92.434059 0.088343523 14.055375
7.899313 94.225769 0.14254308 13.57025
7.9199924 94.548775 0.13420922 12.718731
7.9478416 94.838936 0.028883519 9.0349998
7.8068933 110.22776 0.15231903 13.160817
7.6530352 91.420654 0.52554232 10.509501
7.9060044 91.890442 0.52130657 14.759214
7.8722038 92.078949 0.56573957 14.713
7.7885904 110.19322 0.55938703 13.323837
7.7554078 118.22196 0.6249209 11.1315
7.6981435 118.45731 0.61609888 11.131
7.6661592 119.84842 0.72386909 11.1235
7.7556286 92.391541 1.1352061 12.347835
7.7581067 92.621162 1.1102234 13.627701
7.7947736 109.84881 1.0883776 13.813
7.7853594 110.1747 0.97431904 13.576392
7.8678675 110.40466 1.1426042 11.056
7.6092339 119.70213 0.92468417 11.0355
7.7822981 91.112701 1.4990249 8.0865002
7.8152342 109.8378 1.4163809 13.345814
7.7633915 91.119484 1.7356794 8.0627499
7.664794 91.33342 1.8772637 8.0505714
7.7222695 91.81266 1.9217073 8.048954
7.8801737 93.055222 1.944008 7.8982859
7.7508388 109.87819 1.757311 13.773408
7.7528629 110.06535 1.7305173 15.10775
7.8156986 93.035995 2.0603938 8.0425005
7.7667241 109.84295 2.1774993 12.526763
7.7219095 110.01387 2.2535505 13
7.7052159 90.600128 2.7573998 9.04
7.9904256 91.889465 2.7870412 9.0600004
7.790513 109.87542 2.6017907 12.965125
7.7743621 110.17348 2.6259468 8.4737778
7.8673606 110.58086 2.5754304 8
7.9283056 91.887711 2.9250946 9.0395002
7.7426038 92.228813 2.8481569 9.0423326
7.654911 93.023453 2.9213297 9.0380001
7.7274446 109.86167 3.0036094 13.1056
7.7663774 110.08568 3.0687287 13.56575
7.7122903 90.232773 3.4474797 10.0425
7.759573 90.632988 3.4386408 10.046653
7.7682853 109.85174 3.4230721 12.787333
7.701961 110.07066 3.3778238 11.743
7.7454276 109.88935 3.8260522 13.261392
7.7561221 110.04163 3.8632116 12.234666
7.7168088 109.9203 4.1452436 9.5094204
7.7788076 110.16405 4.1217909 12.310187
7.6861901 109.84441 4.7330132 15.08025
7.6893792 110.11771 4.4809046 14.07125
7.8348746 109.99754 4.9404163 14
7.9024639 110.06679 5.0788808 13.448833
7.7413135 109.64838 5.5887632 10.0275
7.9459243 110.04038 5.2016878 14
7.6435652 109.63913 5.6375494 10
7.7319331 109.59597 6.945344 11
7.8394866 109.86716 7.0218725 11
7.7977057 109.52389 8.2119446 12.066999
7.7637362 109.51246 8.5058336 12.016715
7.778357 109.99705 8.6940174 14.108
7.864234 110.25874 8.6396379 14.1075
7.9040089 110.02818 9.3101072 14.107
7.9613929 110.135 9.8432512 15
7.9008861 110.12744 11.25518 15.107
7.6987972 110.10878 12.408302 13.159
7.7814269 110.29285 12.920403 14.1515
7.8925486 110.40161 16.238916 14.161
8.1901026 109.98434 -5.1865964 5
8.2806807 110.13305 -4.4257355 3
8.3217382 100.3855 -4.0011754 4
8.2998781 100.72091 -4.0111008 4
8.2009935 101.91107 -4.0550117 4
8.166893 102.33937 -4.0821476 4.5
8.2769413 103.03904 -4.0483789 4.5
8.3490601 103.23967 -4.011755 2.6666667
8.203166 110.12582 -4.1757984 3.5625
8.2536354 95.868927 -3.648237 4.8333335
8.210969 96.170959 -3.6558959 3.8461537
8.2200813 96.640671 -3.714673 2.9166667
8.2257118 96.995033 -3.7724917 3.2352941
8.1548071 97.432526 -3.8487053 2.8333333
8.1505566 97.790756 -3.8545725 2.8333333
8.2629738 98.201134 -3.8720021 3
8.206687 98.575356 -3.8776138 2.4545455
8.1728888 98.964561 -3.8857591 2.7777777
8.1920376 99.402145 -3.8942106 3.5714285
8.1794815 99.825386 -3.9010458 3.5714285
8.2350197 100.19892 -3.8951452 3.25
8.2226667 100.56637 -3.90242 3.25
8.1477919 100.87989 -3.9146821 4.25
8.1468239 101.36027 -3.9289308 3.8
8.1563044 101.7796 -3.9428391 3.6666667
8.1723337 102.1786 -3.96435 2.6666667
8.1688614 102.56094 -3.9784389 2.6666667
8.2228918 102.91599 -3.9944246 2.75
8.1866808 103.27092 -3.9246953 3.1666667
8.0929661 103.66591 -3.8222539 3.2
8.1989632 110.14619 -3.8290877 4.1811595
8.2448912 111.80866 -3.6146073 6
8.0860214 90.980827 -3.4612451 6
8.3903418 91.729256 -3.2034373 5
8.2113934 92.181427 -3.2556264 5.3333335
8.2030563 92.577293 -3.2360837 3.5555556
8.1731396 92.994034 -3.2616003 3.5999999
8.1761446 93.449097 -3.289623 3.6153846
8.2242565 93.853287 -3.3047848 3.25
8.1771698 94.330048 -3.3421903 3.25
8.1925106 94.60659 -3.3731949 3.7307692
8.2211933 94.959145 -3.416358 3.2096775
8.2198534 95.361084 -3.511121 3.5625
8.1807938 95.696739 -3.5529797 4.5
8.0173569 96.101135 -3.5627449 6
8.2095938 99.847816 -3.4676404 7
8.0593538 101.2729 -3.5173721 7
8.0643673 102.02901 -3.547101 7
8.3170233 102.8616 -3.5888009 7
8.2202826 103.45934 -3.3730681 3.6666667
8.1024647 103.77734 -3.3183527 4.7272725
8.1451921 104.23687 -3.3108833 1.5294118
8.2292747 104.4626 -3.2993326 2
8.162015 104.93812 -3.3006165 3.2606838
8.1820707 105.37707 -3.3558815 3.5
8.1674414 105.67163 -3.3008659 3.4666667
8.2107601 110.18263 -3.3853717 5.2542372
8.1514549 90.293289 -3.1053293 4.5
8.2552195 90.626244 -3.1001067 4.4000001
8.3015223 91.045067 -3.1262665 4.3846154
8.1986103 91.508308 -3.1641471 4.5999999
8.3078079 91.873924 -3.1597941 4
8.1874361 92.193428 -3.1784635 5.1999998
8.253314 92.42495 -3.1914062 3
8.0992804 93.302856 -2.9838407 5
8.2189274 93.875237 -2.8118801 6
8.1802425 94.230034 -2.8458123 6
8.332284 94.744469 -2.9461331 4.625
8.2468681 94.81385 -3.1370447 3.5
8.1149874 103.13209 -3.1788936 6
8.3236494 105.44379 -2.9176559 6.6666665
8.2744722 105.67575 -2.999897 5.173913
8.1977606 110.19466 -2.9856312 6.25
8.2879677 111.07064 -3.0362866 6
8.3083115 111.71085 -3.1145101 6
8.1420689 92.187881 -2.733573 6
8.3583651 92.723793 -2.7937362 6
8.1539402 93.825569 -2.78615 6
8.2118702 105.66779 -2.5225413 6.5714288
8.2067795 110.20918 -2.627691 7.0826468
8.1611023 111.08544 -2.5878475 7
8.1318512 117.37957 -2.5273435 7
8.0728941 105.43568 -2.2771804 7
8.1705332 105.66152 -2.2590525 7.9720559
8.1838474 110.20536 -2.223366 8.0101309
8.3967323 110.65757 -2.0507376 8.1274996
8.2837906 111.08332 -2.1211858 8.1377773
8.3166685 111.2045 -2.0483329 8.1330004
8.1109877 117.92793 -2.38887 8.1160002
8.0545578 119.46796 -2.2315657 8.1199999
8.3295269 95.040298 -1.7820107 8.0740623
8.3365669 95.335075 -1.6657479 8.8436289
8.2018738 110.22602 -1.8531681 8.7351093
8.1745691 110.70068 -1.877321 8.1291666
8.1934156 111.09361 -1.9292618 8.1478338
8.2074623 117.46582 -1.8519855 9.1149998
8.3629274 118.26087 -1.6115968 9.1160002
8.1443129 119.35684 -1.9090126 8.1260004
8.160964 90.035095 -1.207862 8.1739998
8.2209387 93.930962 -1.2558119 8.81075
8.2985468 94.181984 -1.3954152 9.2899618
8.1380558 94.750671 -1.3221129 9.313714
8.2381296 94.892174 -1.3597267 9.6763954
8.3108196 95.42186 -1.5368371 9.3430834
8.193326 110.22575 -1.403747 9.8816519
8.0904799 119.3675 -1.4139593 8.033
8.115139 92.522705 -0.98996419 8.1552505
8.2777967 93.877998 -0.88484514 8
8.1972332 94.183174 -1.0493671 9.7877045
8.1624384 94.569054 -0.93674254 10.118853
8.2745066 94.993538 -0.9759919 10.443345
8.3315029 95.289322 -1.0731227 10.419299
8.2089176 110.21732 -1.0113653 10.452024
8.1366558 110.67506 -1.0230534 9.1260004
8.1983595 110.95611 -1.0063705 9
8.2919159 118.24915 -1.0272245 9.1385002
8.1001186 119.36465 -1.046777 9.0948753
8.1798487 90.370674 -0.43136168 10.0215
8.2275314 90.506248 -0.47610834 9.6856661
8.1593943 92.067451 -0.57358778 10.019
8.1293745 92.732468 -0.65309185 11.375793
8.0924978 92.890511 -0.66002309 11.06675
8.1476173 94.212799 -0.56681454 11.673212
8.1632214 94.521187 -0.55912185 11.955468
8.1490765 94.916878 -0.71801823 11.322179
8.2188559 110.2389 -0.61445552 11.590122
8.3462629 110.65569 -0.53038722 9.0465002
8.2366991 110.94941 -0.51739877 9.02425
8.0805273 119.40288 -0.6005764 9.0334997
8.2415905 90.318832 -0.23606816 10.920965
8.0833664 90.485657 -0.30661082 11.054833
8.1573915 91.118385 -0.16498688 9.1450005
8.2010679 91.473221 -0.080610253 11.693166
8.165432 91.877953 -0.14104235 11.021667
8.1912441 92.086517 -0.23112391 11.796625
8.1458902 94.176262 -0.31093052 11.834278
8.1763124 94.632141 -0.17817958 12.767591
8.2147512 94.925941 -0.21112993 12.567378
8.1986399 110.23428 -0.19708098 12.267973
8.2999859 110.4316 -0.21733341 10.131
8.3188105 90.227165 0.030946389 11.071834
8.142808 90.569099 0.12190827 11.473111
8.0862217 94.273697 0.1465566 11.490566
8.1687899 94.577675 0.17919959 12.370987
8.2519979 94.870483 0.13606377 11.026875
8.1901255 110.24983 0.18163086 13.17
8.3601685 90.411804 0.43574488 12.0245
8.2141342 94.580605 0.47891423 13.455071
8.1724644 110.20654 0.58657473 13.223624
8.1572685 94.539627 0.91749036 10.017667
8.2224598 109.86639 1.0852951 13.871614
8.2240067 110.20242 0.9242394 13.48568
8.3008928 91.319206 1.4390637 8.1000004
8.1784763 109.85244 1.3752264 13.065579
8.1867619 110.25055 1.4068 8.357667
8.2428102 92.791786 1.8791151 8.0620003
8.1943636 92.923225 1.9411217 8.0516148
8.1415129 109.83855 1.8136741 13.434718
8.1065464 92.74054 2.1052916 8.0407505
8.2222385 92.865105 2.0248673 8.0434284
8.1744385 109.87682 2.1714144 13.027417
8.1583881 110.17903 2.3459907 8.0535002
8.2777205 111.11661 2.0799632 15.161
8.2044764 111.24384 2.3327882 15.162
8.2442865 90.321236 2.4841747 9.0620003
8.3519402 90.862663 2.6418302 9.0570002
8.3045301 92.138771 2.7236114 9.0559998
8.1929026 109.8748 2.6145506 12.787572
8.1848574 110.20674 2.61515 8.5
8.3224487 110.49097 2.5856047 8
8.1923914 111.88486 2.6366549 12.1175
8.1160021 112.10573 2.5292978 15.161334
8.1248426 91.934944 2.8052533 9.0424995
8.1883001 109.79322 3.018153 13.412142
8.2504807 110.094 3.1037192 8.0959997
8.3939905 110.68806 2.9221945 15.1655
8.2311211 111.1743 3.0126092 15.165
8.1554813 111.77213 2.9628453 13.1415
8.1275654 91.501022 3.5847194 10.048166
8.2030783 109.86207 3.3549702 13.228286
8.2596111 110.0191 3.2447054 12.0815
8.1857052 111.86239 3.4254246 15.1645
8.1903505 112.20476 3.4624953 15.164
8.2639675 91.631241 3.68191 10.0395
8.3731165 92.11132 3.8045099 10.039
8.1665049 109.85954 3.7779255 12.685182
8.1937313 110.02029 3.7931592 13
8.1309614 111.75816 3.7983012 15.1635
8.2157726 109.88756 4.0976524 10.969227
8.2321892 110.25001 4.2439241 10.020375
8.2088509 109.87852 4.4602733 14.06425
8.2665062 110.07285 4.5774035 12.58025
8.150177 109.84053 4.9415817 13.594214
8.2135839 110.07475 4.9795508 13.333333
8.1473389 109.8695 5.4802856 13.5
8.0939741 110.12209 5.410955 12
8.0572367 109.94333 5.6559653 15.1285
8.1420965 110.11802 5.9009862 15
8.0887394 109.8987 6.243463 15
8.1724625 110.15411 6.2250991 14.242801
8.0329714 109.97607 6.4706149 14
8.081028 110.11095 6.4393663 14
8.2600441 109.83267 7.0676594 11
8.0656519 110.29248 6.9354043 13
8.0494776 110.13297 7.3933625 13
8.0674314 110.04709 8.1325235 14
8.2192793 109.51789 8.4988174 12.027786
8.166358 110.20529 8.5328436 14.036
8.1758108 110.16311 8.9216919 14
8.1533298 110.09826 9.2750053 14
8.3492994 109.57032 9.9381056 13
8.0347223 110.38509 10.411759 15
8.0297432 110.30097 10.857151 15
8.3758059 109.55125 11.473519 14
8.1371336 110.02715 11.692502 13.1565
8.0555096 110.14738 12.59615 13.1585
8.2669039 109.98666 12.944192 14.079
8.0120726 110.14542 13.049603 14.63025
8.5067139 109.98978 -4.7313876 5
8.481225 102.20619 -4.0108366 4
8.6701832 102.73317 -4.0133667 4.6666665
8.6214237 102.98115 -4.0500512 4.75
8.6344452 103.20914 -4.018013 2.6666667
8.5948477 110.14767 -4.1578226 3.75
8.6305799 95.853096 -3.6225193 3.875
8.6613607 96.108864 -3.6536081 4
8.653286 96.611809 -3.6956999 2
8.6139297 97.011169 -3.7881556 2.8888888
8.5886049 97.399147 -3.8694744 3.4000001
8.5782681 97.781021 -3.8818514 3.5
8.6590185 98.180527 -3.8759363 4
8.7164125 98.555855 -3.880873 3.1428571
8.678937 98.938637 -3.8885989 2.5454545
8.6852674 99.368294 -3.8937528 2.3571429
8.6561003 99.746124 -3.9022474 2.875
8.6544027 100.14471 -3.905164 2.4166667
8.6841192 100.56096 -3.9114807 2
8.6918077 101.00922 -3.927757 3
8.6323557 101.34336 -3.9353387 2.7142856
8.6544294 101.74505 -3.9524477 2
8.6715069 102.1711 -3.9683182 2.3846154
8.6490021 102.51514 -3.9663105 3
8.5716152 102.96536 -3.9629934 3
8.5404263 103.37519 -3.8729086 3
8.5890789 110.17638 -3.8265984 4.4230771
8.6977844 91.838829 -3.214232 4.3333335
8.5216112 92.168755 -3.2705231 5.6666665
8.5359402 92.636551 -3.2190468 4.3636365
8.6743698 92.979469 -3.253854 4.0555553
8.5394287 93.429184 -3.2942028 4.1666665
8.5768023 93.771484 -3.3106761 3.3333333
8.5968351 94.202728 -3.3609862 3.25
8.7257414 94.571625 -3.3417823 2.7093024
8.5892 95.055489 -3.4418671 2.95
8.6060963 95.340546 -3.5182149 3.5454545
8.4918728 95.721916 -3.5573742 4.4000001
8.6150827 96.074112 -3.5708463 6
8.4550276 97.875877 -3.4279695 7
8.7856655 98.525383 -3.4378731 7
8.5459042 99.200439 -3.4548953 7
8.5963278 103.46877 -3.4234946 4.1111112
8.4846687 103.65853 -3.4101856 5
8.6463108 104.20087 -3.2933671 2.6666667
8.5705185 104.50568 -3.3268189 2.6666667
8.5762892 104.96251 -3.2974136 3.1439393
8.5971098 105.39018 -3.4943094 1
8.5624809 105.68312 -3.2791715 3.8
8.5953617 110.23008 -3.3789182 5.1464286
8.5184193 111.0942 -3.3854563 5
8.6049776 90.077057 -3.070905 5
8.6495142 90.557655 -3.0677712 4.25
8.5946274 90.994125 -3.1216671 4.5833335
8.5127516 91.305481 -3.1633258 4.3333335
8.5943613 91.703941 -3.1784413 4.1999998
8.5856104 92.279877 -3.191402 3.8
8.5140209 92.518539 -3.1954417 3.2
8.6623898 93.389656 -2.8235257 6
8.6968622 94.232063 -2.8414857 6
8.7479429 94.602051 -2.9861639 3.6714287
8.5317783 94.990105 -2.9211967 6
8.7166605 105.08195 -3.1925468 6
8.41716 105.33808 -2.8961155 6
8.6203308 105.67092 -2.9785962 4.6626258
8.6145315 110.24367 -2.9992828 6.2249999
8.6460829 110.46841 -3.0346971 6.25
8.5858984 111.08794 -3.040854 6
8.6771898 116.24622 -2.8160462 7
8.488863 117.45042 -2.9456263 7
8.4189711 91.75341 -2.6607668 6
8.5488243 92.533798 -2.752939 6
8.7391787 93.059631 -2.7972708 6
8.7161789 94.659698 -2.6167822 5.1512818
8.78759 94.822975 -2.7197967 7
8.6100302 105.67922 -2.583993 6.326437
8.5989933 110.25343 -2.6063643 7.0526314
8.6939659 110.41988 -2.6306348 7
8.5764189 111.10751 -2.6458189 7
8.5223656 111.34932 -2.7370164 7
8.6615543 116.67892 -2.6618655 7
8.5257483 117.73279 -2.5840964 8.1149998
8.7534513 94.66436 -2.1912806 6.7243333
8.5640163 105.68237 -2.2769363 7.8949475
8.618639 110.25216 -2.2044253 7.9673915
8.6275129 110.46324 -2.1043336 8.0665007
8.5805626 111.07114 -2.1504831 8.1090374
8.5486937 111.38218 -2.2930868 7
8.5305729 94.344498 -1.7105442 8.1837149
8.6081495 94.625099 -1.8138838 8.1379547
8.5995321 94.939636 -1.8130623 8.1149006
8.5606422 95.335907 -1.7157772 8.5494871
8.765852 95.618446 -1.8257769 8
8.5828056 110.2371 -1.8688406 8.8271465
8.6673622 110.52371 -1.9077543 8.5507507
8.6358967 110.98509 -1.9121177 8.5301428
8.4610624 117.25456 -1.6162052 8.0574999
8.5192337 94.282837 -1.3918651 9.1882563
8.6393328 94.550003 -1.3915364 9.1913929
8.6291838 94.989845 -1.4073393 9.3266401
8.6734543 95.299629 -1.3819107 9.516037
8.6270561 110.23441 -1.4224447 9.8035183
8.4958534 110.95362 -1.3517321 8.0459995
8.7874212 116.61776 -1.5898319 8.05725
8.5407104 94.327705 -1.0415775 9.5839605
8.6274538 94.579773 -1.0258285 10.352428
8.5528259 95.086098 -0.97147685 9.7565107
8.620575 95.353073 -0.99697804 11.058192
8.760169 95.676666 -1.0357749 8.8162498
8.6175995 110.24757 -1.0015267 10.422
8.5517693 118.23078 -0.98739636 9.1420002
8.4079161 92.018364 -0.42634398 8.1564999
8.7629642 93.993195 -0.70095754 9.0109997
8.6330748 94.204048 -0.57227015 11.669952
8.6495237 94.592957 -0.5337835 11.897415
8.5946712 95.108459 -0.5753774 9.9507494
8.6610327 95.370529 -0.62520057 11.982687
8.6017008 110.25841 -0.61185348 11.450966
8.6765518 118.3089 -0.59157163 9.0579996
8.6288385 90.180687 -0.1554319 11.136045
8.5297499 90.532562 -0.12882936 11.843401
8.6645975 90.954834 -0.034808621 9.1470003
8.509408 91.71389 -0.25524193 10.664749
8.4930029 92.125885 -0.20907575 10.6464
8.670248 94.260674 -0.28375974 11.6614
8.5965872 94.65966 -0.2669678 13.053373
8.5873718 95.005707 -0.23302051 12.396831
8.6928787 95.321472 -0.18605557 11.306479
8.6102877 110.25535 -0.20414194 12.368072
8.6612091 90.107376 0.10946409 11.864401
8.6075907 90.687134 0.25292364 11.790313
8.7584019 90.90329 0.091120519 12.4389
8.6318293 94.340683 0.19939075 14.030944
8.5687141 94.592392 0.16066036 12.686642
8.6960974 94.992966 0.1506118 11.57097
8.7328758 95.36805 0.22292355 11.226389
8.7958193 95.607002 0.042848531 9.1525002
8.598959 110.25932 0.19179469 12.811195
8.609498 110.41302 0.29807138 10.026
8.5823793 90.193146 0.55363649 13.032
8.6385775 94.319817 0.49435088 15.023
8.5738211 94.614769 0.53368574 13.243187
8.6422625 94.971825 0.61361367 12.51273
8.7471495 95.226685 0.4548786 11.400333
8.5873871 110.21049 0.59401792 12.938049
8.5969763 94.616409 0.93316048 12.557584
8.6908617 94.990593 0.95011985 11.62397
8.7678986 95.296867 0.96908486 9.859417
8.6300945 109.85654 1.0911019 12.886927
8.6456947 110.1922 0.95953828 13.695661
8.4929543 94.538338 1.2398713 10.0165
8.6345587 95.001778 1.2693551 10.008375
8.5734825 109.82848 1.3320698 13.188346
8.6938162 110.13415 1.4341853 9.2952499
8.7152271 92.377693 1.9156688 8.0419998
8.6067066 92.607681 1.9478887 8.0538168
8.4503098 92.826759 1.9953356 8.0465002
8.4658651 109.56631 1.7426326 10.078
8.5752077 109.88576 1.8062654 14.797291
8.6416378 92.556213 2.0424986 8.0422773
8.4823608 92.801826 2.014823 8.0459986
8.6192122 109.80231 2.2450886 12.791923
8.6651239 110.05254 2.1856809 12.0515
8.5732775 92.103485 2.7866538 9.0508337
8.6369781 109.82574 2.550561 12.764916
8.6441441 110.06898 2.5995417 8
8.5863724 110.55948 2.636111 10.0635
8.4617901 91.697769 2.8560677 9.0408335
8.6692438 92.176865 2.8128889 9.0610008
8.7712412 94.214134 3.0589688 9.0410004
8.6453991 109.85092 2.9653959 14.5308
8.7032175 110.10965 3.0550742 11.399167
8.4743509 110.67372 2.8733506 13.828334
8.5527248 109.84466 3.3707569 13.125642
8.4745731 110.10882 3.4229805 9.0390005
8.4579096 110.81147 3.2476199 15.1655
8.5159035 92.251495 3.740026 10.040833
8.5944891 109.81644 3.7453394 13.214812
8.7239046 110.03826 3.7283084 12.58125
8.6412258 109.92938 4.1634846 10.952182
8.6623316 110.23682 4.1720133 10.683583
8.6102133 109.78428 4.5673108 14.652375
8.7164917 110.10244 4.7209105 14.0725
8.6477337 109.79093 4.8765359 13.241701
8.6780605 110.10291 5.1198578 13.579
8.7235889 109.54196 5.4453344 10.018666
8.6150112 109.70181 5.4787326 11.718166
8.5836601 109.92962 6.1438498 15
8.4332314 110.07867 6.2038774 15.117
8.7347651 111.27219 6.7747293 15.1195
8.7954874 109.5731 7.1059999 11
8.5590067 109.87054 7.0434928 11
8.5507002 109.53694 8.5135355 12.007
8.545867 110.10729 8.649951 14.60825
8.4136696 110.08225 8.9183435 15.109
8.438201 109.56606 9.9509916 13.009399
8.4586182 109.57309 10.052208 13
8.7988482 110.18198 10.28966 15.1075
8.4382563 109.56751 11.534331 14
8.5466394 109.9721 13.019009 14.08525
8.4823704 110.30717 15.844378 15.155
8.8239965 110.0808 -5.1779246 5
9.0926514 110.19338 -4.4726219 3.8
9.1281519 103.06148 -4.0062747 3
9.1438017 103.32878 -4.0037756 4
8.9871302 110.16022 -4.2040591 3.6764705
8.977107 95.889885 -3.612447 4
9.0409107 96.20491 -3.6875174 4.5454545
8.9122095 96.482201 -3.6907706 3.1111112
8.9743538 97.040436 -3.7879832 3.0666666
9.0654678 97.290619 -3.8377666 3
8.9816628 97.644722 -3.8518267 3
9.0284519 98.119461 -3.8606715 2
9.1406298 98.572365 -3.8764846 2.8333333
9.0701237 98.958374 -3.8786554 2.375
9.0233011 99.359245 -3.8867249 2.375
8.9857149 99.737877 -3.8942204 2.375
8.9675627 100.1605 -3.8993185 2.375
8.9437876 100.54694 -3.9079266 2.375
8.8949814 100.92355 -3.9102454 2.6666667
8.927887 101.32034 -3.9305565 2.375
8.9098949 101.76891 -3.9485102 2.0999999
9.0459661 102.17594 -3.9712996 2.25
9.0363159 102.57552 -3.9798751 2.2
9.0199738 102.96233 -3.9888253 2.5999999
8.9672451 103.36404 -3.8172438 3.2222223
8.9714031 103.74866 -3.65975 3
9.0689211 105.80875 -3.6302958 6
8.9947748 110.18204 -3.8295479 4.0875816
9.0460453 91.454285 -3.4911823 6
8.9361076 91.86541 -3.2119124 4.3333335
9.0972471 92.2799 -3.2162874 3.2222223
9.0075893 92.624161 -3.2486637 4.0999999
9.0172548 92.957298 -3.2592547 4.0666666
8.9880562 93.387482 -3.2872143 4.6666665
9.0043983 93.771805 -3.3049955 2.8888888
8.9675512 94.276451 -3.3678403 3.7037036
8.9384499 94.604439 -3.3878188 3.9000001
9.0119543 95.009277 -3.4332199 3.0138886
9.0734825 95.302856 -3.5079513 4.1428571
8.9556885 95.718765 -3.5729961 3
9.1012936 96.272789 -3.5927777 6
9.0021524 97.842499 -3.4199438 7
9.1049032 103.51791 -3.4421058 3.5714285
9.1026363 103.71184 -3.3135095 4
8.98382 104.20831 -3.3006904 2.3333335
8.9187794 104.49229 -3.2664056 2.3764706
9.0129919 104.99077 -3.2704637 3.3481479
9.0280895 105.6962 -3.2868037 3.1875
8.9584837 110.25955 -3.4204042 4.8936167
9.0847301 110.49063 -3.3515599 5.1999998
8.9915991 111.08359 -3.3613217 5
9.1075592 90.051369 -2.9692791 5.5999999
8.9638577 90.709564 -3.0571706 4.5
9.0082703 91.034042 -3.0776882 4.2631578
9.003746 91.381279 -3.1607914 4.5999999
8.8396969 93.321838 -3.1111412 4
8.9241571 94.227074 -3.0818279 6
8.8480749 94.62722 -3.0298219 4.3446965
9.09974 94.938782 -2.9833562 3.909091
9.1287127 103.20634 -3.1721146 6
8.8926449 104.46155 -3.1528022 5.5
9.1814222 105.0604 -3.1858804 6
9.0055742 105.70097 -2.9566498 5.8461537
8.9349718 110.27075 -2.9510105 6.1176472
9.0607538 110.5285 -3.0171914 6.2068968
9.0307198 111.06257 -2.9856405 6
8.9080715 111.66461 -2.8402426 7
9.1163464 90.134552 -2.6942542 5.5454545
8.8461027 94.673767 -2.6074066 5.6315789
8.9824409 94.884041 -2.6961703 6.5999999
9.1698256 105.3637 -2.454736 7
8.8915739 105.70004 -2.6590152 6.125
8.9345293 110.27475 -2.6213431 7
9.08008 110.53996 -2.6307011 7
9.027091 111.11349 -2.6170282 7
8.8510818 94.643524 -2.1873984 6.7991362
9.099103 94.99308 -2.1173375 7.4622779
8.9932632 105.69271 -2.2602673 7.9681244
8.9167223 110.24264 -2.2512467 8
9.0907764 110.56388 -2.2822595 8.0193224
9.0348825 111.12431 -2.1629372 8.0984449
8.8966398 111.20789 -2.0697978 8.1315002
9.1481123 118.15109 -2.2532661 7.5640001
8.8116779 94.381577 -1.7077327 8.1169996
8.9205637 94.695816 -1.7487713 8.1133022
8.9909334 94.964005 -1.8427685 8.1011467
8.8055334 95.311241 -1.6535037 8
8.9554939 110.23631 -1.851041 8.7776566
8.9492073 110.63376 -1.8636365 8.6772146
9.0193367 111.06408 -1.8987274 8.8974419
9.0273466 94.742943 -1.3846555 9.4315214
8.9997158 95.018326 -1.3539455 9.3311186
8.9191256 95.35598 -1.322577 9.7180214
8.9064007 95.692474 -1.3414203 8.0966997
9.0071831 110.26062 -1.4244784 9.7962322
8.8668566 111.03412 -1.3741058 8.0434999
9.1440763 118.20125 -1.5538756 8.0190001
9.0466194 90.50193 -0.91247618 8.1645002
9.0540953 94.593796 -1.1442758 8.7293329
9.0628529 94.906158 -0.97615278 10.616913
8.9752903 95.459053 -1.0714535 10.390365
9.0578423 95.680824 -1.0300977 10.074632
9.0010023 110.25181 -1.0009967 10.421238
9.1117716 118.37822 -0.9345125 9.1405001
8.9084063 94.248283 -0.49571699 11.492908
8.9289827 94.56337 -0.53289819 11.365123
9.0831089 94.881088 -0.61742443 11.83956
8.9487066 95.33783 -0.59276634 11.861018
9.017561 110.27388 -0.60279995 11.635987
9.0869665 110.41409 -0.76641792 9
9.0087757 118.21621 -0.76610535 9.0297499
8.9681187 90.166862 -0.13272469 10.956401
9.1011372 90.474442 -0.17228678 12.0555
9.1351337 91.013412 -0.14034456 10.688832
9.0864391 94.252762 -0.19387139 12.583967
9.0023661 94.593559 -0.23323241 10.977448
9.0754786 94.999329 -0.17712885 11.186859
8.9910812 95.413696 -0.1661005 12.336976
8.9959326 95.673851 -0.19888286 9.5421247
9.0103407 110.26271 -0.23354453 12.188831
8.9695578 90.277321 0.2605992 12.256
9.0811682 90.576057 0.26323611 13.049832
8.985713 90.965286 0.19533007 12.137833
9.1133842 91.256538 0.30842102 12.023
9.0221634 94.196472 0.16017415 11.305
9.0492668 94.597244 0.16706511 11.900694
9.0442009 94.978622 0.20317282 11.954124
8.9357624 95.434647 0.23921606 12.304242
9.0116043 110.28379 0.17136805 13.303265
9.0991755 118.24678 0.052184671 10
9.0176449 90.280029 0.67977715 13.908286
9.1043129 90.451302 0.56133431 12.39025
9.0631895 94.331001 0.58616823 13.015856
9.0135994 94.545158 0.60324395 12.230166
8.9043579 95.068146 0.75514305 11.429606
8.9223232 95.393791 0.56246817 12.362134
9.0877695 95.750717 0.58663529 10.25
8.9921045 110.24162 0.56877679 13.058549
9.1523008 90.272949 0.94536787 14.031876
9.1798096 90.433311 0.82314843 12.0205
9.0607033 94.287125 0.81991726 9.158
8.8824987 94.623741 1.0722311 10.017
9.0025702 95.099396 0.93642354 12.475016
9.0010376 95.34436 0.94301528 11.752454
9.0345087 109.8457 1.087329 12.120125
9.018692 110.19478 0.97650844 13.895014
8.9501791 95.146507 1.3378224 10
8.9946375 109.90077 1.3886399 12.954187
9.0138636 110.05799 1.4224917 10.0239
9.0486116 110.46951 1.299904 11.0535
8.8619871 92.354324 1.9634292 8.050333
9.0115471 92.495529 1.9930121 8.0445004
8.9797659 94.190323 1.9606718 8.0539999
9.0180025 109.88718 1.8559455 13.764215
9.0171461 110.05314 1.7871447 13.675108
9.1400633 90.182312 2.1658976 8.0985003
8.8962336 90.524284 2.0684474 8.0380001
8.9546452 92.432526 2.0374639 8.0435448
8.8896198 93.989532 2.0227358 8.0629997
9.0224857 94.161652 2.0467055 8.0460835
9.0992041 94.626236 2.1241527 8.0427494
9.0163307 109.88536 2.1956148 13.043758
9.0683002 110.06806 2.201267 12.398899
8.9116602 90.349586 2.6165919 9.0550003
8.9661789 90.441795 2.6802197 8.9975729
8.9735813 91.094215 2.5954247 9.0647497
9.1612682 91.322296 2.5598986 9.0605001
9.0434484 109.85889 2.6343846 13.305786
8.9976645 110.05538 2.5882273 9.4123335
9.1373663 110.66499 2.6348336 8
9.080904 94.211494 3.0602806 9.0540829
9.0417681 109.88319 3.1067007 13.758945
9.0048256 110.0501 2.9296978 12.8707
8.990942 109.91897 3.4021475 13.690749
9.0259151 110.10844 3.4150889 12.567078
9.0689602 109.89693 3.8033688 14.309143
8.9930544 110.09759 3.7448943 12.35325
9.0258541 109.90949 4.1605682 12.067868
9.0448904 110.18293 4.166223 11.6439
8.8760605 109.94319 4.7438078 12.108
9.0090036 110.0434 4.5669651 14.0239
8.9659901 109.8924 4.9932899 14
9.0245466 110.15096 5.0648441 12.526751
9.1124125 90.738457 5.5991125 15.1125
8.9457235 109.57839 5.4760413 10.013062
9.0354338 109.83203 5.2518806 15
8.934123 110.02586 5.4304953 12.1065
9.0629854 90.797859 5.8778911 14.0305
8.9326553 109.93641 6.1367831 15
8.9630756 110.17075 6.1835108 15
8.9619656 109.58037 7.0742412 11
8.8348255 109.64273 7.1836743 11.0425
8.96348 109.54768 8.5236473 12.0252
8.8949108 110.17233 8.5113153 14.10725
9.0049553 110.12012 8.9863415 14.053249
9.0580359 109.59836 9.9668655 13
9.1420946 109.7056 9.9049435 13.0465
9.1737194 109.59453 10.099518 13
9.1297131 109.56808 11.536309 14
8.8351851 110.19601 11.376508 15.1065
9.1234531 109.58461 11.647559 14
9.1457052 109.56093 13.058005 15.0225
9.1372499 109.99573 13.020263 14.0745
9.0643759 109.86115 13.273174 14.407833
9.2898388 110.06455 -5.0839119 5
9.4078369 110.14659 -4.4408174 4.3333335
9.5829315 102.47129 -4.0071464 5
9.4585466 102.9879 -4.0073361 2.2
9.4523172 103.2217 -4.0232635 3.5
9.3817453 110.18481 -4.1865201 3.2692308
9.2800655 95.543442 -3.6073794 5
9.3709393 95.831047 -3.6278543 5
9.436223 96.111244 -3.6582398 3
9.4057837 96.554993 -3.7248735 4.0769229
9.4588385 96.969582 -3.7487314 4
9.3686104 97.372696 -3.8555245 2.4705882
9.3850136 97.808273 -3.8628497 2.4285715
9.3645897 98.243553 -3.8782668 3
9.5066023 98.570076 -3.8738995 2.5999999
9.4835529 99.055466 -3.8758674 3.6666667
9.5134315 99.376839 -3.8809476 3
9.4820271 99.811508 -3.8880339 3
9.4530659 100.18896 -3.8932986 3
9.4621887 100.55963 -3.902251 3
9.4312449 101.07624 -3.9153755 3.6666667
9.4304953 101.39642 -3.9298687 3
9.4484873 101.74618 -3.9504182 3.3333333
9.4127951 102.13428 -3.9674282 3
9.4485664 102.50912 -3.977227 2
9.4441738 102.91102 -3.9874406 2.25
9.334754 103.37659 -3.8874164 2.8333333
9.519969 103.66169 -3.7416303 6
9.3778629 110.18682 -3.804446 4.2307692
9.5632191 91.926064 -3.2028928 6
9.3913088 92.24192 -3.2310107 3.5999999
9.3833199 92.583267 -3.2563815 3
9.289547 92.976791 -3.3606908 4.6666665
9.3559999 93.46405 -3.307126 3.8823528
9.4668951 93.710159 -3.3118434 3.5999999
9.3691263 94.239471 -3.3632188 3.1052632
9.4527159 94.62146 -3.4200296 2.9615386
9.3731432 95.056519 -3.4403403 3.1515152
9.5179386 95.418846 -3.5267119 4.6666665
9.366744 95.641983 -3.5805793 4.6666665
9.3126268 103.46968 -3.3921762 5
9.3520021 103.77058 -3.3553081 4.1176472
9.4140625 104.17961 -3.2969108 2.0625
9.390295 104.46954 -3.3273883 0.90909094
9.426137 104.99382 -3.2983916 3.0277777
9.4915895 105.26272 -3.2913284 4
9.4324913 105.67221 -3.2773719 3.3
9.3846951 110.31171 -3.4667861 5.3333335
9.4125938 110.51899 -3.3532896 5.1111112
9.2676525 111.11295 -3.4347169 5
9.4667559 90.166245 -2.9544628 5.5
9.4854937 90.615082 -2.9695463 4.5
9.4403639 90.954659 -3.0565476 4.1111112
9.3436861 91.402298 -3.1264827 4.75
9.4565516 91.707886 -3.1812322 4.4285712
9.3833704 93.849617 -2.8399363 6
9.3038864 94.796814 -2.8574312 6
9.4419498 94.916458 -2.9336829 6
9.3176546 103.16029 -3.1666348 6
9.5480833 105.14287 -3.1470201 6
9.4860601 105.70734 -3.0030313 4.7407408
9.4103804 110.5527 -2.9933825 6.159091
9.2384233 111.05587 -3.047502 6
9.350687 90.211075 -2.6748044 6.2083335
9.4790258 90.512695 -2.7277412 5.5625
9.48318 91.715797 -2.6942677 6
9.2930508 93.22345 -2.7894177 6
9.2938747 94.974457 -2.77806 6
9.4784031 105.56271 -2.6183891 7
9.4965792 105.71615 -2.5946076 6.3888888
9.4108753 110.56925 -2.6351902 7
9.2635221 111.12325 -2.6859248 7
9.5387812 118.24722 -2.609942 8.1145
9.2462454 95.019493 -2.2644784 7
9.5670195 105.50854 -2.1773422 7
9.450676 105.71745 -2.2952912 7.6835566
9.3799772 110.38586 -2.3418953 8
9.4274082 110.56526 -2.2918513 8.0280704
9.3002844 111.05163 -2.2149789 8.1058435
9.2102747 94.742226 -1.6893759 8.0155001
9.4514637 95.397026 -1.8851838 8.0353327
9.4001245 110.27212 -1.747093 8.8109837
9.4699488 110.68803 -1.8376167 8.761857
9.4436073 111.09031 -1.8949928 9.0444317
9.4163761 111.22062 -1.8276874 8.1339998
9.4168863 116.42162 -1.7551203 8.0635004
9.3807945 118.27781 -1.8793336 8.1415005
9.490037 94.922966 -1.2667141 9.780283
9.3912487 95.288704 -1.2171606 8
9.4031048 110.27767 -1.4016594 9.9679565
9.451148 111.3279 -1.3855667 8.0504999
9.4206476 90.318291 -0.95932502 9.1033335
9.4755306 90.547081 -0.94693297 9.861001
9.5860825 90.803101 -1.0272827 8.1730003
9.5086288 94.722023 -0.97223222 9.8910837
9.4764547 94.935043 -0.9826504 11.232276
9.4094963 95.400291 -0.93166596 8.7079992
9.2889318 95.858589 -1.0062267 9.1090002
9.4009867 110.27209 -0.9958936 10.577921
9.5105247 110.42501 -0.80724382 9
9.5918331 118.29146 -0.97703707 9.1379995
9.5327778 90.259422 -0.70655829 9.324749
9.5524826 90.705399 -0.65222782 8.0865002
9.3655529 94.384537 -0.49282986 10.0905
9.4084768 94.637543 -0.53120536 12.113823
9.3390942 94.937973 -0.6310876 10.843966
9.3891764 95.33506 -0.6060378 11.468293
9.377285 110.28725 -0.58374822 11.967321
9.5363503 110.43835 -0.7671774 9
9.2550068 118.22356 -0.54034036 9.0579996
9.4233322 90.230789 -0.15732357 11.201167
9.3154383 90.497955 -0.25911528 8.8846245
9.3970089 91.107697 -0.099903971 9.8930998
9.4046354 91.266815 -0.14238299 11.823666
9.2184505 94.282501 -0.20656112 13.752571
9.2777185 94.536308 -0.21408759 12.986856
9.4340534 95.027779 -0.22431514 11.634494
9.4457607 95.338051 -0.17917693 10.734944
9.2928391 95.76358 -0.18441376 10.054501
9.4252815 110.28483 -0.21203969 12.360532
9.2682419 90.155235 0.19520026 9.1184998
9.4026928 90.571655 0.24006638 11.0832
9.4373474 91.061256 0.19660717 12.458817
9.3330793 91.248749 0.16164823 12.2732
9.4497671 94.664337 0.17022143 12.257201
9.358923 95.01181 0.2106919 12.438694
9.4149551 95.378532 0.22221014 11.705028
9.3821678 110.30068 0.17655134 12.787865
9.3077717 110.41277 0.20529473 10
9.3881798 90.320679 0.61784047 12.596063
9.394866 90.495232 0.62577158 13.032375
9.3773432 90.970467 0.42838138 13.326643
9.3441906 94.69339 0.52228576 12.6485
9.379468 95.029274 0.54604089 12.88986
9.4164762 95.426926 0.56595457 12.953987
9.2491236 95.685036 0.42116717 10
9.4089823 110.24366 0.56393129 13.256816
9.5474949 110.43489 0.76068723 10.4775
9.4325838 90.200539 0.96878374 14.090187
9.3436537 90.411507 0.87898427 12.667001
9.5139599 94.372421 1.0845606 7
9.3971462 94.758553 1.0314265 7
9.2325439 94.903908 0.94120711 11.338333
9.2923203 95.36496 0.90239149 10.822624
9.400424 109.83356 1.0957526 12.595939
9.4069901 110.24535 0.9611184 13.778089
9.454854 93.999474 1.2728218 7
9.2879763 94.057335 1.273641 7
9.5049543 95.198563 1.2786593 7
9.3599234 95.330978 1.2700462 7
9.3821611 109.90237 1.3239167 12.500501
9.3357172 110.0824 1.4291866 11.305642
9.2510519 94.696274 1.9109521 8.0581245
9.3798962 94.824326 1.9657134 8.057333
9.294013 92.49427 2.0549071 8.0424995
9.4901323 93.903328 2.0823503 8.0534992
9.4627895 94.158882 2.0925715 8.0439997
9.4261312 94.66011 2.0563996 8.0504999
9.4582405 94.853416 2.0220971 8.0264997
9.3879509 109.92191 2.253814 13.762285
9.4127064 110.09831 2.2645798 10
9.4871206 90.146912 2.4975085 9.0574999
9.4311867 110.16781 2.5869915 8.6870003
9.4569368 110.45309 2.6356289 8
9.3361454 94.21962 2.9803617 9.047473
9.2386971 109.84966 2.966429 14
9.26964 109.95248 3.3473883 15.165
9.4476042 110.10859 3.5016415 11.749001
9.4252291 94.433235 3.8387785 10.0535
9.2218046 109.97137 3.6366999 13
9.3930683 110.16241 3.7698348 10.356334
9.385211 109.9558 4.1307874 10.5
9.3940601 110.21981 4.274159 11.038
9.504611 90.39917 4.74471 14.1095
9.4987984 109.85867 4.6609497 13.792749
9.3656664 110.10548 4.5305152 13.515888
9.51999 90.302101 5.1392236 14.62525
9.3630896 90.553848 5.1623158 13.071751
9.4161158 109.82083 5.0774379 13.5
9.5358391 110.0677 4.824645 14.121
9.2996464 90.162186 5.5388408 14.035749
9.422822 90.653458 5.5064626 14.04575
9.4621572 109.59222 5.5115757 10
9.4081593 109.75726 5.3470073 12.5264
9.5223722 110.1034 5.2607698 15.152
9.3243809 90.529198 5.6907506 13.698833
9.2866058 109.59372 5.6002593 10
9.4385843 109.62154 5.6812563 10
9.3442669 110.16685 5.6757774 14.558125
9.2120304 109.97705 6.0783849 15
9.3291702 110.1977 6.113451 14.2901
9.4283886 109.66808 6.5504355 11.042749
9.352808 110.08297 6.5656075 13.1075
9.3717098 109.57959 7.0854354 11
9.3863392 109.61068 7.0612044 11.023251
9.2906351 110.20962 7.0567651 13.55425
9.2918396 110.21741 7.7375102 15.111
9.3671923 109.55968 8.5644093 12.002965
9.3093777 109.60577 8.6474142 12
9.3447075 110.19434 8.7550488 14.55425
9.2128086 109.57949 10.013756 13
9.3733301 109.72791 10.135957 13
9.258132 109.68694 11.53574 14.011
9.2438984 109.59891 11.655194 14
9.3942423 109.66932 11.681064 14
9.4431019 110.22125 12.640008 13.1585
9.2896662 109.6407 13.215753 15
9.6499777 110.04104 -5.033308 5
9.7319994 110.14863 -4.5582032 5
9.8458452 102.36463 -4.000885 0
9.9782581 102.65724 -4.0067801 5
9.9188538 103.07835 -4.0203595 5
9.716876 103.32437 -4.0096092 5
9.8043118 110.21095 -4.1830974 3.2142856
9.9099083 95.73967 -3.6053741 4
9.8071442 96.240311 -3.6642058 3.3333333
9.7939281 96.568199 -3.7007997 3.8333333
9.8244133 97.022003 -3.7661879 2.8148148
9.6347551 97.55143 -3.8966706 5
9.779479 97.832047 -3.8754947 3
9.7144127 98.153572 -3.8683376 2
9.6566477 98.620834 -3.8819137 2.1666667
9.7466564 98.960068 -3.8927801 1.8333334
9.8076792 99.392853 -3.8994558 1.1
9.7157593 99.760956 -3.9107721 3.5
9.8028059 100.16199 -3.9077425 1.375
9.8451529 100.55392 -3.9158754 1.75
9.8642178 100.99114 -3.9344437 1.125
9.7920475 101.38743 -3.9448295 1.1
9.9203815 101.74592 -3.9517078 1.4285715
9.8094168 102.09418 -3.9674211 2.3
9.8299637 102.67944 -3.977144 4.1999998
9.6562424 103.06995 -3.9897828 5
9.7738028 103.37925 -3.8789213 3.2727273
9.9254274 103.7883 -3.6777301 5.5714288
9.9309664 109.94465 -3.645582 6
9.8340082 110.21873 -3.8043594 3.9469695
9.767643 91.574356 -3.2580645 6
9.77493 91.902695 -3.2053139 5
9.9200706 92.237152 -3.2169249 4.1999998
9.7628698 92.509407 -3.2552812 3.75
9.8789978 92.911652 -3.2867782 3
9.8180685 93.453362 -3.329757 3.3333333
9.7773638 93.769638 -3.3573728 2.8333333
9.826972 94.239616 -3.4178505 2.7916667
9.8239622 94.598984 -3.4491751 2.9166667
9.7955112 95.015419 -3.4952514 1.9565217
9.7346916 95.39727 -3.5313632 3.8888888
9.8109093 95.848015 -3.5913785 2.3333333
9.9462099 103.50201 -3.5132289 4.5
9.7534533 103.74567 -3.383446 3.9285715
9.7762423 104.27307 -3.3095255 2.5238094
9.8448372 104.47542 -3.2923813 2.5555556
9.759346 104.98606 -3.3107884 2.9720433
9.931468 105.23508 -3.2298844 2
9.7663364 105.73253 -3.2765768 3.6333337
9.742197 110.31294 -3.4357445 5
9.8226366 110.53228 -3.3678904 5.0540543
9.7679977 111.84138 -3.2441721 6
9.7479143 90.226349 -2.9017627 6.5
9.7182055 90.526688 -2.9552677 5.5
9.8311357 90.929749 -2.9179649 5.1666665
9.7687197 91.445107 -3.1108456 4.4166665
9.7701912 91.88475 -3.1773047 4
9.8326063 92.306366 -3.0679784 4.0769229
9.8020563 92.416779 -3.1530004 5
9.8719177 105.59061 -2.8196626 7
9.7791328 105.71893 -2.9576268 4.5760002
9.7420692 110.39224 -2.940042 6.1999998
9.7826576 110.53138 -3.0229323 6.0545454
9.9583902 115.4265 -2.8230631 7
9.7882471 90.261017 -2.5671144 6.75
9.7833147 90.565758 -2.6653023 6.4545455
9.8920259 90.894737 -2.6823299 6.25
9.8658314 92.118393 -2.7101672 6
9.6521463 92.489334 -2.7787106 6
9.8155642 105.72916 -2.5933032 6.2102561
9.8918324 110.37987 -2.4936397 8
9.7749414 110.52289 -2.6329906 7.0409818
9.7365646 111.86274 -2.7739186 7
9.9440689 90.473007 -2.164181 7
9.6208696 105.39679 -2.3497355 7
9.7970924 105.73089 -2.3142085 7.6551924
9.8184147 110.60059 -2.2998998 8.0122366
9.8650074 111.1083 -2.1412106 8.1516247
9.8138847 110.29507 -1.7722313 8.7480383
9.837285 110.57149 -1.8519732 8.9519453
9.8043976 111.16464 -1.9115363 9.008049
9.8069162 111.42058 -1.8491411 8.1304998
9.8291359 111.80354 -1.9349973 8.1288328
9.779294 116.29234 -1.9148767 8.1427498
9.7595482 116.65019 -1.8523839 8.1394997
9.6425457 118.34263 -1.7531621 9.1145
9.6778278 92.061852 -1.2477983 8.1055002
9.6428318 94.903198 -1.265445 10.5436
9.8139858 110.29488 -1.4425045 9.8451967
9.8596144 110.42507 -1.5616258 8.1195002
9.9311419 111.60405 -1.3638077 8.0480003
9.7538195 112.01167 -1.3493688 8.0500002
9.7912683 90.12484 -0.86917537 9.9170008
9.7123623 90.622612 -0.88014579 9.734333
9.9388771 90.835617 -0.98085016 9.0944996
9.7497025 94.79644 -0.99145991 9.0120001
9.659606 94.898598 -1.065676 10.737863
9.7962751 110.30172 -1.0080175 10.436693
9.8311234 110.43199 -0.93610615 8.9338999
9.6472006 118.23536 -0.94665992 9.1393337
9.7439966 90.233078 -0.77903354 9.0627499
9.6652536 90.505272 -0.68823469 9.428834
9.6401939 94.678101 -0.68429059 9.4051247
9.6181889 94.810471 -0.71576625 13.0595
9.8356276 110.31218 -0.5751484 11.668822
9.9174204 110.42943 -0.44768673 9.1195002
9.8302374 90.254974 -0.1348609 11.428272
9.9069624 90.587975 -0.11761896 11.56955
9.8721714 91.074875 -0.0878824 10.017
9.6374245 94.981201 -0.10718228 11.064151
9.6209679 95.337036 -0.31922552 11.081
9.7042637 109.97508 -0.023393728 9.0780001
9.8104839 110.30779 -0.19228727 12.546725
9.8494511 90.574074 0.27561268 11.590779
9.700592 91.00959 0.11531778 11.190214
9.7292614 94.705116 0.16467488 12.019313
9.6584959 94.880386 0.20853572 11.693605
9.661767 95.411018 0.23082599 12.892334
9.8070831 110.31641 0.19757578 12.980014
9.8557749 110.42571 0.20558347 10.081666
9.7482567 90.258072 0.60741848 11.882209
9.8879337 90.649437 0.60424793 13.267401
9.6328211 90.898781 0.50342286 13.702834
9.7263517 95.066765 0.66268718 12.812201
9.6399784 95.327721 0.5660122 12.259532
9.7598085 95.811218 0.49641034 11.1015
9.7897997 110.28114 0.62486821 13.658788
9.8611212 90.129829 0.9820174 13.660298
9.8857107 94.75959 1.1016284 7
9.7411547 95.005096 0.94833386 9.4317999
