# .PCD v0.7 - Point Cloud Data file format
VERSION 0.7
FIELDS x y z intensity
SIZE 4 4 4 4
TYPE F F F F
COUNT 1 1 1 1
WIDTH 151
HEIGHT 1
VIEWPOINT 0 0 0 1 0 0 0
POINTS 151
DATA ascii
120.29438 29.233891 9.4235163 10.0615
120.2887 29.761518 12.778092 11.0585
120.22546 29.935738 18.724873 12.055
120.04688 29.885056 19.131166 14
120.34207 20.786139 23.249895 15.0355
120.03803 15.878731 23.722116 15
120.53158 28.436737 13.020242 11.065
120.79601 26.189514 15.560229 11.061
120.75185 28.451126 15.39642 11
120.76175 28.638412 18.284128 12.0275
120.63251 29.008873 25.019926 14.1375
120.92892 28.264362 14.447875 11
120.84457 28.397081 15.163412 11.0455
120.9812 16.478174 23.731775 15.147
121.07667 28.430399 24.912975 14
121.06823 28.934826 24.924358 14
121.4969 29.302706 11.850442 10
121.47745 23.164698 13.268992 12.1415
121.20116 27.615446 14.736999 11.1625
121.53406 28.515455 15.435746 11.0785
121.49126 29.017149 15.401702 11.0263
121.36144 29.247618 15.498685 11
121.58148 28.794559 15.645399 11.0665
121.58424 28.493862 17.99901 12
121.54153 28.779617 18.767519 12
121.56574 28.471334 18.999311 12.045
121.41524 28.849939 19.201101 12
121.2226 16.374075 20.949116 14
121.55408 28.380175 21.484869 13
121.54911 28.71792 21.492504 13
121.34585 28.759146 22.252251 13
121.29485 29.097912 22.241858 13
121.26861 16.584272 23.817785 15.1475
121.67756 10.372577 2.251231 8.1359997
121.87528 28.325548 9.5528011 9.0024996
121.81255 28.279539 9.7532835 9.0024996
121.70513 28.215998 11.832398 10.0785
121.65707 28.6915 11.829522 10.037251
121.6432 28.901556 11.904671 10.03325
121.61802 28.589748 14.554417 11
121.65642 28.927826 14.56829 11
121.64697 28.840593 15.330485 11.052
121.92147 15.96504 17.988482 13
121.80227 16.234892 17.980419 13
121.70592 16.53208 17.978479 13
121.6945 28.1569 18.010393 12
121.86269 28.78166 18.565514 12.0625
121.84908 16.117472 20.647625 14.147
121.63471 16.490845 20.662905 14.1475
121.82977 16.781729 23.933626 15.1475
122.02461 3.0596797 2.2661822 8.132
122.04666 2.7242315 4.0443931 8.0340004
122.12832 16.766712 23.903368 15.1475
123.10762 3.1343195 4.0578203 8.0334997
123.17072 3.7262194 4.0192628 8.0340004
122.80691 5.2081208 5.0986876 9.1350002
123.33601 3.4859867 7.0597305 9.0334997
123.79094 0.81677192 0.96221429 7
123.82063 3.6436942 2.4214237 8.1335001
123.66334 5.7775292 6.1895843 9.1435003
123.65131 3.6654432 7.0439839 9.0340004
124.14699 12.55441 0.31111348 7
128.3889 3.8253853 7.2873902 9.0349998
128.16449 2.9229004 8.1527662 10.131
128.67453 1.4159565 8.2095671 10.133249
128.62469 2.6211014 8.3144112 10.132
138.30145 5.4829235 7.6767163 9.0380001
139.83081 5.2472482 2.8032029 8.1350002
143.15962 24.701937 22.326229 13
143.17415 24.772207 26.04154 14.146
143.33015 24.370333 22.342911 13
143.50237 23.858786 26.311085 14.147
143.47397 24.059553 26.193499 14.0735
143.3474 24.465158 26.249454 14
143.21281 24.812613 26.240969 14
143.94194 23.227104 14.755335 11
143.92546 23.324139 18.560019 12
143.60899 23.88228 22.373392 13
143.90424 23.061113 26.187099 14.07275
143.70178 23.632912 26.264378 14.07325
144.28403 22.50008 11.013047 10
144.08072 23.000427 10.996786 10
144.15648 22.932865 14.777107 11
144.20592 22.633896 18.582449 12
144.0663 22.979248 18.571236 12
144.38144 21.868757 22.476343 13.07325
144.22057 22.322517 22.419538 13
144.10448 22.697315 22.414028 13
144.0408 22.84923 25.890585 14.146
144.37717 21.962532 26.319622 14.146
144.25999 22.169147 26.301123 14.117099
144.11708 22.619654 26.291008 14.048833
144.56071 21.595932 11.203218 10.1465
144.43489 22.241417 14.79954 11
144.6106 21.699661 14.812065 11
144.6684 21.414738 18.618744 12
144.67592 21.321674 22.464281 13
144.5157 21.658783 22.447615 13
144.63664 20.208735 24.318478 14
144.71671 21.194288 25.964069 14.1455
144.77083 21.377476 25.792498 14.145
144.71835 21.091299 26.184376 14.1455
144.66656 21.252522 26.248074 14.0725
144.49599 21.736839 26.347752 14
144.95082 20.769749 11.071409 10.146
144.97824 20.639957 22.494467 13
144.82402 20.979698 22.478588 13
144.90715 19.721443 24.370663 14
145.18102 19.052086 24.420509 14
145.06949 19.391966 24.401514 14
145.06178 20.384977 26.338867 14.146
144.9081 20.630825 26.31992 14.073
145.08209 20.252827 26.425106 14.10925
145.57925 19.507565 17.162689 12
145.43834 19.843063 17.143852 12
145.57938 19.340687 20.726952 13
145.3624 19.762049 20.749973 13
145.22856 20.09819 20.728716 13
145.56152 19.544777 20.846466 13
145.48625 19.75297 20.866135 13
145.27988 20.233559 20.804264 13
145.44496 18.595709 24.473326 14
145.43137 19.421143 26.186075 14.145
145.50372 19.330057 26.448942 14
145.35811 19.673548 26.433187 14
145.20039 20.012356 26.414658 14
145.87244 18.953556 13.493529 11
145.98787 18.398544 17.164656 12
145.85997 18.695068 17.087132 12
145.75439 19.065836 17.071955 12
145.63055 19.202845 17.112015 12
145.84564 18.865637 17.23263 12
145.71277 19.237526 17.24824 12
145.97218 18.615271 20.732977 13
145.82079 18.95149 20.708887 13
145.72517 19.229076 20.756733 13
145.87357 18.685822 20.880274 13
145.83559 18.920732 20.920927 13
145.66386 19.251835 20.892313 13
145.80536 19.017553 24.375061 14
145.63454 19.349609 24.343536 14
145.84897 18.949722 24.612658 14
145.68544 19.276876 24.581856 14
145.67378 18.995302 26.471161 14
146.05774 18.498686 13.529747 11
146.04469 18.541674 17.12533 12
146.04414 18.538965 17.261957 12
146.12209 18.239386 20.917908 13
146.01849 18.463739 20.889671 13.046166
148.80576 20.235456 25.360439 14.1385
148.86363 20.950521 25.422848 14.139
