# .PCD v0.7 - Point Cloud Data file format
VERSION 0.7
FIELDS x y z intensity
SIZE 4 4 4 4
TYPE F F F F
COUNT 1 1 1 1
WIDTH 120
HEIGHT 1
VIEWPOINT 0 0 0 1 0 0 0
POINTS 120
DATA ascii
135.98315 -84.242119 7.4237704 8.1225004
137.5656 -61.574879 6.456502 8.1704998
137.54834 -60.831253 14.338624 10.0055
137.59984 -60.759712 16.265375 11
137.55045 -60.955521 19.736544 12
137.51357 -60.618706 19.718491 12
137.57539 -61.277687 22.274508 12.0055
137.58759 -60.574379 22.066328 12.0055
137.59264 -60.517124 24.638311 13
137.55641 -60.163849 24.620224 13
137.54851 -60.964989 24.917404 13
137.74065 -63.019939 2.7550454 7
137.71877 -62.643417 2.4227419 7
137.66678 -62.215805 2.5561886 7
137.79848 -63.13765 3.1995838 7
137.77103 -63.2803 5.2968483 8
137.74805 -62.960999 5.2857571 8
137.71649 -62.335846 6.0997744 8.1730003
137.76933 -63.202168 8.4878016 9
137.73654 -62.883572 8.4761095 9
137.67984 -62.204914 9.3799 9.1732502
137.87582 -63.100361 11.700046 10
137.67615 -62.793091 11.673134 10
137.67783 -61.139194 14.360695 10.003
137.61909 -60.822418 14.410621 10.005
137.72659 -62.710167 14.900327 11
137.72061 -62.38961 14.891234 11
137.70645 -61.848782 16.30928 11.1735
137.6618 -61.1115 16.337744 11
137.71153 -62.124817 16.435608 11
137.7594 -61.44091 16.414417 11
137.81067 -62.910995 17.96076 11
137.82211 -62.511017 17.941069 11
137.78085 -62.116676 17.915031 11
137.72244 -61.724407 17.887058 11
137.69797 -63.129604 18.168146 11.005
137.81729 -62.703087 18.2033 11
137.7663 -62.123642 18.169983 11
137.74805 -61.540024 18.141182 11
137.72845 -61.171127 18.122112 11
137.68166 -60.78606 18.09885 11
137.73477 -63.492989 18.675261 12.1705
137.75754 -62.81797 18.477179 12
137.71402 -62.581196 18.580555 11.336501
137.77194 -62.257118 18.613235 11.50025
137.65137 -61.917007 18.450933 11.005
137.69939 -61.788948 19.449423 12.173
137.75276 -61.793461 19.819008 12.08675
137.69267 -61.296608 19.855242 12
137.63423 -60.963509 19.833202 12
137.61177 -60.643295 19.817949 12
137.78296 -60.830406 20.29628 12
137.69057 -60.115208 20.255871 12
137.68414 -62.604927 20.587147 12.17
137.74635 -61.53405 20.571098 12
137.75807 -60.982838 20.553616 12
137.68657 -60.424076 20.52247 12
137.63872 -60.06377 20.502367 12
137.69972 -61.913692 20.826481 12.0025
137.61528 -61.398479 20.998924 12
137.64616 -61.05484 20.992207 12
137.61121 -60.701603 20.973871 12
137.63124 -60.373711 21.048361 12
137.72197 -62.926617 21.459711 12.580999
137.75529 -62.601444 21.362671 12
137.72275 -61.380394 21.311378 12
137.75945 -60.842178 21.298574 12
137.76424 -63.871357 21.766226 13.1655
137.79684 -62.700287 21.860161 13
137.75627 -62.208992 21.838646 13
137.71341 -61.717834 21.817125 13
137.65967 -61.394218 21.901106 13.0855
137.67159 -61.061333 21.792223 13
137.61963 -60.736343 21.774113 13
137.74796 -61.459015 23.00399 12.004
137.71216 -60.800453 23.339085 13
137.64137 -60.56422 23.274395 13
137.60085 -60.663601 23.975935 13
137.6526 -60.292854 23.974836 13
137.69073 -62.415413 24.181728 13.17
137.7892 -62.071877 24.202507 13
137.78346 -61.726425 24.189917 13
137.75691 -61.36512 24.172855 13
137.74449 -61.025848 24.016232 13
137.73454 -60.612335 24.288284 13
137.6881 -60.251759 24.268183 13
137.70163 -62.738808 24.785915 14.154
137.76718 -62.25404 24.721415 13
137.7429 -61.846073 24.703739 13.000625
137.66824 -61.384762 24.694946 13
137.63541 -60.869503 24.657986 13
137.67097 -60.619904 24.700411 13
137.741 -63.779766 25.159689 14.1655
137.74831 -62.552624 24.984388 13.387333
137.65347 -62.189522 25.108017 14.166
137.7489 -61.899582 24.990967 13
137.72273 -61.38739 24.968357 13
137.74614 -60.595108 24.967804 13
137.70215 -60.241322 24.947641 13
137.64981 -60.616631 25.204208 14
137.71971 -61.457893 25.689171 13.00425
137.84309 -62.627506 26.92815 14
137.73274 -62.110348 26.942528 14.08675
137.75035 -61.613476 26.874012 14
137.70128 -61.3041 26.907867 14.0865
137.68436 -60.954887 26.838783 14
137.64879 -60.617336 26.820707 14
137.78499 -61.934174 27.822624 14
137.77275 -61.209435 27.798492 14
137.72997 -60.851589 27.778301 14
137.71072 -60.472263 27.763393 14
137.73166 -62.651203 28.1824 15.154
137.80305 -60.978523 28.117535 14
137.69417 -60.566315 28.235977 14
137.68971 -60.076485 28.067268 14
137.71042 -62.083641 28.43775 14
137.70177 -61.21624 28.668821 14
137.71538 -60.484276 28.65189 14
138.73184 -60.158901 30.405483 14.0055
140.61786 -66.678581 5.4740543 8.1529999
