# .PCD v0.7 - Point Cloud Data file format
VERSION 0.7
FIELDS x y z intensity
SIZE 4 4 4 4
TYPE F F F F
COUNT 1 1 1 1
WIDTH 508
HEIGHT 1
VIEWPOINT 0 0 0 1 0 0 0
POINTS 508
DATA ascii
120.33916 30.716154 10.618186 11
120.30777 30.880764 10.605675 11
120.18203 30.142023 11.061393 10
120.05867 30.139645 13.343179 12
120.2895 30.455761 13.450528 12.039
120.14381 30.27195 15.075252 11.003
120.1335 30.092308 15.270285 11.02625
120.03548 30.281858 16.15523 13
120.2234 30.530027 16.319061 13.03875
120.21992 30.805717 17.82933 13.094
120.22323 31.409126 18.229937 14.089
120.15334 30.301239 19.093584 12.333333
120.134 30.504499 19.098932 13.1545
120.10148 30.237331 19.25313 12.519875
120.13448 30.510895 19.343805 14.03775
120.05435 31.192554 21.001827 14.094
120.02689 30.192825 21.554703 13.071
120.02445 30.555847 21.943905 15
120.07743 30.500576 22.1203 15
120.1867 30.816019 22.090458 15.039
120.13538 31.034918 23.117491 13
120.11755 31.115566 24.130657 15.093
120.50555 30.391792 10.557597 11
120.47687 30.602064 10.614496 11.003034
120.53678 30.999363 10.615697 11
120.50767 31.046865 11.71119 11.0945
120.48969 30.761608 12.596446 11.0945
120.5721 30.352264 13.474972 12
120.55169 30.548689 13.44738 12.004722
120.57577 30.958122 13.430659 12
120.55634 31.043312 13.842203 11.028
120.57961 30.397217 15.088517 11.0275
120.40494 30.87578 15.916363 12.0945
120.57347 30.364716 16.353643 13
120.66039 30.434208 16.274273 13
120.54362 30.773895 19.501942 14.0375
120.79709 31.151039 19.339476 12.025
120.76634 31.365421 19.456453 14.038
120.53176 30.663971 19.607044 14.0365
120.52073 31.21545 23.142052 13
120.71586 31.390461 23.239035 15
120.67599 31.692741 23.2306 15
120.54511 31.756758 24.246405 15
121.18956 31.924168 9.1328354 10
121.06245 32.266617 9.1143417 10
121.19318 32.149338 9.2696638 10
121.04111 32.49612 9.2496738 10
120.90488 30.987362 10.540294 11
121.17706 31.333204 10.700154 11.02125
121.16133 31.996969 12.720273 11
121.11324 32.350533 12.709121 11
121.09928 32.208469 12.937104 11
120.98701 32.560978 12.918682 11
120.98948 30.304482 13.273036 12
121.10737 30.435194 13.550369 12
121.1841 31.572813 13.742441 12
120.9553 30.560659 16.341896 13
121.11069 32.067665 16.334867 12
121.08723 30.579449 16.42371 13
121.13576 31.476521 16.895109 13
121.16553 30.246443 18.771881 12.0575
121.08124 30.575228 19.132977 12.571428
121.00156 30.862406 19.144732 14
121.07529 30.601189 19.2045 12
121.0108 31.017525 19.207605 14.043
120.82259 31.283022 19.210999 14.0775
121.06201 31.524908 20.08086 14
121.02112 31.975128 20.072845 14
121.12138 31.827034 21.020927 14.046
121.05108 31.791746 21.204897 14.092
120.82161 31.462265 22.454933 15.038
120.93259 31.372772 23.174768 13
120.82841 32.007355 23.274117 15
121.30829 31.268896 9.1210976 10.0785
121.32253 31.319242 10.667428 11
121.54288 31.715883 10.548122 11.0475
121.25304 31.700914 12.728657 11.0785
121.54893 31.161551 13.086967 11
121.41206 31.497345 13.057665 11
121.31928 30.650618 13.541765 12.01075
121.45567 31.147558 13.350108 12.0305
121.43034 31.478718 13.573066 12.04225
121.55576 30.650492 13.606033 12
121.29102 31.277876 13.761487 12
121.36903 30.710686 16.374416 13
121.56009 31.061251 16.119629 13
121.5489 31.347383 16.111174 13
121.41686 30.752073 16.462833 13
121.45161 30.930424 16.547689 12.5215
121.38017 31.41342 16.576851 12.51925
121.4319 31.645477 16.635309 12
121.38897 31.868116 17.142134 13.092
121.258 31.486595 17.8057 13.04575
121.45555 30.710562 18.120787 12.028999
121.46448 31.052103 18.011768 13
121.51256 31.405111 18.973127 14
121.50381 30.706755 19.221659 12
121.40759 30.832907 19.249733 12.5
121.3886 31.290396 19.448189 12.0255
121.46683 31.645609 19.346674 14.01925
121.3908 30.865419 19.748526 13.5655
121.29975 31.59668 19.604986 14.0375
121.44412 31.459129 20.262831 13
121.29037 31.922474 20.367168 14.092
121.25842 31.605436 20.811975 14.0915
121.48085 31.475145 21.228468 14
121.48486 31.330736 21.627714 15.0855
121.49648 31.032751 22.433777 13.048
121.44693 31.701773 22.472704 15.0385
121.33105 31.525322 23.194387 13
121.3493 31.559103 23.223854 13
121.72306 31.569189 10.728821 11
121.7282 30.568897 13.426427 12
121.73353 30.974054 13.453618 12
121.71416 31.417919 13.498103 12
121.92363 30.868061 13.615346 12
121.97887 31.623571 13.633499 12
121.64674 30.953808 14.868491 12
121.77136 30.626104 16.252077 13
121.70739 31.007679 16.223108 13
121.66742 31.40733 16.356989 13
121.9183 30.526592 16.539942 13.0425
121.7693 31.013607 16.457832 13.003727
121.73007 31.353672 16.445993 13.02075
121.74581 30.984814 19.072193 14
121.74669 31.289782 18.969021 14.040751
121.91011 30.607618 19.476091 14
121.79103 31.033979 19.35351 14
121.7553 31.369663 19.32197 13.842334
121.67635 31.653463 19.268805 14
121.87581 32.936142 19.385838 14.1445
121.86588 31.396173 21.965715 15.040751
121.76207 31.782192 21.703138 15.089
121.95401 31.472784 22.290642 15
121.91943 30.670839 22.65304 15.0385
121.67698 31.673399 22.649755 14.0315
121.75962 31.723639 23.235287 13
122.2231 31.849955 10.770887 11
122.16963 32.309414 11.801592 11.091
122.31225 32.738827 12.054792 11.0575
122.25369 32.392181 12.870308 11.083
122.15101 30.925522 13.579361 12
122.08053 31.70013 13.593793 12
122.22571 31.750309 13.668901 12
122.15804 32.352161 15.354825 12.091
122.2025 32.157207 15.887346 12.0895
122.12991 32.443405 16.36676 13.093
122.1796 31.776396 16.543972 13
122.06399 32.427616 17.087629 13.0925
122.21284 32.422623 18.959467 13.091
122.24095 32.228298 19.527163 13.0895
122.12704 32.512844 19.57045 14.093
122.38651 30.449354 22.398708 13.069
122.0272 31.422543 22.197029 14.354833
122.16444 31.235022 22.467731 13.063
122.26617 32.046082 22.614782 15.039
122.17747 31.864166 23.272581 13
122.76261 31.665234 10.798414 11
122.55121 31.857306 10.823193 11
122.70775 31.36866 13.45505 12
122.70814 31.833214 13.444773 12
122.58146 31.929441 13.701358 11.878563
122.57729 32.012646 13.683991 12.0225
122.57294 30.470514 15.213414 11.069
122.64331 31.180279 16.343998 13
122.64646 31.509476 16.322945 13
122.7018 31.90844 16.313251 13
122.68836 31.900043 16.58012 13
122.65281 32.056667 16.58482 13
122.44588 30.447454 18.780222 12.069
122.57343 31.457554 19.243696 14
122.71874 31.842276 19.239033 14
122.73258 32.136555 19.481453 14
122.76297 32.14872 19.612457 14
122.67664 32.087353 20.43124 13.093
122.62921 31.470179 22.231972 15
122.48608 31.73591 22.182568 15
122.74917 32.366753 23.164387 15.074
122.71448 32.672039 22.980158 15.093
122.58384 32.033829 23.303465 13
122.83266 31.853779 10.880119 11.01125
122.86974 31.566053 13.483144 12
122.88883 31.721384 13.465816 12
122.94384 32.209614 13.772475 12.021
123.07799 32.123936 14.116377 11.0455
122.9557 32.152988 14.57515 11.0285
122.93359 32.057163 15.106319 11
122.80222 31.876949 15.493458 11.0255
122.83471 31.705173 16.352261 13
122.84184 31.681103 16.577997 13
122.94648 32.165394 16.652637 13
123.13139 32.448292 16.654902 13.045
122.87363 31.893831 19.51273 13.6051
122.92886 32.11525 19.291811 12.5
122.873 31.858797 19.636044 14
122.90081 32.383938 19.855101 14.0385
122.94038 31.079382 22.730949 15
123.07116 31.312466 22.730373 15
123.01865 31.75227 22.697144 15
123.11861 32.168133 22.691023 15
122.98119 32.229336 23.347017 13
123.35961 32.415726 13.723001 12.046
123.48028 32.564682 16.641005 13.046
123.34015 31.957066 19.008099 12.0535
123.22803 33.344257 21.86245 15.105
123.41379 31.489275 22.775684 15
123.32217 31.838243 22.73468 15
123.46909 32.193432 22.747101 15.010625
123.27481 32.437717 22.712332 15
123.30685 31.369303 22.836813 15
123.36098 31.69047 22.843679 15.019751
123.43088 32.069698 22.811455 15
123.54156 32.47234 22.808292 15
123.36781 32.420597 23.371288 13
123.99574 32.325691 13.715547 12
123.64298 32.685978 16.815399 13.042
123.68918 32.801102 18.567942 14.0955
123.83557 32.149876 18.848835 13.077749
123.73431 32.294735 19.431805 12.027
123.71467 32.679508 19.794693 14.021
123.91313 32.902813 19.805843 14.041
123.68639 31.857243 22.74173 15
123.6088 32.329613 22.74299 15
123.69002 32.50272 22.731449 15
123.85797 32.554073 22.836662 14.013
123.9165 32.925694 22.847221 15.04125
123.70033 33.610378 22.935221 15.1445
123.78316 32.587566 23.40423 13
124.37315 32.844433 10.76908 11.0505
124.3252 32.608475 11.043553 11.0285
124.30195 32.759422 13.898293 12
124.0269 32.449612 16.638988 13
124.24486 32.865913 16.877834 13.0285
124.20335 32.663486 19.721731 14
124.26806 32.967152 19.903248 14.041833
124.18176 32.383938 22.248688 13.065
124.24469 32.870926 22.779085 15.046
124.33393 32.584549 22.944242 15.044
124.11201 33.040356 22.922695 15.040501
124.27318 33.409313 23.094494 15.078
124.21691 32.707134 23.445463 13.0285
124.64951 32.773472 22.678181 14.013
124.72482 31.906502 22.829292 15
124.67305 32.246998 22.899004 15
124.61337 32.59473 22.956926 15
124.67252 33.008083 22.948591 15
124.83453 33.7654 11.788655 11.0925
124.85801 33.095982 14.016253 12.0435
125.04032 33.234543 17.008665 13.0435
124.94814 31.947283 18.79211 12.062
125.18324 33.28904 20.005331 14
124.9365 33.072441 22.358992 13.030001
125.04683 34.058937 22.294052 15.1025
125.02086 32.97691 22.752956 14.027
125.33655 33.125607 11.180388 11.044
125.32355 33.342529 10.96242 11.048
125.30723 33.246899 14.11341 12.044
125.27461 33.000851 20.043547 14
125.41203 32.700405 20.439873 14.0385
125.31557 33.133354 22.210041 15.0955
125.48134 32.534531 22.420193 15.0995
125.33142 33.418945 23.105913 15
125.5986 33.879925 23.006453 15.048
125.63645 32.10461 -0.43396568 7
125.84421 32.238823 10.448916 10.049
125.8763 32.338188 14.537295 11.049
125.91664 34.128548 15.099436 12.0925
125.96114 33.245853 16.913773 13.0505
125.77358 34.293545 17.105818 12.079
125.8453 34.130432 18.318253 13.0925
125.98184 32.352936 18.684931 12.049
125.92381 33.377647 19.937826 14.0505
125.82048 32.826637 20.354645 14.0395
125.81547 33.386028 22.952003 14.376834
125.63365 33.395676 23.338886 13.029
125.92876 32.859703 23.735098 14
125.9434 33.207333 23.734514 14
126.23008 32.578747 11.464631 10.018666
126.23096 33.564674 12.281357 11
126.16779 33.722115 12.172894 11
126.24891 33.849518 12.402563 11.0925
126.22015 32.669796 15.535005 11.018666
126.33875 32.654076 15.795973 11
126.22371 31.303629 16.369675 11.067
126.00113 32.428284 19.28619 12.054
126.09692 32.857513 19.261194 12.029
126.0304 31.345848 19.974108 12
126.21867 32.754887 19.646734 12.018666
126.62106 31.024204 9.8919811 10.0655
126.50543 33.121338 11.02678 11
126.64001 33.423866 11.030485 11
126.57402 32.706261 11.490079 10
126.61935 33.371666 11.279558 11.04375
126.77988 32.685532 11.777392 10
126.49725 33.121365 14.008016 12
126.55531 32.829819 15.561769 11
126.58405 33.496174 17.307413 13.043
126.49591 33.735077 17.309536 13.04475
126.40731 30.646187 18.511024 12.065
126.57722 32.521019 19.179514 12.0565
126.42215 31.1661 19.748127 12.0285
126.42487 32.685791 19.896494 12
126.5824 32.890739 19.685823 12
126.50249 33.644741 20.346245 14.0435
126.4731 33.231407 20.60784 14.039
126.47096 33.679855 22.436956 13.0265
126.75035 33.5966 22.828218 13.0265
126.6553 33.614758 23.232422 14.027
127.12057 32.899162 11.782222 10
126.82809 33.919025 12.363503 11.0925
126.91455 34.013973 12.367291 11
127.08743 34.545456 12.284024 11
126.89808 33.067509 13.341998 11.047501
126.98096 32.70356 13.603131 11.0945
126.81194 32.760139 15.832143 11
127.1849 34.286846 15.848792 12
126.87958 31.273361 18.57358 12.029
126.85899 32.66851 18.698324 12.064
127.10341 34.167896 19.436983 13
127.02532 34.580185 19.430141 13
126.83017 32.87294 19.922802 12
127.08163 33.547909 19.648407 14.086
127.03175 32.85606 20.235807 14
126.9346 33.29554 20.177626 14
127.02804 33.93557 22.50753 13.0305
127.06639 34.119213 23.088381 13.03175
126.92795 33.434334 23.294907 15
126.83821 33.719547 23.26045 15
127.55652 33.972534 11.410019 11.0435
127.56049 33.060822 11.799892 10
127.26526 34.221127 12.309193 11
127.52828 31.96409 12.529725 10
127.32308 34.430176 13.479276 11.079
127.35709 34.226242 15.594296 12.0925
127.34254 33.031162 15.834506 11.01325
127.26638 33.87508 15.859948 12.030833
127.27442 34.121521 15.936183 12
127.58994 31.566133 16.37623 11
127.49679 31.918119 16.369612 11
127.43071 34.058998 16.243059 12.546249
127.26133 33.184994 17.173508 13
127.22353 34.295868 19.094381 13.0925
127.30585 33.199471 19.508083 14.0975
127.2626 33.014641 19.959465 12
127.47415 33.224419 19.896282 12.0265
127.56661 34.22821 19.717245 14
127.49463 33.50882 20.319632 14
127.5166 33.588646 20.598923 14.043
127.28017 33.648472 20.531733 14.042
127.38924 33.918495 22.638731 13.0465
127.3912 33.820545 22.949503 14.028
127.70933 31.441504 12.541793 10
127.79682 32.611225 14.229067 12
127.77876 33.035759 14.197491 12.03075
127.68427 33.208954 14.184155 12
127.62911 33.10775 15.875071 11
127.62779 33.425728 16.414831 13
127.728 33.764721 16.422625 13
127.91055 33.335651 17.010809 12.047501
127.78347 32.620049 17.30316 13
127.6847 33.078941 17.257582 13
127.72145 33.427822 17.319376 13.0105
127.68237 33.700851 17.22506 13
127.70367 34.302261 19.507303 13.095
127.64452 33.395149 19.864401 13
127.70227 33.941425 19.716223 13.01425
127.81622 34.086067 19.615427 12.029
127.7751 33.560867 20.360292 14
127.72367 33.714584 20.252045 14.027333
127.89639 33.373867 20.543507 13
127.8625 33.872925 20.661934 13.758357
127.97102 34.000744 20.677786 14.0415
127.86617 34.242302 22.76972 14.0285
127.8688 34.245972 23.094135 13.027
127.65761 34.289825 23.488533 13.0295
128.31973 35.013912 12.538938 11.0915
128.04001 33.531651 13.497381 11.095
128.29726 34.94598 14.871776 12.093
128.13594 34.694016 17.276802 13.054
128.36305 34.938034 17.327408 13.051
128.18958 35.007557 18.285007 13.093
128.11209 31.864325 19.864973 12.029
128.25044 35.085766 20.955095 14.0935
128.01385 33.39431 23.028349 15.0975
128.05171 34.463787 23.216066 15
128.55525 34.665226 14.158618 11.0535
128.61993 32.451439 16.543491 11
128.73006 32.142967 16.833752 11.069
128.99051 34.341969 10.071523 10.0935
128.89642 34.263927 11.44262 11
128.87416 34.560589 11.400167 11.0475
128.86513 34.369286 14.580504 12
128.95158 34.484188 14.528872 12.021999
128.91652 34.493076 15.800964 11.027
129.04906 30.219645 16.791996 11.179
128.98222 32.196396 17.057186 11.0015
128.88638 34.546127 17.529274 13
128.8203 34.605282 17.683838 13.021999
129.17448 34.743046 18.358713 12.03
129.01404 34.53648 19.91209 12.027
128.97408 34.385487 20.701399 14
128.95305 34.683849 20.685978 14
129.0174 34.328979 20.888136 14
128.9585 34.640278 20.881346 14.021749
129.09547 35.163059 23.121679 13.0345
129.28818 34.772488 22.647224 13.03
129.26924 34.862125 23.362295 13.03
129.62999 35.340618 19.839146 14.096
129.91045 35.066166 23.698441 13.03
130.01012 34.941097 19.785114 12.0295
130.19473 35.722073 21.219072 14.0785
130.17952 35.023075 23.156765 14.029
130.99155 34.350639 19.519691 12.0575
131.01695 34.795883 19.814077 12.03
131.37712 35.017769 19.829662 12.03
131.32884 35.947464 23.299738 13.035
131.82094 37.193649 10.205558 10.071
131.92545 36.621422 16.839912 12.093
132.10304 35.230423 11.925439 11.0435
132.14725 35.356712 15.120746 12.0435
132.29536 33.60125 17.097391 11.0795
132.37146 36.433601 17.147097 13.09
132.01511 35.635632 21.587006 14.0435
132.37192 36.219589 21.363287 14.058
132.18243 36.478348 23.77454 14.095
132.46661 35.345978 15.886969 11.0295
132.62811 35.987648 17.829245 12.0955
132.49146 35.048546 19.128679 12.0505
132.75763 35.527664 19.821148 12.028
132.62296 35.437927 20.235836 12.028749
132.94142 36.812202 14.914668 12.0515
132.81129 35.378227 20.147873 12.0295
133.51433 36.718212 11.76967 11.0515
133.4455 36.659042 13.021663 11.093
133.41826 36.876919 13.072244 11.092999
133.39301 36.835705 13.298163 11.093
133.24236 37.077179 19.455746 13.093
133.25739 37.143402 19.891146 13.093
133.97101 35.762852 12.104338 11
133.93399 36.22649 12.103329 11
133.86986 36.44239 12.082253 11
133.80136 34.134312 12.595516 10.136
133.97824 33.473885 13.26115 10.0795
133.94931 35.898228 15.356961 12
133.9771 36.128246 15.329982 12.015667
133.70264 36.15881 16.717182 12.095
133.98869 35.986286 18.635563 13
133.98143 36.165974 18.650446 13
133.88335 36.431839 18.621897 13
133.62929 36.357483 20.330421 13.094
133.78957 36.852268 20.954079 14.09
134.14482 35.446285 12.147887 11
134.05933 35.772564 12.113869 11
134.05774 36.042271 12.104908 11
134.09804 35.903267 14.122435 11.0955
134.04364 36.108982 14.313448 11.0955
134.11636 35.543446 15.386744 12
134.04045 35.681606 15.380734 12
134.0755 36.171001 15.351547 12
134.0798 35.813202 18.674406 13
134.02399 36.229614 18.624754 13.009399
134.04681 36.400879 18.648706 13
134.31049 37.77821 18.66049 13.094
134.03815 35.908062 20.399168 12.028
134.2177 36.65427 21.968622 14.042749
134.23488 36.472164 22.025476 14.01025
134.7861 34.862324 17.316053 11.0795
134.96498 37.035217 12.233631 11.045667
135.00317 37.24086 12.045212 11.049
135.08284 37.141834 13.407646 11.0955
134.89136 37.101414 15.532382 12.046
135.01735 37.274567 15.454069 12.046666
134.92316 37.525894 18.643784 13.049
134.94748 37.313923 18.840622 13.04525
135.60019 37.276237 19.189486 12.029
136.67828 37.913807 22.512583 14.0415
137.02423 37.882893 22.665947 14.0445
137.08972 38.175179 22.557468 14.0435
137.51717 39.00502 13.687762 11.093
137.24484 39.3862 21.80965 14.101
137.49704 38.444347 23.051903 14.094
137.99832 38.478355 22.216343 13.029
137.87816 37.710709 22.697666 14
137.84425 38.056496 22.679735 14
138.23363 37.812649 12.47126 11.014834
138.20836 37.864868 15.905651 12.0225
138.35333 37.949261 19.30266 13
138.22017 38.075348 19.405941 13.0445
138.3376 38.589722 22.920712 14.045
138.11407 38.288559 23.3591 13.094
139.52106 39.442802 22.943062 14.043
140.35849 39.985363 22.004433 13.0935
140.38896 39.612392 22.492054 13.093
140.53903 38.886494 22.404041 14.0985
140.69464 39.761269 23.212809 14.052
141.03191 38.782448 16.2959 11.03
141.04126 38.938614 19.781113 12.03
141.10042 38.917503 20.378189 12.03
140.87827 39.430088 22.441742 14.087
140.92828 39.324581 22.809778 14.083
140.92615 39.066597 23.279312 14.0585
140.95673 39.545902 23.240618 13.096
141.1342 38.962215 23.621305 13.095
141.23875 40.227608 13.827555 11.0935
141.29372 38.087738 23.39949 14.0515
141.53119 34.632999 25.977814 13.136
141.97081 39.346951 16.612291 11.03
141.97249 33.681438 26.082109 13.136
