# .PCD v0.7 - Point Cloud Data file format
VERSION 0.7
FIELDS x y z intensity
SIZE 4 4 4 4
TYPE F F F F
COUNT 1 1 1 1
WIDTH 1268
HEIGHT 1
VIEWPOINT 0 0 0 1 0 0 0
POINTS 1268
DATA ascii
37.136951 29.484793 3.3941433 12.0095
37.165192 5.053576 3.7331448 14.04775
37.180126 5.391293 3.8498907 14.518749
37.12616 6.1787453 3.8475206 14.03175
37.091164 6.6888337 3.8252773 15.047
37.069221 7.024096 3.6484308 15.047
37.010086 7.7739539 3.7554853 11.545455
37.038231 8.0040102 3.7138488 12
37.015934 8.5961113 3.8055942 12.424241
36.965755 8.9548006 3.8632076 11.521
36.904228 9.4392385 3.8638728 12.098416
36.842072 9.6877031 3.9202933 14.098249
36.861713 10.093383 3.9403763 13.129
36.931126 10.613212 3.887501 12.437333
36.943718 10.921604 3.8868587 12.44725
36.848995 11.395289 3.9772727 12.04925
37.011555 11.773325 3.9075174 11.637
36.849072 12.270869 3.9644346 12.024417
36.852894 12.629442 3.8423924 11.635
36.868809 13.014191 3.7694757 12.218631
36.921886 13.442543 3.802685 12.170733
36.981686 13.764261 3.7730157 12.111111
36.998734 14.207374 3.8282032 11.666953
37.092957 14.582502 3.8621635 12.348423
37.026844 15.009607 3.8736248 11.779334
37.042625 15.378225 3.9670088 12.735563
37.072018 15.792499 3.9565496 12.548849
37.04018 16.202841 3.9477808 13.108665
37.063622 16.535414 3.9156549 11.5463
37.012665 16.942701 3.9334245 12.48425
37.046051 17.410521 3.9331799 12.087075
37.081379 17.764193 3.9415174 12.7097
37.006878 18.16749 3.9410858 11.643179
37.032204 18.611855 3.9340203 11.77275
37.000324 19.067846 3.8851609 11.3068
37.073708 19.388325 3.8964062 10.949834
37.057995 19.837303 3.8257446 11.143
36.997616 20.282785 3.9201229 11.322375
37.074024 20.728062 3.8356233 10.374167
37.075584 20.923759 3.9550045 10.054
36.987534 21.437944 3.8013265 12.2366
36.940525 21.78125 3.7519102 12.309261
36.91864 22.153233 3.8061182 10.8
36.959705 22.584373 3.7302842 13.153846
36.944668 23.037592 3.7448106 13.642858
36.917843 23.346067 3.7398796 13.32474
36.90789 23.824163 3.7005978 13.833333
36.989681 24.060152 3.7476757 14.041201
36.867828 24.694962 3.8856895 15.105249
37.084225 25.076448 3.9228058 14.012
36.959385 25.411104 3.8512206 14.605625
36.899632 25.773672 3.7910843 14.857937
36.817623 26.210981 3.7538176 14.608376
36.904308 26.647682 3.7420342 14.406083
36.876343 27.01985 3.6284781 14
36.900017 27.250494 3.8487909 12.007
36.958836 28.084496 3.8894107 14.0075
37.036533 0.57211781 4.1549006 12.0725
37.077816 1.0421015 4.3134174 12.08
37.053993 1.4538285 4.3101058 12.0805
37.052021 2.1195703 4.0923972 12.0705
37.033993 2.6866291 4.1869335 12.066
37.038113 3.0759327 4.185894 12.0665
36.870457 7.5742455 4.1575518 12
36.950516 7.8388405 4.1218133 12.014783
36.984657 8.1636009 4.1339197 12.246029
36.993805 8.6043215 4.1709614 12.594382
36.931973 8.9977741 4.1184611 12.225144
36.907368 9.3821602 4.06003 12.449749
36.917282 9.7835789 4.1008282 12.248325
36.902855 10.188243 4.142858 12.388389
36.904572 10.616184 4.1592407 12.364385
36.907681 11.003822 4.1274238 12.515453
36.917725 11.357392 4.1610174 12.687125
36.864601 11.792686 4.1792026 12.811168
36.871895 12.201484 4.1051183 12.467605
36.872021 12.614109 4.0796628 12.482192
36.830883 12.912952 4.1609488 12
36.975533 13.518562 4.0918779 13.461455
37.0527 13.807236 4.1583428 13.146187
37.025322 14.208482 4.1094584 12.956395
37.037292 14.579579 4.1441226 13.094334
37.042492 15.017601 4.1422319 12.611879
37.042973 15.420083 4.1088095 13.172594
37.048538 15.819668 4.1748056 12.745954
37.034771 16.226263 4.1890335 12.617413
37.031921 16.632133 4.1977296 12.941172
37.029545 17.001842 4.1780829 12.816166
36.986694 17.437773 4.2146101 13.633648
36.995655 17.812023 4.1791668 13.322811
36.996204 18.187353 4.1739163 13.298757
36.982765 18.600483 4.166554 13.438526
36.97937 18.99995 4.1801758 13.375908
36.97776 19.36339 4.131608 13.01339
36.995159 19.768875 4.1645417 14.025749
36.944057 20.189018 4.1848407 13.591091
36.924606 20.608765 4.1729522 13.401812
36.94487 21.006807 4.1583228 13.766875
36.986149 21.413029 4.1242385 13.245801
36.91346 21.742716 4.1561761 13.142804
37.012341 22.112385 4.1403556 13.370833
37.005573 22.665722 4.1984739 14.235722
36.80867 22.811295 4.029458 15
36.963497 23.365334 4.0902829 14.08825
36.999702 23.80249 4.0902305 14.902749
36.880508 24.24761 4.0697455 14.554042
36.884109 24.604326 4.0838323 14.76525
36.853767 24.982983 4.1063437 14.4024
36.827915 25.374809 4.0774131 15
36.893948 25.841845 4.1605415 13.751875
36.830223 26.213623 4.0718894 14.702832
36.865253 26.642416 4.0905652 14.840667
36.83025 27.019278 4.0969701 14.688499
36.830868 27.356083 4.0979528 15
36.818878 27.7964 4.1218348 13.0105
36.882832 28.248066 4.1346469 14.0645
36.961952 7.8608561 4.4465966 13
36.929401 8.2776937 4.5752234 13.04225
37.045742 8.6519632 4.5709071 13.508551
37.064045 8.8595209 4.5721726 13.287625
37.001827 9.3280363 4.4368358 13.05375
36.955292 9.7019396 4.4200792 12.757333
36.99305 10.157482 4.5264153 13.056167
36.881775 10.635842 4.4977031 13.583563
37.008728 11.014187 4.5016766 13.90465
36.89476 11.415183 4.4515333 13.768167
36.992691 11.870752 4.5874658 13.818501
36.936195 12.223736 4.4992461 13.733167
37.09964 12.92693 4.5784106 14.078
37.054035 13.35651 4.5384979 14.4625
36.994072 13.783762 4.4546657 13.354667
36.833641 14.330988 4.6516948 13.5
37.021149 14.608223 4.504612 14.245335
37.080734 15.051334 4.4241281 14.058167
36.991066 15.370278 4.4849696 14.2565
36.964371 15.754002 4.4852204 14.401187
37.073219 16.252411 4.5059438 14.348
36.924896 16.7745 4.6721005 15
36.980278 17.157019 4.654809 15
36.973438 17.469681 4.5363998 13.296
36.84565 17.952824 4.4742279 13.548876
36.924931 18.250393 4.5012665 14.8062
37.02985 18.529015 4.5026536 13.388416
36.897015 18.920658 4.5398769 14.538
36.918381 19.439264 4.4878387 13.554188
36.978558 19.765488 4.5105405 14.052438
36.978748 20.203274 4.4879069 13.933357
36.933037 20.626345 4.4868197 14.505714
36.967896 21.043919 4.4837027 14.173938
36.979538 21.375706 4.4999666 14.879286
36.970543 21.783829 4.4651022 14.258249
37.145214 22.389095 4.4413753 11.507999
37.074123 22.590525 4.6149802 14.208501
37.106918 22.94796 4.6518211 13.0085
37.055721 23.373714 4.5203257 14.6795
37.011925 24.176632 4.5036654 14.5125
37.03381 24.492455 4.5563698 14.512
37.017899 25.086571 4.5204864 13.342834
36.962734 25.276279 4.6221042 14.0115
36.930817 25.790697 4.5651622 13.009001
36.944866 26.311239 4.747386 13.0095
36.94738 27.681797 4.5955095 13.008249
36.917858 28.983049 4.5986481 14.507999
37.014343 8.677331 4.97085 14.60455
37.046722 8.9758987 5.0814223 15
37.191769 10.079437 5.0513506 14.0735
37.180824 10.573813 4.964004 14.07425
37.107136 11.027193 5.0051694 14.574375
37.19577 11.368353 5.0935917 15.0745
37.148582 12.208864 4.9462695 14.57675
37.143299 12.502215 4.8989863 14.57725
37.125546 12.933991 4.8290401 14.578
36.851547 14.284115 4.9072742 11
36.800713 14.771534 5.0988669 11.0875
37.153751 19.405767 4.870306 11.006
37.197872 20.770485 4.8671808 15.013
37.132015 22.687801 4.8726096 14.011
36.920975 23.496368 5.0399122 14.01
36.927357 25.570669 4.9232192 15.012
36.85162 29.566254 4.8032551 14.0095
36.839127 22.779793 5.3997898 12.009
37.051697 22.983351 5.4652538 11.092251
37.126095 26.62958 5.5714536 11.093
37.078655 27.799391 5.4183822 11.0955
37.064774 28.932184 5.3928862 11.096
37.135151 17.416157 5.8906937 10.0745
37.189255 18.768982 5.7658992 10.072
37.129684 20.102901 5.6541877 10.0695
37.119202 21.016792 5.8672733 10.0785
36.92659 22.365507 5.7674413 11.09225
36.934578 22.580412 5.7137852 11.092
36.957272 23.059307 5.7166681 11.408668
37.095882 25.460499 5.606216 11.0925
36.960308 28.072124 5.8811131 11.095
36.928974 28.484718 5.6940379 10.0815
36.941826 29.220835 5.8910437 11.0955
37.129063 15.434718 6.1653118 11
37.126225 15.778991 6.1591072 11
37.117756 16.237873 6.1507325 11
37.084114 16.702255 6.140316 11
37.098362 17.110083 6.2660289 11.5445
37.05558 17.389843 6.1276126 11
37.035988 17.842257 6.1196594 11
37.060356 18.254732 6.2451897 11.54475
36.998962 18.655212 6.1061511 11
37.022465 18.971968 6.1890283 11.363334
37.026367 19.448313 6.1001129 11
37.022541 19.926365 6.2210126 11.54525
36.97086 20.237837 6.0875168 11
37.022385 20.671768 6.0512624 11.572001
36.972946 20.930672 6.2070303 11.5455
37.030556 21.461931 6.0568285 11.57225
36.965805 21.722111 6.1598611 11.363833
36.984158 22.185055 6.0754366 11
36.829739 22.492348 6.097497 11.547
36.890804 23.871317 6.0769401 12.146
37.029079 25.598869 6.0280828 11.0935
36.910194 26.107826 6.331419 12.094
36.910702 26.645912 6.1195698 11.594749
36.852886 27.004356 6.2703667 12.094749
36.818035 28.278078 6.2348981 12.0965
36.858807 28.803379 6.2355299 12.096
36.862209 29.445694 6.1536484 12.098499
37.058956 15.46747 6.4406195 11.0875
37.157246 16.292881 6.4196472 12.0885
37.051247 18.62047 6.7985888 13.1205
36.908005 21.251024 6.7078633 12.005
36.829609 22.238211 6.6718431 10.156834
36.819141 22.833908 6.6119332 13.009
37.003819 24.136835 6.7896714 13
36.816547 25.16291 6.7583208 13
36.964996 25.210943 6.7904344 15.0085
36.988312 25.716951 6.7643976 14.0065
36.862854 26.07081 6.6647725 12.5075
36.922009 27.838243 6.6582103 12.0075
36.8423 28.498903 6.6889105 15.0095
36.827297 29.860516 6.7001395 12.0075
37.093189 14.988334 6.8638477 13.1275
37.165089 15.407205 6.9216375 13.112
37.092667 15.728826 6.8595257 13.128
37.110607 16.157946 6.9023623 13.1125
37.094006 16.430445 6.8332334 13.123751
37.091747 17.031973 6.8615308 13.118626
37.038658 17.709286 6.938283 13.58925
37.069336 18.427021 6.81036 13.116
37.025848 19.138445 6.8726091 13.1145
37.098812 19.382698 6.8104792 13.121
37.026947 19.921165 6.8082523 13.117
37.068401 20.647739 6.8767419 13.56325
37.199127 21.06797 6.9042406 14.0085
36.982162 21.430553 6.8159375 13.118
36.972923 22.304022 6.861218 13.563125
36.868992 22.691214 7.1063285 12.122499
36.879414 22.815735 6.8681026 14.008249
36.964771 23.324598 7.0905495 13.573
37.164612 23.728682 7.0596848 14.007667
37.025089 24.277039 6.8414254 14.674
36.875824 24.895023 6.8419456 15.008
36.988464 25.805458 7.1580305 15.007167
37.015602 26.032389 6.9270897 13.008
36.961933 26.594526 7.1212192 15.008
36.946903 27.076784 6.9222765 14.50725
37.010712 27.324976 7.0029526 13.0075
36.93539 27.864538 6.9400277 14.007333
36.963276 28.700613 6.8708897 13.0065
36.914883 20.794119 7.5886641 10.1495
37.140514 21.757317 7.3417344 13.008
37.14735 22.423742 7.4589133 15.0075
37.135143 23.559294 7.3581958 15.007
37.082073 23.839113 7.4774504 13.008
37.015114 25.134399 7.5554118 15.0065
37.009499 25.770155 7.5414839 14.00725
37.068737 26.039694 7.5892482 14.007
36.9319 26.699854 7.2969961 14.0065
36.999783 27.055038 7.3305426 12.1055
36.977673 27.236391 7.3398037 13.008
36.899155 27.882847 7.352283 13.706333
36.875519 28.650364 7.4215178 14.040668
36.821804 29.523903 7.3921471 14.007999
37.185707 19.234407 7.6330442 13.006
36.989498 21.370279 7.790894 13.0065
37.077072 21.623306 7.6335807 12.003
37.095943 22.353502 7.6370206 13.0075
37.036694 22.487228 7.8259783 13.007
37.147099 23.397562 7.7862635 14.00425
37.036713 24.554279 7.859509 14.338333
37.080585 25.24493 7.7655015 14.0075
36.912704 27.463425 7.8213153 14.004666
36.878605 27.718596 7.666656 15.0065
36.953148 14.770884 8.1206455 12.178
36.957565 15.546711 8.1197834 12.1785
36.932003 16.307016 8.1156387 12.179
36.936707 17.072533 8.1190853 12.1795
36.876881 17.83021 8.112916 12
36.866833 18.594164 8.1179037 12.0005
37.118988 18.854805 8.2470388 13.50625
36.879372 19.343657 8.128911 12.001
36.854706 20.107887 8.135457 12.0015
36.84026 20.873306 8.1459923 12.002
36.901741 21.275694 8.2243299 13.005
37.150635 22.251707 8.2192116 14.0085
37.160324 23.783052 8.2355957 15.0075
37.108013 24.098915 8.3925095 14.0085
36.835938 26.556808 8.3389616 13.5075
36.91217 27.26128 8.0577564 15.006
36.949238 27.601934 8.3588934 14.0075
36.842602 29.203281 8.2475004 14.0065
37.154209 16.224985 8.7501211 14.0055
37.184387 19.783129 8.5514612 13.0035
37.095253 21.56337 8.6089315 15.009
37.075413 22.031075 8.7386551 14.008
37.176914 22.942081 8.4091263 15.008
36.895706 26.845135 8.5062704 15.0065
36.920036 27.479712 8.7630463 14.008
37.111916 18.909204 8.9831104 14.006
37.067215 21.88529 8.9432631 14.0075
36.995956 22.024185 9.1794195 14.007
37.104305 23.38695 8.8942451 15.0085
37.001244 23.808496 9.1013288 14.002
36.96999 24.083096 8.9794378 13.505751
37.014011 24.705023 9.0798693 15.004
37.043255 25.400415 9.0092268 15.0075
36.91494 26.627741 8.9306145 15.007
36.817253 27.409649 9.0863714 15
36.919029 27.75832 9.1450682 14.008
37.025143 19.965876 9.4922237 14.005
36.971199 21.454622 9.2564621 14.0065
37.045097 21.83131 9.3632393 13.003
37.115265 22.375685 9.5436668 15.0085
36.83802 29.254704 9.5655794 15.0065
37.189507 17.47032 9.7887115 15.007
37.036098 18.912827 9.6548586 14.50625
36.955582 21.596041 9.7123833 15.0085
36.916084 23.329813 9.8622332 14.0055
37.077717 24.217838 9.7428112 15.0085
36.864159 26.658794 9.6820459 15.008
36.928509 27.715754 9.7134638 15.0075
37.131863 16.320295 10.142752 15.0055
37.107311 20.178827 10.232571 14.0035
37.034866 22.092424 10.260637 15.00775
37.003078 24.154268 10.321095 15.008
36.901108 27.557169 10.183208 15.008
37.132812 18.642984 10.777605 14.0035
37.093861 18.994459 10.424185 15.006
36.924744 21.668962 10.780316 15.0065
36.959835 22.191769 10.670045 15.007
36.876717 27.937008 10.64261 15.008
37.122437 18.255884 11.018098 15.0045
36.957371 20.28145 11.072759 15.005
37.149799 24.086454 15.479911 15.1745
36.95155 22.062265 16.951063 15.0035
37.463322 15.277676 -2.9346139 7
37.454807 14.531479 -2.5261223 7
37.474644 15.39594 -2.4809072 7
37.53817 15.628535 -2.4944074 7
37.485958 14.516922 -2.3946631 7
37.538307 15.000673 -2.2166901 7
37.527046 15.476222 -2.1847098 7
37.476353 15.848629 -2.2210846 7
37.502518 16.08534 -2.1909316 7
37.52483 21.77854 -2.0960217 5
37.326878 22.720629 -2.0197732 4
37.5984 22.830402 -2.0169163 4
37.301266 14.65581 -1.6697434 3
37.303173 15.012342 -1.6994886 3.5
37.27055 15.425046 -1.6937473 4
37.273594 15.850412 -1.7756175 5
37.248081 16.15596 -1.6979423 5
37.346382 16.945204 -1.7777168 2
37.434216 17.35803 -1.7875559 2
37.490368 17.776449 -1.7956395 2
37.525936 18.159544 -1.803408 2
37.450645 18.645613 -1.838436 3.6666667
37.433804 19.052633 -1.8491234 3.6666667
37.40731 19.45825 -1.8617781 3.5
37.44389 19.799076 -1.8575106 2.5
37.409359 20.130974 -1.8879759 4
37.395748 20.622301 -1.8961525 3
37.415062 20.956926 -1.9044843 2.625
37.407623 21.390297 -1.920197 3
37.306923 21.839369 -1.938113 3.4000001
37.408035 22.156212 -1.9469061 2.625
37.34301 22.649578 -1.8316118 1.8461539
37.214844 22.885744 -1.7832887 4.5
37.440472 24.599905 -1.6823446 5.3333335
37.342304 24.897512 -1.7728144 3.5
37.402596 25.558561 -1.6843039 3.5
37.420258 25.778374 -1.6912415 3
37.323643 26.263559 -1.7252564 3
37.417721 26.434656 -1.7468998 2
37.587337 27.049273 -1.773162 3
37.479698 27.441252 -1.6972371 3
37.339966 27.733236 -1.6877916 3
37.465263 29.680387 -1.6586044 4
37.332584 7.1423068 -1.2313664 4
37.472233 9.1816244 -1.3363605 3
37.317692 9.4467487 -1.3671186 3
37.559429 9.6640816 -1.3803241 3
37.355598 10.928101 -1.4084357 2
37.303955 14.542844 -1.3506719 3
37.480095 14.897347 -1.4610221 4
37.50705 15.349424 -1.4210634 5.4000001
37.395424 15.79968 -1.4007018 5
37.443264 16.244381 -1.3519536 5.4444447
37.523697 16.437096 -1.5638508 4
37.242111 22.098425 -1.2865021 7
37.389584 22.710808 -1.4313611 2.8333335
37.371952 22.967434 -1.3955675 4
37.463737 23.415527 -1.2509736 1.0952381
37.362568 23.822472 -1.3188425 4
37.239536 24.230146 -1.2773051 4.5
37.421375 24.575809 -1.3373824 3.6666667
37.417019 24.916727 -1.3163899 4.5999999
37.304882 25.393082 -1.3891085 4
37.452457 25.803669 -1.4094808 3.7833335
37.394966 26.115252 -1.4970231 3.5
37.417358 27.781128 -1.4253654 4
37.536575 0.12729274 -0.89355683 4
37.312771 4.0820355 -0.82115448 3
37.445309 4.9974661 -0.81346238 3
37.261143 5.2198977 -0.88673669 3
37.248241 5.6823902 -0.95189154 3
37.585781 6.9936256 -1.153621 4
37.565628 9.7796993 -0.96358055 4
37.572914 10.904542 -1.0173482 3
37.44445 13.805438 -0.87219858 3.3611114
37.480042 14.232038 -0.9192338 3.4285715
37.367279 14.577842 -0.94315338 3.2904038
37.440613 15.027694 -0.93694556 4.2307692
37.44989 15.406711 -0.92992401 4.2051282
37.379692 15.789516 -0.91946924 3.4206347
37.366718 16.145134 -0.94619662 4.2592592
37.421459 16.55875 -0.95567608 4.3333335
37.569332 16.823545 -0.83997262 4
37.452911 18.346436 -0.80003458 1
37.413441 19.46398 -0.8308093 4.5
37.424511 19.772139 -0.87260187 4.25
37.276894 20.365747 -1.0107758 4
37.399258 20.482473 -0.84021634 5
37.567028 21.293484 -0.89858121 2
37.409801 21.762215 -0.92500395 1.6666666
37.365299 22.139311 -0.90405983 3.8186002
37.274216 23.420286 -0.99932426 3
37.333107 23.941292 -1.0143481 4
37.456207 24.226711 -0.91786158 4
37.431435 24.569689 -0.94965535 4.7142859
37.389927 24.927183 -1.0247051 4.25
37.514526 25.438896 -0.99669027 5
37.443634 25.774986 -1.0044374 5
37.424278 26.110889 -0.9691757 4.0999999
37.409954 26.586569 -0.94913644 3.75
37.447048 26.911779 -0.92452592 1
37.423073 27.842373 -0.95480907 3
37.323917 28.464445 -1.0177878 3
37.577209 29.666794 -0.90315849 1
37.506248 0.20815481 -0.4520511 4.75
37.473988 0.59738106 -0.58834916 4
37.433243 1.8689284 -0.57534546 4.5
37.403336 2.2576954 -0.47113854 5.3333335
37.392807 2.6553683 -0.55889988 4.6666665
37.462261 3.0973518 -0.58675766 4
37.360283 3.3849516 -0.5451867 4
37.436832 3.7928567 -0.53199422 4.3333335
37.340034 4.2513719 -0.60984451 4.090909
37.371723 4.6499515 -0.53873277 4.3809524
37.304573 4.954679 -0.60377455 4.5
37.24744 5.3438516 -0.51707637 5
37.241886 5.7609377 -0.53090876 4.7142859
37.225372 6.2313714 -0.51738375 5.4000001
37.202297 6.5380101 -0.68586892 4
37.4147 7.0486746 -0.69284773 4.818182
37.555462 7.3164892 -0.59747624 5
37.434914 13.57449 -0.40212429 6
37.431942 13.812912 -0.58290702 4.7333331
37.451176 14.231778 -0.56883192 4.6486845
37.386517 14.547819 -0.59596419 4.2923894
37.448429 14.963536 -0.68525583 4.6666665
37.476341 15.375135 -0.73132795 4.625
37.36301 15.744219 -0.70264798 4.25
37.351036 16.238029 -0.667624 2
37.383587 16.577248 -0.67812139 2.5
37.512955 16.909109 -0.6902886 3.5
37.495434 17.376728 -0.71229577 2.5
37.389389 17.756247 -0.71807122 3
37.380024 18.262646 -0.75597155 1.3333334
37.345219 18.423262 -0.73216534 5
37.37019 18.901663 -0.73607248 5
37.30106 19.37019 -0.73505539 5
37.236607 19.84157 -0.73532486 5
37.301903 22.180321 -0.58490258 4.3147306
37.436806 23.175997 -0.41380548 0
37.318443 23.389055 -0.49946645 2.5
37.248341 23.852201 -0.60277218 4.75
37.501663 24.141853 -0.42003512 1
37.50499 24.70714 -0.73898035 5
37.317673 25.048613 -0.67756617 6
37.50774 25.489367 -0.54592133 6.8000002
37.431667 25.825781 -0.60317749 6.6904836
37.408638 26.067566 -0.56312132 7.3449168
37.385448 26.568693 -0.62208939 7.3569999
37.355354 26.980541 -0.66329074 5.5
37.328083 27.393034 -0.54210746 5.5
37.458565 27.702665 -0.65136951 4.3568335
37.462372 28.211891 -0.55257457 4
37.289669 28.617401 -0.52446967 4
37.366951 29.182222 -0.79475766 1
37.544571 29.465702 -0.49399427 4
37.494495 0.18235864 -0.17717864 5.5462966
37.481354 0.58954459 -0.14216003 5.7666669
37.476006 0.96467686 -0.16139328 5.7575755
37.449306 1.410081 -0.11685517 5.9666662
37.436157 1.8058869 -0.15198113 5.7371793
37.396774 2.1646364 -0.09031821 5.8460312
37.378277 2.5938451 -0.12637725 5.7510414
37.360363 2.9970007 -0.17090428 5.6379633
37.333759 3.4039006 -0.15414424 5.7634921
37.336128 3.7916126 -0.16299741 5.7800002
37.30117 4.1915922 -0.17021275 5.7333336
37.281044 4.6025949 -0.18171412 5.7728071
37.268021 4.9443536 -0.19844134 5.6833334
37.263763 5.3925495 -0.23375101 5.595614
37.232254 5.7755847 -0.19307134 5.8047619
37.212112 6.1267772 -0.15437479 5.9333334
37.217812 6.508255 -0.19598559 6
37.251457 6.9487791 -0.24563998 5.833333
37.220818 7.6389661 -0.0040509962 6
37.514397 9.934269 -0.27851683 2
37.414074 11.17107 -0.38964972 1
37.353401 13.532733 -0.21100354 5
37.440464 13.798684 -0.21007764 5.9486723
37.429676 14.209023 -0.14561638 5.4009805
37.345654 14.558969 -0.20551248 6.2174125
37.595608 15.470573 -0.35997257 5
37.265369 21.809587 -0.12893644 6
37.314247 22.274128 -0.15879212 3.2291667
37.387211 22.523491 -0.18264158 1.3013889
37.384731 22.948338 -0.22037297 0.97660714
37.368481 23.434 -0.22771071 1.9784249
37.333218 23.780361 -0.20820405 2.7387164
37.404922 24.319508 -0.30277896 1.9444445
37.400066 24.466776 -0.14351277 3
37.321339 25.115139 -0.32556769 7
37.356262 25.441923 -0.27460578 6.6517501
37.409153 25.807281 -0.11179296 7.8581166
37.304573 26.116158 -0.1774981 8.1292505
37.436848 27.488617 -0.11045182 8.1545
37.239544 27.918165 -0.35620815 8.0965004
37.487247 29.846889 -0.14458509 8.1140003
37.482563 0.18454666 0.20916758 6.5714288
37.45927 0.61263037 0.25386938 6.724638
37.440651 1.011395 0.1820848 6.4637675
37.41774 1.4256792 0.18616219 6.5131578
37.410946 1.7677126 0.23760907 6.75
37.382442 2.1761184 0.2553322 6.8235292
37.367069 2.5910034 0.24589637 6.8088236
37.340298 3.0487556 0.29288468 7
37.318214 3.4362905 0.27961996 6.9333334
37.311718 3.8242805 0.25064507 7
37.289829 4.1808763 0.2442684 7
37.280743 4.5942945 0.2198869 6.9473686
37.256119 5.004714 0.20766771 7
37.240265 5.42625 0.20258109 7
37.230209 5.804523 0.19438998 7
37.206169 6.0912857 0.20862532 7
37.211006 6.5387359 0.14623599 7
37.589622 6.8208523 0.36534658 6
37.55233 7.5358639 0.31965926 6
37.207596 7.7914348 0.26850128 7
37.373154 8.2932768 0.33896491 6
37.472141 8.4643469 0.21906273 4.5714288
37.213051 10.842263 0.24131045 5
37.414047 13.560382 0.18882544 5.9499998
37.410152 13.80959 0.1673803 6.8823528
37.379677 14.246937 0.26428998 5.2898302
37.357544 14.563589 0.2396037 7.7313251
37.595001 15.424353 0.03189379 6
37.562912 15.669701 0.19499137 6
37.312595 22.301001 0.17386428 4.6882353
37.357502 22.47324 0.19331968 3.2803571
37.393421 23.022989 0.2065759 5.4724855
37.339615 23.36158 0.19406511 6.539104
37.307793 23.789143 0.21262634 5.5094762
37.311325 24.143957 0.19410802 8.2020416
37.451725 24.721214 0.10745084 4.6666665
37.542038 25.032322 0.13091032 6.7108331
37.527103 25.418116 0.14566164 7.9452777
37.40419 25.866524 0.14544357 8.9166908
37.403027 26.086336 0.23258212 8.9770899
37.403946 26.403561 0.29945457 8.0719995
37.590458 27.0159 0.12346806 5
37.5369 27.503191 0.36157843 8.0094995
37.483547 0.18850107 0.62486625 7.951067
37.465313 0.59768671 0.62581843 7.9473433
37.443016 1.0051303 0.61876333 8.0062342
37.421139 1.3928369 0.62202257 8.0043211
37.405537 1.7967722 0.6128242 8
37.385559 2.2179644 0.62788612 8.0067644
37.367882 2.6015582 0.62895012 8.0032492
37.344425 3.0113306 0.62578809 8.015583
37.32304 3.4147787 0.63035464 8.0212622
37.312286 3.8215578 0.62563765 8.011569
37.287136 4.2254143 0.6508351 8.0570955
37.274944 4.6345673 0.60710001 8.1440868
37.263966 4.9877348 0.64506251 8.2401133
37.253284 5.4082508 0.59467363 8.0948849
37.232101 5.7826781 0.57394493 8.1234245
37.220009 6.0738401 0.59184921 8.1708565
37.296318 6.517087 0.52661562 7.5
37.520912 7.3256187 0.45604438 6
37.255898 7.8671174 0.53715974 8
37.421917 8.2079668 0.48796961 6
37.44392 8.4822502 0.63507581 5.5
37.592384 10.559725 0.76456451 9.0705004
37.340469 13.506519 0.62464821 6.0500002
37.392357 13.801894 0.59005159 7.7146235
37.367462 14.242224 0.62392193 7.1241112
37.358871 14.539791 0.63597643 8.6281967
37.21941 21.524092 0.72443646 8.1079998
37.204399 21.74597 0.64780366 7.553
37.345772 22.292215 0.55588156 7.0839233
37.337097 22.483688 0.58891296 6.09375
37.382008 23.030897 0.57422864 8.4164858
37.359406 23.374121 0.6059916 9.4606504
37.311432 23.764647 0.56806421 7.7224946
37.447403 24.24659 0.76311088 7.2672501
37.584282 24.7453 0.44639489 7
37.56686 24.963743 0.58711016 7.3560004
37.474281 25.470764 0.61282516 7.7667699
37.429565 25.86702 0.55480903 8.676218
37.45319 26.131548 0.66207922 9.9230471
37.540009 27.417828 0.42468813 8.0059996
37.31332 29.792183 0.66319197 9.7758331
37.486137 0.17234559 0.98915923 8.9322071
37.4547 0.61480767 1.0032578 9.2027502
37.435169 1.0203556 1.0109711 9.2730188
37.413464 1.4122835 1.0163759 9.3730736
37.397755 1.7901092 0.97223634 9.1778688
37.37661 2.201447 0.99924058 9.2032328
37.359768 2.6188967 1.0092354 9.1648684
37.33157 3.003068 1.0184436 9.274538
37.323933 3.3905995 0.97612822 9.0141106
37.296379 3.8061857 0.98132282 8.8989992
37.27858 4.2449698 0.98844153 9.1485395
37.262856 4.6756058 1.0553362 9.4348106
37.252205 4.969429 1.027586 9.512166
37.251915 5.4595337 0.89180833 9.1521111
37.217911 5.7997074 0.88800406 9.2428341
37.212009 6.2718692 0.87988454 8.7686253
37.522808 7.1275635 1.1796827 7
37.490211 7.2139759 1.1714829 7
37.266293 7.882719 1.038088 8
37.300266 8.2847948 1.0989767 7.3515835
37.382675 8.4597425 1.0454845 6.5333333
37.475067 10.319592 1.0680574 10.0475
37.537971 10.443096 1.0065907 10.046332
37.290737 13.491577 1.0002505 7.1554747
37.382496 13.813943 1.0110774 9.4140882
37.364174 14.252776 1.0031688 8.8571234
37.346214 14.542693 1.0482148 9.9149017
37.265896 21.485754 1.0351541 8.0532494
37.221111 21.75205 1.1817086 8
37.292034 22.257742 0.95100862 8.0196657
37.340752 22.509834 0.97411132 8.973217
37.408772 22.998177 0.95279664 9.7906246
37.378635 23.425625 0.93913555 9.0412483
37.340778 23.774815 0.98011917 9.3060503
37.516415 24.332588 0.80861545 7
37.360775 24.719761 1.0038701 8.1193323
37.435791 25.072617 1.1197885 8.1022081
37.431583 25.532104 0.86455625 8.1921453
37.405746 25.741583 1.0068262 9.5688858
37.395809 26.1052 0.96494967 10.07575
37.581394 26.877253 1.0174429 9.1265001
37.290565 29.995264 0.86480016 10.113
37.474758 0.20149556 1.3825297 10.310333
37.436592 0.63927859 1.4654211 10.721947
37.421677 0.99658304 1.4864216 11.004067
37.414238 1.3590335 1.455386 10.718941
37.375427 1.7910736 1.4625232 10.733334
37.361744 2.2498031 1.4303573 10.65819
37.34222 2.6301184 1.4503644 10.460208
37.319328 3.0024223 1.4313986 10.480571
37.302174 3.4093981 1.4134835 10.234921
37.28603 3.8292871 1.375903 10.164
37.278809 4.2063937 1.4108402 10.313499
37.257275 4.6231675 1.3820336 10.135663
37.238972 5.0117664 1.3521488 10.164001
37.233086 5.3517871 1.3789465 10.160143
37.213192 5.7116828 1.3838114 10.75425
37.230217 6.0872564 1.3705914 9.5375004
37.216675 7.8457513 1.4779063 8.7226667
37.382057 8.3280315 1.2715502 7
37.419922 8.507103 1.3772106 7.2222223
37.547581 10.722115 1.5293754 11.64
37.321354 13.462597 1.3383713 8.125
37.380592 13.801647 1.4252143 10.501429
37.349232 14.251621 1.3912421 10.797675
37.340279 14.560413 1.438585 11.471036
37.259953 21.791656 1.3540797 8.0024996
37.279732 22.263615 1.3913468 9.1061249
37.336544 22.532993 1.4026798 11.959418
37.414017 22.97769 1.3796353 12.536881
37.403339 23.458977 1.4068325 10.708246
37.320721 23.788031 1.39835 10.716812
37.536442 24.268812 1.3573356 8.4054995
37.549042 24.40661 1.5949656 9.1315002
37.443726 24.983686 1.3954368 8.5372229
37.407593 25.483395 1.2402967 9.1077499
37.357094 26.691523 1.5839449 15.14
37.532257 26.857609 1.5970094 14.121
37.340294 27.561647 1.5842661 12.28625
37.4231 27.752674 1.4304663 12.390602
37.209831 28.022488 1.304298 12.1165
37.481785 29.543894 1.4322559 10.16275
37.505985 29.929861 1.2709926 8.1324997
37.466457 0.23352563 1.8141619 11.609274
37.44392 0.63694072 1.8254273 11.564672
37.420399 0.99389309 1.8437527 12.245734
37.406055 1.392745 1.8363367 12.049767
37.385254 1.7704788 1.8521705 12.1995
37.362537 2.1911752 1.8165865 12.087953
37.351627 2.5985079 1.8209337 11.989958
37.322411 3.0036411 1.8431664 11.834089
37.299564 3.4278259 1.8088157 11.889721
37.285461 3.8255007 1.7699558 11.334018
37.266479 4.2069869 1.7935066 11.285346
37.254436 4.5980582 1.7980796 11.535184
37.234501 4.985024 1.8137693 11.5055
37.223965 5.3832126 1.8307822 12.1995
37.214031 5.6938572 1.7327616 11.314115
37.214249 6.1382709 1.6937279 11.0605
37.265652 7.8582487 1.7106361 9
37.299469 8.0519533 1.656965 9
37.42548 8.508132 1.8068484 8.1785717
37.541855 10.554056 1.7071706 11.062
37.344307 13.495308 1.7668266 9.2200003
37.353107 13.795729 1.7763675 11.568077
37.365456 14.228974 1.7637482 11.435011
37.343323 14.528073 1.8156077 11.386041
37.266987 22.274179 1.8224413 10.250273
37.328552 22.551046 1.7578359 13.301881
37.390244 22.985807 1.8085412 14.581493
37.44096 23.459211 1.7699655 13.476543
37.321182 23.821125 1.7847853 12.214411
37.519836 25.010283 1.6238474 9.1293325
37.390591 26.259012 1.9230781 10.091
37.523994 26.570581 1.688527 12.14275
37.385605 27.083281 1.7600813 10.078
37.423244 27.5019 1.86303 12.254975
37.461075 27.728907 1.7788801 12.980925
37.436119 28.131651 1.8458567 12.709001
37.280609 29.902212 1.9370662 10.617001
37.452744 0.18753912 2.2351112 12.898175
37.426773 0.60280752 2.2535539 13.110593
37.413094 0.99954915 2.1864064 13.384515
37.392044 1.3515152 2.2515111 13.499063
37.371418 1.8267907 2.1947505 13.253834
37.351124 2.2509468 2.2248969 12.994452
37.329327 2.6348293 2.1927249 12.9398
37.312164 3.0689135 2.2380981 13.04152
37.286217 3.4957635 2.1956439 12.726228
37.275372 3.7784739 2.1702058 12.594185
37.258659 4.1535645 2.2111187 12.235569
37.251549 4.5556445 2.1741269 12.415325
37.223202 5.0003552 2.2226193 12.858906
37.211636 5.4727149 2.1817815 14
37.289795 7.8810444 2.3169026 10
37.259712 8.0555029 2.2986121 10
37.418343 8.5266809 2.2160532 9.2631578
37.342079 13.484391 2.2730379 10.341833
37.356243 13.794147 2.1684518 10.77879
37.333275 14.248254 2.1655204 12.16817
37.330101 14.539445 2.1968498 12.228945
37.398941 14.804113 2.2706816 11
37.222145 21.554098 2.3302236 9.1079998
37.299183 21.78898 2.0099156 9.0024996
37.27821 22.289093 2.1739738 11.022454
37.35313 22.549084 2.1450708 12.968375
37.422741 23.014759 2.2690296 14.7535
37.396854 23.445597 2.2356052 14.818001
37.325623 23.831139 2.157882 13.883166
37.221142 24.012373 2.2660129 11
37.51263 24.434055 2.1967154 12.728084
37.50399 25.003897 2.2678277 11.546
37.532536 25.472038 2.3078787 12.449
37.403748 25.725155 2.2932441 11.750333
37.201149 26.389101 2.3822172 10.1095
37.505554 26.530651 2.1573198 10.560125
37.468979 27.051033 2.171247 11.463531
37.359989 27.378683 2.1341801 13.561116
37.446159 27.680521 2.0692334 14.06855
37.479397 29.043238 2.0024121 9.0874996
37.435787 0.26247877 2.6160386 14.730928
37.423466 0.62858349 2.614192 14.759937
37.394405 1.0540054 2.5898259 14.673499
37.367149 1.4151956 2.6034083 14.857142
37.355976 1.7694023 2.6404393 14.40565
37.33802 2.2216356 2.6742175 14.503157
37.319263 2.6014392 2.6429353 13.887594
37.302307 3.0097873 2.6052375 14.014874
37.277287 3.4395747 2.5902212 13.785884
37.268703 3.7589431 2.579711 13.170166
37.254826 4.2533016 2.5497706 13.4048
37.24572 4.5632849 2.6774883 14.47343
37.234074 4.9791751 2.5766749 13.364001
37.202229 5.5364604 2.4576621 14.01175
37.209278 5.9016843 2.5541751 12.539499
37.412605 7.905087 2.6398542 10.046
37.417458 8.5541458 2.6559145 10.04272
37.304405 13.469043 2.5801811 11.4
37.341511 13.803228 2.6026437 11.771947
37.263317 14.283098 2.5679309 11.837317
37.361671 14.536283 2.5893655 12.831391
37.201088 15.28868 2.4465716 10.1065
37.260223 22.325634 2.597033 12.423273
37.32605 22.489586 2.5639722 12.21269
37.246746 23.302797 2.5576775 11
37.212349 24.027687 2.7380855 12
37.433651 24.676638 2.5205622 12.458324
37.562027 24.938389 2.6226449 13.367333
37.525265 25.403044 2.4455924 12.598499
37.200062 25.757822 2.6863754 13.00775
37.443729 26.044319 2.7023008 11.690834
37.47963 26.665895 2.5879912 11.184001
37.367371 27.00853 2.5857196 12.765751
37.413731 27.370064 2.4491012 12.88965
37.40382 27.631933 2.6669023 11.415833
37.356541 28.209661 2.654232 10.748166
37.275517 28.774601 2.7903144 11.067
37.284863 29.575022 2.6744795 11.1465
37.419842 29.770058 2.6675828 11.319324
37.441017 0.23149846 2.8831627 15.037875
37.417397 0.55332971 2.9610426 11
37.413654 1.0377066 3.0075767 14.53575
37.404697 1.3405331 2.9623628 15.050084
37.366425 1.8379816 2.8847234 15.030875
37.342396 2.2093744 3.0320904 14.818899
37.318581 2.6221471 2.9464321 15.007688
37.296612 3.0454814 3.0015593 14.740955
37.280914 3.4186373 2.9581158 13.790333
37.257889 3.8661485 2.9235697 14.028343
37.267147 4.2045441 2.9825451 14.339833
37.232563 4.4906816 2.8755217 14.283999
37.296097 7.8502049 3.0458179 11.76175
37.237572 8.0439606 2.9449451 11
37.4338 8.5624666 3.0556054 11
37.582993 10.214841 2.8218937 10
37.360138 13.519752 3.0020881 11.743891
37.385849 13.754145 3.019098 11.297115
37.30888 14.261316 2.9754212 12.505626
37.356892 14.535159 2.9981987 12.693172
37.209526 15.002179 3.1297245 14.0395
37.581619 19.213352 3.1266546 14
37.559872 19.736488 3.1166468 14
37.537498 20.222654 3.110734 14
37.509796 20.754622 3.1075776 14
37.526524 21.00041 3.0815816 14.2397
37.368999 21.441111 3.0171704 12.75
37.589569 21.805775 2.9814734 15.09525
37.307426 22.278015 3.0116374 13.438289
37.38168 22.470654 3.0164893 13.356396
37.389736 23.118002 2.9740758 14.009792
37.385468 23.436241 2.9160199 13.004167
37.580574 23.681047 2.8775942 13.012
37.527863 24.22258 2.9663126 13.437001
37.523857 24.584461 2.957063 13.5055
37.431007 24.956547 3.0288293 13.50375
37.466518 25.445173 2.9942961 13.468979
37.417278 25.823904 2.8926685 13.065792
37.411427 26.223783 2.9680319 13.06295
37.410164 26.635994 3.0123441 13.754561
37.357845 26.918564 2.9808922 14.150727
37.346619 27.371538 2.9465556 13.599874
37.344433 27.862724 2.9536178 14.860187
37.308876 28.236774 2.9542892 14.777667
37.306076 28.649168 2.9708819 15.113334
37.325256 29.103081 2.9838011 15.114501
37.250996 29.418245 2.8880916 13.60175
37.233467 29.870274 2.8811336 12.427166
37.445942 0.51782966 3.2726433 15.027
37.387302 1.4271214 3.2455719 14.0235
37.359669 1.7346014 3.3601985 15.067
37.34391 2.2206964 3.403995 13.511875
37.333092 2.5472252 3.4436052 14.689667
37.315495 2.9790049 3.4857922 14.021
37.278625 3.4015644 3.440263 14.851583
37.256199 3.8028016 3.3943191 14.012199
37.458706 8.6007366 3.4455514 12
37.366016 13.530309 3.4775229 12.6
37.440495 13.832846 3.3389356 11.60595
37.216671 14.347356 3.329556 15
37.403851 14.549978 3.3710105 13.20082
37.384193 14.923274 3.5904903 10.1765
37.581535 21.111359 3.5601544 14.014
37.533882 21.526457 3.2269704 14.0145
37.295467 22.276367 3.434067 14.2028
37.342876 22.517056 3.3552628 14.144786
37.587299 23.064192 3.399395 14.01275
37.554756 23.567102 3.5943642 14.0125
37.551785 23.731529 3.3746281 13.834101
37.577877 24.190584 3.3302991 14.504499
37.405621 24.546186 3.3711274 13.012
37.450195 24.857008 3.5655596 13.119
37.530357 25.262758 3.3004289 14.009
37.436699 25.878325 3.351856 13.4165
37.415394 26.265297 3.3714862 13.091603
37.397053 26.56348 3.3291619 12.849864
37.506252 26.927397 3.3714676 12.729167
37.462704 27.373705 3.23125 14.004
37.209324 28.274176 3.233356 12.01
37.592873 28.925261 3.5827808 14.116
37.599491 29.575872 3.5735488 14.119
37.31741 0.36410561 3.7668829 12.049
37.216129 1.2166805 3.6542039 12.0755
37.240231 1.6271763 3.6418436 12.076
37.322922 2.2190375 3.7752762 14.0575
37.249107 3.7519333 3.7960992 15.007
37.256088 4.212605 3.8993547 15.02025
37.306702 4.5585251 3.8018925 14.362416
37.220276 4.9025583 3.8089166 14.0185
37.393032 6.1542559 3.982291 15
37.437256 6.5101681 3.9321146 15.048375
37.328823 7.836132 3.7092011 11.892428
37.425251 8.0092907 3.7766409 12.108
37.413765 8.6049013 3.8579032 13.125
37.201019 9.5483065 3.938539 12.0305
37.218826 10.845631 3.9390252 12.0265
37.300568 13.487125 3.7644787 14.142858
37.391411 13.774284 3.7497528 12.005796
37.340569 14.188406 3.8132417 12.2345
37.392353 14.541961 3.7837415 12.903061
37.304623 15.044012 3.9620852 13.03775
37.346893 15.340089 3.8800778 10.791249
37.343414 15.914115 3.9328563 11.750751
37.317379 16.232029 3.8833487 11.440084
37.386089 16.620596 3.9244251 12.558333
37.321518 16.932404 3.8584027 11.08875
37.301632 17.439644 3.8822789 11.0695
37.221039 17.907576 3.8802137 10.1105
37.25893 18.251696 3.8870013 11.515106
37.293354 18.539827 3.8998003 12.058125
37.258251 19.061708 3.9353638 11.613688
37.438442 21.140821 3.9963357 14
37.460056 21.538809 3.854933 14.50725
37.421753 21.827274 3.8194833 14.00675
37.408848 22.523226 3.6878736 13.805099
37.345741 23.069071 3.665956 13.116
37.343555 23.37933 3.7887466 14.013
37.531178 24.260237 3.7909801 13.767624
37.517651 24.998724 3.7720947 13.228001
37.477619 25.233938 3.8935378 12.605625
37.532608 25.90757 3.8008361 13.69395
37.425087 26.185524 3.7710311 12.679603
37.402962 26.452147 3.8376977 12.056749
37.591602 28.616442 3.8831773 15.11775
37.569939 29.418446 3.7051485 14.787084
37.557236 29.886396 3.7567317 14.788334
37.576706 1.7313423 4.0551872 13.048
37.220814 3.5941186 4.0695534 14.0485
37.453644 4.0670166 4.0296268 14.04825
37.415676 5.7405958 4.0111809 15.04825
37.224369 8.1092024 4.0632129 12
37.411095 8.6448593 4.2509823 14.02845
37.296238 9.0514078 4.0099673 10.11
37.213707 13.536321 4.3870831 15
37.221684 13.763887 4.1773243 14.166667
37.435242 14.57392 4.172503 14.249742
37.329445 15.119283 4.3538456 14.082251
37.442772 15.365012 4.1648417 12.59225
37.303669 15.760798 4.2805929 14.0835
37.386631 16.163824 4.093401 11.792666
37.347813 16.609867 4.1850853 13.52
37.355846 17.033205 4.1230283 13.254199
37.340302 17.396635 4.1711807 13.68925
37.372494 17.780622 4.1744704 13.6541
37.274914 18.287031 4.2322373 14.297501
37.282398 18.630245 4.1580062 14.365542
37.305656 18.983315 4.0736184 14.039666
37.259552 19.317909 4.1336031 14.072415
37.411144 19.818668 4.09975 14.546125
37.328419 20.192066 4.0761666 14.317813
37.349541 20.552221 4.0541668 13.695999
37.37014 20.903259 4.0575528 12
37.254234 21.466663 4.0371652 12.0705
37.297474 21.680191 4.0831242 11.333333
37.212959 22.448832 4.1232948 15
37.598671 26.377235 4.2556615 11.0755
37.563591 27.102659 4.3095655 11.076
37.592117 28.333853 4.15447 11.074
37.563271 29.119024 4.2024722 11.0745
37.439865 8.7102165 4.586 14.510166
37.457798 8.8486433 4.5505447 14.5
37.247551 9.4709263 4.678575 15.06675
37.311043 9.9285011 4.5839829 14.569375
37.418636 10.066842 4.5850749 14.0715
37.393749 10.574381 4.6005173 14.366166
37.213787 10.958911 4.6136775 15.07125
37.400631 11.408028 4.5154152 15.042
37.444706 11.716934 4.5039997 15.073
37.49601 12.120104 4.4739394 14.361501
37.593239 12.45778 4.7783875 15.002
37.2379 13.443585 4.4083142 15
37.429844 15.329768 4.6171818 14.391833
37.329231 15.746669 4.5178246 14.5835
37.369244 16.199482 4.5736637 13.726167
37.31834 16.706593 4.5680485 12.394584
37.262733 16.981258 4.4570227 14.086
37.249016 17.384939 4.4237399 14.08675
37.353745 17.772614 4.6733241 13.009
37.271313 18.630049 4.5742416 13.669167
37.260975 19.016321 4.5332704 13.004
37.296631 19.427967 4.5374808 14.258375
37.266064 19.934805 4.5105252 14.505751
37.230713 20.252325 4.4726243 15
37.221573 20.933239 4.6290603 14.006332
37.228867 8.7427616 4.8110142 14.06925
37.311386 8.9470234 4.8799105 14.690333
37.26421 9.4171391 5.1006913 15.0695
37.233494 9.8491707 5.0280709 14.737834
37.224953 10.383786 5.0047097 15.07175
37.205963 10.985587 4.8752723 15.07275
37.584309 11.38999 5.0432935 13.171
37.564014 15.262938 5.1506925 12.009
37.51833 15.868462 4.9769826 13.01
37.429626 16.619616 5.0119233 13.676333
37.484497 16.880457 4.8671889 13.0095
37.385197 17.590298 5.0487714 15.011499
37.380302 17.719057 5.1244073 14.009
37.359528 18.343317 5.0075021 15.012
37.392761 18.489487 5.0532527 12.0095
37.321594 18.902891 4.8620939 13.342834
37.218781 9.1960611 5.2152858 14.07225
37.567158 12.344095 5.5648561 12.006
37.536079 13.518164 5.3475161 12.0075
37.565521 13.731222 5.4151621 11.004
37.556232 14.791945 5.2508545 12.0085
37.494286 14.969194 5.4099245 12.008
37.579342 15.538286 5.3249578 15.01
37.21228 21.987085 5.5423713 10.063
37.530033 14.984761 5.8468685 12.507626
37.558468 15.230816 5.78409 15.01
37.220646 16.261658 5.8355379 10.071
37.304386 17.518349 5.7868605 10.214286
37.302711 18.381256 5.9028621 11.0895
37.203907 20.00889 5.7367072 10.0725
37.276989 22.026194 5.7452064 11.091
37.507977 13.956324 6.054492 12.005
37.551785 14.456892 6.3048892 12.004
37.520565 14.925611 6.39112 13.0085
37.375141 16.106771 6.0185447 11.0885
37.557632 11.896608 6.6902442 13.006
37.488754 13.688299 6.5308614 13.0075
37.576977 9.328928 6.8491335 14.0085
37.526299 10.670013 6.9069023 14
37.592697 12.062836 7.1684017 14.0085
37.548595 13.778728 7.0847387 12.004
37.53809 14.013393 6.8772035 12.004
37.466293 14.553507 6.8693814 13.0065
37.561214 14.990093 6.9718561 14.51
37.432594 15.82243 6.8879995 12.0035
37.4426 16.667456 7.0795336 14.50975
37.268902 17.071693 7.0264812 13.5085
37.47884 17.258347 7.0342178 15.0095
37.316254 18.04159 6.9133325 13.008
37.379356 18.616648 6.97892 14.50925
37.290291 20.258486 6.8708439 13.0085
37.252399 20.678371 7.0888152 14.5085
37.213493 21.80901 6.9533424 15.0075
37.206989 22.06637 6.9116864 13.0085
37.587364 11.671154 7.5452957 14.007
37.457432 14.18976 7.3912258 13.005
37.465652 15.132542 7.5700054 14.0085
37.463554 15.614056 7.4274697 14.009
37.531116 16.296099 7.4914541 15.01
37.473354 16.705034 7.3045888 15.01
37.40707 17.469858 7.5474925 14.009
37.433113 18.190708 7.3028564 14.5095
37.406845 18.877291 7.422617 15.009
37.368332 19.845484 7.2884717 15.0085
37.280357 21.135946 7.4697661 14.009
37.248074 22.050272 7.2217898 14.0085
37.205807 22.80652 7.2583518 14.008
37.523487 12.036448 7.9141965 14.006
37.438271 13.893595 7.7472844 14.0075
37.495766 14.689039 7.7114158 14.007333
37.535995 15.805317 7.7223577 15.01
37.369839 18.618151 7.7573099 15.0095
37.328968 19.217539 7.6008987 14.009
37.341515 19.944254 7.8457398 15.009
37.312088 20.871273 7.7296295 14.009
37.27216 21.670637 7.7263412 15.008
37.354664 27.18446 7.8541784 12.0065
37.560669 11.262251 8.3306437 15.008
37.582493 12.10709 8.2688503 15.0085
37.472717 13.473563 8.1620312 14.00675
37.411972 14.788317 8.1622267 14.0065
37.521847 15.058282 8.1337337 15.0095
37.437229 16.756479 8.1985636 15.0095
37.309479 19.045969 8.1482401 15.0095
37.223633 22.161638 8.3761816 15.0085
37.550552 11.822079 8.7407026 15.007
37.376244 13.324591 8.6694717 14
37.435165 13.761457 8.6284199 14.005
37.482143 14.105957 8.7183571 13.004
37.451939 14.47578 8.4988918 13.004
37.437984 15.212187 8.7495136 15.0085
37.273411 16.321898 8.7415457 15.009
37.27438 16.623035 8.512187 13.0035
37.306301 17.421877 8.5784397 14.507999
37.567299 27.613718 8.762435 13.175
37.550697 12.083012 9.1440573 14.004
37.394508 14.071457 8.9890194 15.0075
37.39653 14.912991 8.9349756 15.008
37.290394 19.348742 8.8177261 15.009
37.543495 29.74428 9.1931934 14.175
37.543274 10.769987 9.2514315 15.0055
37.595749 10.819784 9.4353275 15.005
37.392471 15.053612 9.3637619 14.50525
37.530331 27.718969 9.5818701 13.1745
37.589222 29.338381 9.2552824 13.1745
37.405514 13.234858 9.9976692 15
37.39983 13.790083 9.8869419 14.504499
37.581379 29.892843 9.7630644 15.1755
37.395287 14.83181 10.150234 14.004
37.266129 16.734833 10.070759 14.0035
37.518188 12.290485 10.587284 15.004
37.39854 14.558235 10.417797 14.004
37.388409 15.30599 10.743953 15.004
37.580143 29.130899 10.762463 15.175
37.540474 10.881628 11.5067 15.0045
37.426903 13.568693 11.255063 15.004
37.503185 27.744772 11.262273 14.1745
37.222004 24.060644 14.888863 15.1745
37.321049 29.61725 15.106628 15.1745
37.490524 15.346594 15.35206 13.175
37.584904 9.0044575 17.29837 15.001
37.625885 14.615972 -2.4865882 7
37.691521 14.963867 -2.4504805 7
37.788979 15.599765 -2.505893 7
37.698917 14.6905 -2.0322826 7
37.757072 14.975512 -2.2277951 7
37.742558 15.421046 -2.1748624 7
37.82085 15.868292 -2.2614756 7
37.616947 16.132139 -2.1710641 7
37.881779 20.64131 -2.060991 5
37.846947 21.02037 -2.0783389 5
37.862873 22.946535 -2.0159237 4
37.790268 15.120441 -1.919523 7
37.916237 16.298004 -1.8419578 5
37.692471 16.779221 -1.7502095 1
37.866535 16.94125 -1.8102821 3
37.864243 17.380434 -1.8192028 3
37.875923 17.840004 -1.8116566 2.3333333
37.803947 18.211014 -1.8501061 3.3333333
37.864407 18.584787 -1.8403616 2.5
37.869904 19.010147 -1.8415338 3.6666667
37.771603 19.502943 -1.8631241 2.5
37.772652 19.780056 -1.8571166 2.1666667
37.829865 20.201315 -1.8610213 2
37.755775 20.578108 -1.8756512 1.5
37.757931 21.041908 -1.9061459 1
37.799973 21.401331 -1.9163496 1.75
37.755692 21.820591 -1.9511019 1
37.651329 22.336988 -1.9645841 1.5
37.859882 22.66083 -1.9269623 2.4000001
37.811996 22.894623 -1.8454517 2.3888888
37.868958 23.213936 -1.7194055 5
37.93824 24.33275 -1.7707826 7
37.811275 25.135088 -1.6985109 5
37.769524 25.54784 -1.6806859 4.3333335
37.772129 25.787096 -1.6888809 3.5
37.801842 26.087217 -1.6122577 2
37.810745 26.877783 -1.7210093 3
37.847374 27.330395 -1.650543 3
37.647377 9.1658182 -1.3259556 3
37.719498 9.3278952 -1.2954322 3
37.773155 10.260412 -1.382027 3
37.784534 10.675755 -1.3336722 3
37.697819 14.56128 -1.5775282 3
37.884827 15.178473 -1.4743456 5
37.679691 15.423822 -1.4084284 5.3333335
37.832832 15.733282 -1.4564598 5.1999998
37.653534 16.199635 -1.579995 4
37.706894 22.771475 -1.3756456 3
37.884361 22.952879 -1.4285802 3.090909
37.80455 23.378151 -1.2757397 2.0227273
37.801849 23.862654 -1.2784443 1.3333334
37.629562 24.195131 -1.3391435 1.5
37.83876 24.560421 -1.2673634 3.25
37.806507 24.974209 -1.2697405 4.1999998
37.716331 25.497553 -1.4193634 4.9545455
37.655708 25.791494 -1.387279 3.75
37.771557 26.240849 -1.4597447 3.5
37.752579 26.518555 -1.3843411 4
37.917919 3.5076165 -0.86356628 3
37.760143 4.0881457 -0.81007499 3
37.956959 8.8826904 -0.84007013 3
37.761002 9.8654423 -0.90452808 4
37.840523 10.092388 -1.0461053 4
37.924541 10.796405 -1.0890743 3
37.748444 10.941621 -1.0912219 3
37.731453 13.506503 -0.91823226 2.6666667
37.647903 13.875586 -0.94705462 3.3333333
37.74641 14.215758 -0.88569468 3.5
37.798885 14.595947 -0.85828209 3.9423077
37.716576 14.941092 -0.8916598 3.8333333
37.813797 15.408113 -0.86405194 3
37.822891 15.811012 -0.91555113 2.4666667
37.824783 16.198881 -0.95181632 4.1666665
37.809647 16.519337 -1.0083067 4.3636365
37.844242 17.002226 -0.9163751 4.2222223
37.867741 17.385515 -0.86625797 4.4000001
37.856693 17.777073 -0.88459587 4.6666665
37.825863 18.163969 -0.8319965 4.3333335
37.644215 18.792839 -0.83978683 5
37.875782 19.17123 -0.8178764 1
37.790123 19.288412 -0.81678951 1
37.903656 19.705381 -0.80727911 1
37.819324 20.084143 -0.82460076 2.3333333
37.713676 20.618814 -0.85670537 1.6666666
37.660496 21.030714 -0.88629264 1.5
37.612152 21.307434 -0.9078455 1
37.979073 24.055784 -0.81721205 4
37.864792 24.657749 -1.0434825 5.6666665
37.771736 24.979038 -0.95243424 4.2857141
37.698612 25.453045 -1.0198488 6.1428571
37.745441 25.742212 -0.94643849 5.0277777
37.686562 26.290051 -0.94129997 5.3333335
37.855328 27.045637 -0.88712186 3
37.78957 27.503929 -0.92295158 2.25
37.644218 29.04212 -0.8031165 4
37.797817 29.278868 -0.82902259 8.1499996
37.687363 29.812342 -0.92850143 4
37.85149 2.2898529 -0.40020284 5
37.796345 3.4249742 -0.61700386 4
37.875977 3.794858 -0.59924376 3.9000001
37.618778 4.1530786 -0.78530753 3
37.692783 4.5617394 -0.75540125 3.3333333
37.806847 5.1782374 -0.48677257 5
37.734238 5.4727859 -0.58533257 4.25
37.957829 5.8840914 -0.47777128 5
37.83812 6.0357742 -0.54938936 4.3333335
37.783924 7.2916808 -0.55678737 4.8333335
37.632553 13.597042 -0.44644591 5
37.726112 13.843316 -0.58071512 4.9166665
37.737328 14.269423 -0.6572746 4.2800002
37.741791 14.555387 -0.61441791 4.7916665
37.789078 15.001642 -0.55679882 4.9411764
37.754238 15.376373 -0.57319558 5.1666665
37.791779 15.730831 -0.57779354 5.0769229
37.803246 16.20001 -0.58078086 3.1666667
37.854614 16.518148 -0.64272368 0.5
37.836288 17.044043 -0.6968078 1
37.798676 17.360241 -0.69417906 1.5
37.738991 17.659328 -0.69460422 1
37.812866 18.084135 -0.72155011 1.75
37.846733 18.476118 -0.75133723 1
37.816986 18.929941 -0.76691401 2
37.919281 19.309795 -0.78248 1
37.799435 19.623398 -0.7953999 2
37.845928 22.000603 -0.44428793 6
37.85442 23.839991 -0.47490478 4.0769229
37.84816 24.271481 -0.44736078 2.4000001
37.643822 24.731947 -0.66758835 6
37.737118 25.006971 -0.55647534 5.8888888
37.765766 25.415688 -0.60769635 5.6764708
37.731781 25.806847 -0.56025833 5.9375
37.817173 26.152678 -0.58114743 3.3333333
