# .PCD v0.7 - Point Cloud Data file format
VERSION 0.7
FIELDS x y z intensity
SIZE 4 4 4 4
TYPE F F F F
COUNT 1 1 1 1
WIDTH 1239
HEIGHT 1
VIEWPOINT 0 0 0 1 0 0 0
POINTS 1239
DATA ascii
43.781975 129.39091 -1.3992946 11.192
43.736027 129.75745 -1.5058507 11.940486
43.818027 132.50368 -1.3337262 13.050583
43.780342 133.07883 -1.3599212 14.596055
43.869377 133.40659 -1.4239314 12.496273
43.791546 133.75705 -1.4108698 13.38301
43.721485 134.14076 -1.4215339 13.764625
43.810863 134.5907 -1.3877243 14.182209
43.801788 135.00476 -1.4452878 12.45549
43.744572 135.3795 -1.5215155 11.0165
43.762867 136.69281 -1.3528655 13.857792
43.785717 136.94673 -1.3414904 13.117701
43.667446 137.66435 -1.5999388 13.038
43.641708 120.34425 -1.007861 10.0035
43.821095 120.6506 -1.01702 10.590449
43.799488 120.94482 -1.0905983 10.645804
43.873211 121.42158 -0.99150151 12.543301
43.825565 121.72005 -1.1736101 10.086157
43.769459 122.09335 -1.1101562 10.31725
43.728138 123.68236 -1.1726364 10.084
43.82621 124.19636 -0.96740621 10.070709
43.980251 124.40141 -0.93957835 11.0875
43.658295 125.30401 -0.86547053 11.00495
43.877216 125.83303 -0.98308432 12.590708
43.854465 126.09427 -0.93794179 11.244667
43.927864 126.9565 -1.1403614 9.1125002
43.967766 127.69327 -1.1294208 11.073715
43.914749 128.24948 -0.99733365 9.5459995
43.754513 128.67795 -0.83414346 10.084
43.755657 129.12889 -1.0435537 10.672672
43.782543 129.26869 -1.0613421 10.6813
43.814892 129.86971 -0.99406862 11.637937
43.666451 130.16771 -0.8459335 10.0845
43.617992 130.61134 -1.0328313 10.66698
43.879169 132.53508 -1.157958 12.082
43.808338 133.48543 -1.0013546 11.059167
43.731476 133.90869 -1.0536604 11.374833
43.666847 134.17973 -0.95071077 12.711833
43.843563 135.19868 -0.92444062 12.0145
43.614838 135.22629 -0.96622908 13.018
43.701981 136.71405 -1.0568728 14.7665
43.679199 137.06961 -1.0684395 13.986234
43.720055 137.34692 -1.1852493 15.05075
43.715038 120.67349 -0.70085144 12.045
43.867397 121.02217 -0.46387365 10.776321
43.845783 121.29894 -0.46411285 13.083
43.805416 124.64729 -0.55222881 10.227583
43.777767 125.03691 -0.51107234 10.990301
43.777214 125.34653 -0.65699428 10.787797
43.835571 125.71619 -0.61476898 10.946777
43.973728 126.10323 -0.68966371 12.05175
43.959217 126.96363 -0.47995192 12.008
43.675655 127.90945 -0.56568974 14.0135
43.78809 128.17661 -0.54413003 12.151376
43.832985 128.49377 -0.63376057 10.936643
43.79652 128.97469 -0.62401813 13.396
43.895325 129.40254 -0.64732957 12.731999
43.850761 129.86745 -0.57918578 12.077583
43.648235 130.03006 -0.63007236 10.109
43.808338 133.36148 -0.75786352 13.0815
43.943432 134.24858 -0.65257221 10.091249
43.602085 134.49649 -0.58504826 10.1045
43.685684 136.96231 -0.78607446 15
43.807091 137.34419 -0.46696094 14.019
43.887245 121.0276 -0.27488455 10.924799
43.909122 121.31224 -0.1363579 10.172812
43.902538 121.74194 -0.24151666 11.5415
43.943249 124.04696 -0.25695923 10.5825
43.810562 124.67975 -0.17211518 11.23725
43.803886 124.99443 -0.21764527 11.65712
43.894932 125.44839 -0.069811411 10.743667
43.940456 125.8251 -0.25215888 13.008916
43.968887 127.454 -0.064101867 11.0835
43.808231 128.64749 -0.2713466 10.069201
43.634556 129.04169 -0.28408861 10.116
43.626797 129.52118 -0.042266618 9
43.848431 129.83569 -0.17408177 10
43.83337 130.58194 -0.18482231 12.59925
43.765396 131.0208 -0.22663517 10.116
43.645638 131.2466 -0.039829481 10.1195
43.830608 120.76498 0.3010304 11.040751
43.897263 121.06954 0.24526867 12.508961
43.790054 121.41635 0.26568806 12.425334
43.915051 121.71172 0.20263779 14.032333
43.926517 122.07895 0.19558482 13.061499
43.936226 123.97469 0.002554558 11.0825
43.892841 124.34512 0.10506597 11.308125
43.848648 124.54295 0.18155453 11.663269
43.770615 125.10392 0.28593251 12.725583
43.866177 125.39194 0.19765307 11.320686
43.883636 125.68769 0.21935396 11.714444
43.883648 127.55556 0.11089762 10.102166
43.668255 127.88361 0.32591456 11
43.720264 128.05556 0.21512355 11.096901
43.90065 128.50592 0.26110482 11.391084
43.659119 129.08258 0.29238608 15.0105
43.921497 129.47205 0.17653 11.084
43.813183 129.7972 0.20882662 10.293125
43.811474 130.13799 0.30508175 10.589375
43.758926 130.62781 0.16071072 11.0845
43.737728 133.12434 0.22843088 11.087
43.890476 137.16887 0.26757655 10.1215
43.901859 121.05424 0.46854064 12.030667
43.810352 121.55903 0.46423298 13.419499
43.913239 121.84046 0.44414318 12.543
43.938862 122.14047 0.62577796 13.494958
43.961544 123.79948 0.48821968 14.507999
43.830063 124.57789 0.62189913 11.083
43.7528 125.0457 0.60587609 11.236417
43.844048 125.32354 0.56811583 12.598797
43.833176 125.75796 0.55034769 12.965001
43.707619 126.2061 0.57737315 12.297
43.772991 129.17557 0.67205423 12.0865
43.958527 129.71765 0.46077293 11.084
43.820858 132.99364 0.75481772 11.113
43.886646 124.4145 0.85973746 12
43.827377 125.11241 0.88236737 12.1085
43.778301 125.40779 0.92540485 11.083
43.837814 125.75254 0.92890036 12.223187
43.848049 129.04752 1.0876032 11
43.726513 129.38336 1.0850956 11.2336
43.654263 129.62802 1.0476453 11.084
43.845654 130.63303 1.1373801 15.00875
43.978664 126.33824 1.3178189 14.0855
43.715378 126.96088 1.5759526 13.31689
43.620155 127.57631 1.2553679 11.0835
43.749226 128.18146 1.4423552 12.21
43.799538 128.61731 1.3430346 11.64275
43.880787 129.3889 1.4342755 12.084
43.851643 130.11473 1.3269562 12.546
43.683193 130.67261 1.2726564 11.084
43.789391 133.25346 1.4072554 11.12
43.710262 126.7514 1.7230211 13.106125
43.721836 126.95533 1.7255828 13.0855
43.717384 128.27937 1.6809427 13.105
43.660404 128.52094 1.6244259 14.0925
43.838303 129.11656 1.790116 11.4505
43.689995 129.5909 1.7625806 10.085
43.81012 129.78275 1.9123782 11.5845
43.835728 130.20799 1.9435685 12.58825
43.809566 132.9928 1.7741737 12.1115
43.930351 128.39282 2.1300075 12.0835
43.728397 128.66429 2.2211185 12.8558
43.897194 128.94525 2.124429 11.586
43.71991 129.33766 2.3805609 12.042
43.618031 129.97983 2.2906649 12.176
43.658642 136.60779 2.2794595 12.114
43.698063 128.32233 2.7497027 14.084
43.834049 128.50471 2.7365162 12
43.88485 128.99815 2.5486958 12.0835
43.917568 129.89528 2.699652 14.272799
43.665771 130.09761 2.7331529 12.0845
43.814999 136.44873 2.6427436 12.117167
43.710636 139.05936 2.6718602 12.13975
43.978916 128.68401 2.9530692 11.751166
43.959789 128.97661 7.0198669 9.033
44.102356 146.27309 -4.8076577 3
44.145821 147.4054 -4.8633571 3
44.058918 148.20581 -4.8159208 3
44.35947 149.81702 -4.9044189 4.5
44.283669 133.86093 -4.4091463 1
44.144619 134.56799 -4.418138 0.5
44.122734 134.84006 -4.4226336 1
44.398335 136.24377 -4.4718046 3
44.204571 136.57542 -4.5077429 6
44.093056 137.4157 -4.4602165 1
44.184212 138.51633 -4.4718375 2
44.296616 141.83842 -4.7014928 2.6666667
44.16428 142.22775 -4.7158113 2
44.110138 142.67102 -4.7197089 2
44.067951 142.97588 -4.6872025 2
44.325634 144.1933 -4.7681618 3.5
44.159687 144.58911 -4.7623839 3.3333333
44.201752 145.03711 -4.7964983 4
44.316647 146.22997 -4.7549624 3
44.333794 146.78387 -4.7994175 3
44.017464 120.14075 -4.1018558 5
44.065662 120.42117 -4.0742545 5
44.373142 128.25255 -4.2439265 2
44.222427 128.79828 -4.2000599 2
44.2952 129.88411 -4.1999807 4
44.305382 133.14462 -4.3963103 0
44.11496 133.45441 -4.364274 4
44.121834 120.11816 -3.7694011 5.0454545
44.133224 120.71014 -3.6608436 3.75
44.118561 120.96219 -3.7183318 6.1666665
44.120617 121.3453 -3.7089441 6.25
44.325279 124.19598 -3.6269624 5
44.322742 126.37586 -3.7246196 6
44.080486 126.68256 -3.8528981 0
44.037331 126.94392 -3.7617784 4.1666665
44.157188 120.17596 -3.3780377 4.6644058
44.130146 120.62609 -3.3930783 2.95
44.23645 121.0173 -3.3601749 4.6666665
44.044662 121.35439 -3.391535 6.320158
44.030754 121.77654 -3.2982032 4.5
44.047901 122.03558 -3.320704 3
44.35762 124.30774 -3.5379152 1.5
44.359718 126.46612 -3.3306584 5
44.086445 126.99958 -3.2738535 4.5999999
44.183704 120.1432 -2.9904027 6.1184211
44.143768 120.55961 -3.0846286 4.7666669
44.11055 120.94798 -3.0667024 4.9333334
44.067776 121.35297 -2.9955211 6.8333335
44.021671 121.80081 -2.9427516 5.5555558
44.04525 122.04642 -3.0857573 4.25
44.397964 125.19056 -2.8384705 6
44.27647 126.57195 -3.1692982 4.5
44.11776 126.98331 -2.9480014 6.0555553
44.170177 120.16882 -2.5374272 7.4014521
44.151989 120.55167 -2.5532267 7.3191791
44.081127 121.01826 -2.4840839 7.6897683
44.053852 121.36651 -2.5049181 7.8171287
44.189125 121.89719 -2.654407 6.5
44.179417 122.2268 -2.534493 7.3981457
44.278664 122.63078 -2.4805818 7.8137498
44.122452 123.09452 -2.4814487 8.0522499
44.264912 123.86594 -2.6167908 7.373333
44.021206 125.06139 -2.7124934 6.8333335
44.276085 125.47858 -2.4678137 8.1805
44.112183 125.76932 -2.4722977 8.0657997
44.058376 127.03819 -2.5882614 7.7466669
44.021999 128.36609 -2.4937425 8
44.070965 128.44101 -2.473033 8.2183132
44.368919 132.65753 -2.4855511 8.5525827
44.363091 132.88574 -2.4894981 8.303834
44.325558 133.51477 -2.4852355 8.2276363
44.280621 133.7681 -2.5220904 8.2311869
44.286739 134.06367 -2.5099466 8.1164999
44.166512 120.16009 -2.3534608 8.0581579
44.129761 120.63345 -2.3189299 8.2156849
44.085491 120.94505 -2.3206816 8.3446274
44.076923 121.37342 -2.3336422 8.0119801
44.035362 121.75175 -2.2160256 8.361167
44.264668 122.16852 -2.339848 8.43993
44.161705 122.64088 -2.300544 8.5789995
44.120415 123.05412 -2.0502844 9.0847502
44.078339 123.24142 -2.034409 9.0120001
44.075871 124.73241 -2.0849209 9.0124998
44.127579 125.03481 -2.1250527 9.5965834
44.157795 125.43965 -2.2033954 9.0199289
44.119469 125.83015 -2.1933739 9.3964634
44.216965 126.01318 -2.1354001 8.0045004
44.086971 127.01826 -2.2004461 9.1560354
44.083359 128.3649 -2.2354174 9.5233994
44.099007 128.45552 -2.1931427 9.9727926
44.053345 129.48149 -2.2362175 10.03
44.01825 129.6129 -2.2802083 10.0355
44.291302 133.01302 -2.1034396 9.2405472
44.268337 133.46358 -2.162822 10.085558
44.287663 133.82523 -2.1769631 9.7830229
44.301498 134.12263 -2.144675 9.064167
44.333115 134.55162 -2.0657234 10.63455
44.277149 134.96964 -2.0832641 10.536119
44.361919 135.25931 -2.0798068 11.0575
44.350082 135.75574 -2.023159 10.0755
44.201073 120.21891 -1.7119186 9.0415001
44.147579 121.41004 -1.6555879 9.0272503
44.369652 122.77122 -1.7279844 13.053
44.169647 123.02857 -1.8641312 9.1722422
44.167427 123.32042 -1.8675897 9.4109583
44.198036 123.7788 -1.9752774 11.031
44.351181 124.55733 -1.8230044 9.0352001
44.21312 124.86388 -1.8164907 9.8118
44.238438 125.41559 -1.7600158 10.796499
44.079624 125.74938 -1.9346979 11.602674
44.138729 126.01823 -1.9650024 9.5135002
44.162777 126.70319 -1.7070937 10.926309
44.122986 126.96677 -1.8234113 11.756072
44.224834 128.39706 -1.9166386 11.0385
44.325493 128.44447 -1.8290161 11.0755
44.338612 132.34952 -1.9460756 9.6033745
44.311073 132.58984 -1.7984636 10.453099
44.264183 133.00893 -1.829077 10.559313
44.154827 133.41296 -1.7951152 11.157903
44.260078 133.86069 -1.7709889 11.367281
44.239815 134.12195 -1.7699698 11.810934
44.126232 134.5974 -1.80907 11.925364
44.138283 134.99263 -1.8674215 11.46207
44.205742 135.45187 -1.794829 10.892357
44.227146 135.75613 -1.8411521 10.744786
44.147976 120.25204 -1.3319511 10.104661
44.143284 120.51521 -1.2992861 10.625134
44.154053 120.94603 -1.3290278 9.3439817
44.135403 121.44079 -1.428382 10.26239
44.186172 121.72286 -1.4353385 11.562353
44.211334 122.0956 -1.5887209 10.083
44.167934 123.02448 -1.4967495 11.278261
44.199379 123.39126 -1.376675 11.616546
44.283165 123.89223 -1.3937663 13.03575
44.142704 124.22388 -1.5014759 13.50535
44.225483 124.62724 -1.4036624 14.175217
44.129745 124.88813 -1.4351711 12.716817
44.241211 125.48185 -1.3559211 11.367778
44.134171 125.82163 -1.408971 9.2818756
44.23354 126.24029 -1.3550751 11.588858
44.199059 126.60151 -1.5616128 10.431708
44.156857 126.98853 -1.4003913 12.128463
44.062546 127.87368 -1.3417152 10.854356
44.217606 128.25926 -1.2486794 10.600125
44.362221 128.75168 -1.2373273 14.067625
44.278591 128.94971 -1.3202604 11.847166
44.19442 129.4839 -1.3404974 11.092821
44.167164 129.80243 -1.4169667 12.965684
44.287251 130.11099 -1.5673136 9.1084995
44.255795 132.30215 -1.5418434 13.03125
44.289177 132.57129 -1.5048127 11.854802
44.291653 132.98866 -1.4613953 11.815562
44.123913 133.39934 -1.4442605 12.480666
44.231419 133.80476 -1.4339726 13.069539
44.199207 134.1597 -1.455285 13.872462
44.215057 134.63878 -1.4117523 13.378583
44.254406 135.05246 -1.3405632 12.4276
44.285706 135.44266 -1.5637726 11.524
44.225693 135.63289 -1.5999255 11.02
44.204159 120.22469 -1.132754 10.288549
44.166035 120.62432 -1.0246546 10.962626
44.202309 121.00202 -1.0518407 10.865167
44.225967 121.43137 -1.0408679 11.316387
44.146263 121.77316 -1.1308815 9.1580715
44.037514 123.55981 -1.1535387 10.08325
44.134487 123.9121 -0.91926271 13.0135
44.209934 124.21955 -1.0497288 10.385407
44.259815 124.56615 -0.99275345 10.616213
44.197598 124.9557 -0.84880346 11.084834
44.250195 125.42529 -0.94900149 10.668399
44.233887 125.90462 -1.0726831 10.197088
44.105858 126.13524 -0.93587327 11.15836
44.118496 126.94538 -1.0600438 12.63255
44.139351 127.88603 -1.1160879 11.697333
44.256218 128.18137 -1.0745212 10.494101
44.251762 128.65395 -1.1511658 9.7453337
44.023514 129.064 -0.84576786 9.0834999
44.154633 129.43855 -0.99203056 11.544038
44.237213 129.84569 -0.99925601 10.089168
44.350967 132.66492 -1.1211622 12.78625
44.235691 132.89522 -1.1449246 12.08075
44.309189 133.58276 -1.1104308 12.0805
44.105721 133.75182 -1.1507467 14.370833
44.219379 134.15483 -1.1079847 14.701251
44.133389 134.97485 -1.1889082 12.01825
44.280624 120.17912 -0.52448136 11.132925
44.182705 120.68256 -0.57085371 11.343892
44.205147 120.94541 -0.58922863 10.866833
44.189644 121.34361 -0.46519029 10.083
44.155781 121.78999 -0.50494707 10.09775
44.218369 124.15499 -0.73349106 10.856125
44.189457 124.62238 -0.68560064 11.1845
44.237511 124.8512 -0.74667728 11.7835
44.253769 125.34736 -0.64008552 11.768044
44.142811 125.8 -0.61252642 11.569103
44.278492 126.0616 -0.63552892 11.0905
44.11068 126.95312 -0.47323653 11.311625
44.18742 128.3071 -0.60777235 10.0965
44.109882 128.46011 -0.57818174 14.517
44.125927 128.94101 -0.54687399 12.226893
44.211552 129.48892 -0.59845769 14.827625
44.03083 129.72905 -0.61586916 15.04775
44.260155 133.98096 -0.52488202 13.082251
44.16869 134.28479 -0.62746096 11.090833
44.136681 137.08389 -0.51096696 14.5225
44.308617 137.36104 -0.45716256 14.3555
44.28405 120.12613 -0.2706314 11.41047
44.239754 120.69351 -0.18278781 12.065801
44.267056 120.92014 -0.22186013 11.3136
44.230446 121.39574 -0.15348312 11.31438
44.159706 121.80773 -0.19590457 11.038067
44.252396 124.13435 -0.12905535 10.216666
44.197273 124.6013 -0.14606979 11.319812
44.173473 124.9553 -0.28974071 11.654799
44.258926 125.28968 -0.37712985 12.0855
44.13776 126.63427 -0.19584782 12.44775
44.100544 126.96131 -0.36519846 12.045417
44.393673 127.87385 -0.35557246 10.1135
44.241753 128.20589 -0.068082362 10.7685
44.109257 128.51761 -0.17452672 10.342751
44.255344 129.08743 -0.2046638 10.0835
44.007751 129.61659 -0.16271782 10
44.180252 120.73686 0.2423552 11.0815
44.22327 121.08327 0.18462361 12.282249
44.198017 121.39102 0.14282981 12.519625
44.196548 121.79979 0.16129069 12.276619
44.193352 122.04844 0.17841713 11.049111
44.00687 122.40364 0.29934692 14.086
44.251663 123.40549 0.37919217 11.082
44.168499 124.19625 0.19769073 11.773828
44.1549 124.61647 0.20134959 13.047052
44.280476 125.01196 0.24692003 11.585125
44.185562 125.42881 0.17447767 10.845333
44.070328 125.72662 0.10123737 13.059999
44.384869 126.87141 0.110085 11.107
44.150608 127.85569 0.19900483 11.58475
44.236053 128.24733 0.08975561 10.732001
44.200821 128.45166 0.29391855 11.964189
44.28923 129.84959 0.15711145 11.3965
44.161732 130.23535 0.23703165 11.591
44.238968 130.54878 0.25208718 12.088
44.050827 133.83725 0.35961777 15.0825
44.104084 136.52954 0.32990837 12.1025
44.159595 136.94998 0.11670608 10.360625
44.149017 137.42833 0.28823537 11.0895
44.017685 137.70605 0.17843986 10.1195
44.241055 120.09325 0.71594244 15.0075
44.063789 120.72451 0.51826268 11.040751
44.131062 121.03945 0.55644768 12.66565
44.344276 121.42405 0.42971593 12.042
44.12431 121.8716 0.50252771 12.312626
44.141758 122.18209 0.50390559 12.0745
44.285473 123.78095 0.60336721 13.04575
44.203941 124.14843 0.52650666 12.85895
44.151104 124.61182 0.54501504 11.772499
44.155544 124.97131 0.56865329 13.084501
44.199905 125.33494 0.56402719 11.34425
44.115524 125.6251 0.407848 15.01025
44.269043 127.98904 0.6732524 15.01
44.317257 128.49696 0.63267267 11.848875
44.300922 129.00023 0.7732681 11
44.217403 129.33223 0.62682265 12.094501
44.146599 130.53009 0.45298165 12.0925
44.39901 133.45068 0.78222322 15.0125
44.336288 136.72231 0.57332629 11.0865
44.312424 120.29633 0.99260867 13.722165
44.268536 120.46533 0.96064943 12.289667
44.299484 120.94306 1.0678703 11.1085
44.187656 124.52649 0.89100564 12.04125
44.248505 125.02734 1.0347166 13.09166
44.208195 125.36338 0.91744602 13.335688
44.185143 125.91674 0.80263543 14.0075
44.158302 126.30797 1.123914 11.857125
44.023861 126.47303 1.1162026 11.084
44.003296 128.45903 1.1522328 11.084
44.141384 128.96014 1.0891811 11.055667
44.179333 129.33893 0.91010553 12.3965
44.297756 129.87083 0.96093565 11.751332
44.170868 130.19897 1.0825641 13.045
44.053516 130.95438 1.0925043 15.0095
44.114174 133.23424 1.1911079 11.118
44.397354 120.29901 1.2142403 12.0015
44.323624 120.48669 1.2425743 13.603251
44.389038 121.22003 1.2317343 13.1055
44.359856 124.68385 1.2397947 14.198874
44.125107 124.89428 1.2856592 13.655358
44.160301 126.33865 1.2619983 13.084249
44.279648 126.51638 1.499096 12.666536
44.384983 127.55375 1.2893784 12.1105
44.228626 127.71803 1.3635607 14.086
44.188297 129.4993 1.2844388 13.0455
44.255665 129.82576 1.3077599 12.969539
44.089203 130.1282 1.4104445 11.1155
44.006454 130.6953 1.2440696 11.118
44.376278 132.59546 1.2156386 11.084
44.138107 126.70861 1.6639792 12.1145
44.135502 126.86652 1.730978 12.426666
44.392666 127.22953 1.9334724 15.0855
44.177567 127.78626 1.9525859 15.089
44.156685 129.37569 1.7530078 11.0835
44.306431 129.7504 1.9350622 13.898556
44.324738 130.12256 1.8793632 13.4608
44.162022 127.66483 2.0730774 13.1015
44.251766 129.46051 2.2999778 11.733833
44.194016 129.82001 2.2318704 13.603251
44.269516 130.08594 2.1955438 14.0865
44.14196 128.21234 2.5463684 12.106874
44.092453 128.50034 2.6269646 12.59875
44.25174 129.36978 2.4906824 13.55825
44.154667 129.69843 2.6121058 14.224295
44.066948 130.14691 2.4107883 12.1185
44.094704 136.32558 2.6672721 12.1175
44.085434 128.67599 3.0019054 13.61175
44.654701 146.64978 -4.8497119 3
44.433941 146.80206 -4.8510704 3
44.587128 147.38927 -4.8409772 3.3333333
44.626305 149.75366 -4.8857536 4.3333335
44.535656 133.6153 -4.416914 1
44.798168 134.0798 -4.4328065 1
44.532101 136.21477 -4.4359045 4
44.752903 136.71906 -4.4228015 3
44.649025 137.0475 -4.4589896 3
44.470295 137.58572 -4.4863601 2
44.442951 137.9256 -4.4649854 3
44.44849 138.26134 -4.4852943 2
44.725632 140.76936 -4.6330061 2
44.64336 141.15123 -4.6667032 2
44.557209 141.44684 -4.6801 2.4000001
44.633217 141.65288 -4.7188482 3
44.728897 143.91252 -4.7456498 3
44.677135 144.58589 -4.7648292 4
44.658718 145.82124 -4.748188 3
44.765213 146.20743 -4.7908978 3
44.546131 146.4962 -4.7937679 3
44.580944 125.81111 -4.0550084 4
44.793259 127.20638 -4.0666108 3
44.487144 131.83905 -4.3891821 0
44.539211 132.42674 -4.379518 4
44.748215 133.40446 -4.3878603 4
44.554688 125.84619 -3.9890449 2
44.45013 126.11401 -3.6935856 3
44.646252 127.11229 -3.8479562 1
44.600082 127.22948 -3.7126524 4
44.415066 121.0601 -3.4131663 6
44.447361 124.14342 -3.3320651 3.0625
44.444149 127.1678 -3.402472 4
44.545277 121.01414 -2.929867 5.25
44.443497 121.32024 -2.8747458 7
44.592762 122.76201 -2.8021531 6
44.707504 123.3741 -2.894824 5.5
44.563789 123.74449 -2.9209633 5.3333335
44.561489 124.16248 -2.9405365 6
44.763283 124.52729 -2.9205797 5.6666665
44.683773 124.86637 -3.0595925 7
44.556171 121.02697 -2.5582027 7
44.647186 122.31271 -2.6050818 7.0412502
44.427326 122.57944 -2.5386734 7.4050002
44.611359 122.84977 -2.6357298 8.0825005
44.527409 123.31071 -2.4634755 8.0500002
44.664284 125.05731 -2.7346683 7
44.662601 125.36702 -2.5672328 7.5092502
44.48571 132.72713 -2.441324 8.333333
44.528923 132.89037 -2.4782419 8.1723757
44.582005 133.80298 -2.4825609 8.701889
44.574024 134.06212 -2.5137939 8.6723337
44.750252 120.16834 -2.0293078 9.0595837
44.513672 121.06453 -2.2706735 8.3831253
44.519596 122.59785 -2.1485684 8.8381662
44.670158 122.90936 -2.0570736 9.5555
44.778542 124.3469 -2.1343844 10.035
44.607517 125.03315 -2.1502256 9.6973333
44.584938 125.37313 -2.1953962 8.0082493
44.535084 127.9728 -2.1395075 10.028
44.617306 128.22556 -2.0827477 10.392799
44.685696 129.8569 -2.0189939 10.528376
44.483822 132.62845 -2.1253884 9.9952831
44.55814 132.97467 -2.1660829 9.7584229
44.522102 133.42604 -2.1860085 10.00949
44.55999 133.81764 -2.1498208 9.7723293
44.515606 134.1844 -2.1279807 9.7965879
44.653938 134.43956 -2.1126821 9.6948328
44.560715 135.04784 -2.0888865 10.214357
44.549316 135.39386 -2.089503 10.114539
44.521538 135.65393 -2.0390086 11.055667
44.684448 120.18092 -1.8459921 9.5207901
44.672729 120.52133 -1.6754397 9.7521706
44.583157 120.97688 -1.8030797 9.7673826
44.514194 122.63665 -1.9384521 8.5820007
44.573826 123.02097 -1.8669678 9.1674585
44.42083 123.21374 -1.775056 9.0994997
44.540215 124.69631 -1.8336017 9.0570002
44.530064 125.43454 -1.7466942 10.477958
44.682045 125.87096 -1.6199075 11.017
44.579311 128.3308 -1.8737552 10.428699
44.544636 128.48343 -1.7871084 11.704567
44.601059 129.82288 -1.8272418 11.329765
44.553658 130.05853 -1.8291135 10.84725
44.517952 132.35083 -1.8664436 9.9750443
44.596165 132.58798 -1.7966499 10.439219
44.589272 132.95891 -1.7569256 11.18659
44.490395 133.38998 -1.8385766 10.801926
44.58292 133.81519 -1.8484795 11.005978
44.570023 134.21136 -1.797281 11.855463
44.46674 134.63153 -1.609901 13.04
44.508694 134.83401 -1.8767244 11.28575
44.470161 135.44812 -1.8520385 10.782312
44.522228 135.76796 -1.7884133 10.775666
44.680702 120.178 -1.3804562 10.420625
44.624771 120.54792 -1.4519074 10.299809
44.574802 121.0174 -1.4213858 11.13775
44.49802 121.46332 -1.2994666 10.092208
44.567375 121.71051 -1.4425466 10.816313
44.501171 122.09911 -1.3894138 10.0875
44.500423 123.03017 -1.454652 10.472787
44.630272 123.22114 -1.4185963 10.0825
44.497288 123.73445 -1.4204767 14.031
44.435139 124.27027 -1.3920041 13.694333
44.505337 124.66869 -1.3709375 12.779877
44.653603 124.98548 -1.2963586 11.08525
44.559078 125.45409 -1.4482324 12.502675
44.507973 125.73629 -1.3435431 12.26485
44.463997 126.26262 -1.3143065 11.859834
44.433559 126.53282 -1.4990678 13.409437
44.620808 127.54416 -1.4174165 10.512501
44.681061 127.79576 -1.4324818 12.721652
44.593613 128.34413 -1.4042798 11.807728
44.551807 128.51801 -1.3001647 12.902964
44.539772 129.48988 -1.2378795 9.8381004
44.459728 129.70703 -1.3996425 14.178584
44.623291 132.65298 -1.5198247 11.846482
44.553539 132.93857 -1.4559834 12.88776
44.527679 133.38649 -1.3932376 13.850001
44.492184 133.90106 -1.593856 13.0555
44.406956 135.24959 -1.2796097 11.0155
44.5401 135.61111 -1.5689279 11.0205
44.572079 120.01585 -1.0188669 10.3865
44.569672 120.61948 -0.96459496 11.025
44.765354 120.81587 -0.94074059 9
44.406967 121.25205 -1.1628063 10.1005
44.527233 123.98656 -0.87358934 10.1055
44.45113 124.11506 -0.87161559 11.0835
44.475185 124.57697 -1.0739187 9.8474369
44.567062 124.95358 -1.0073315 10.477286
44.539757 125.37319 -1.0597875 9.6263638
44.506866 125.79397 -1.1071855 9.6471996
44.748524 127.70528 -1.0533639 12.0155
44.569427 128.1917 -1.0422126 11.658208
44.555298 128.5295 -0.93956876 12.040334
44.639301 129.04477 -1.018237 10.98
44.577221 129.42256 -1.0403079 12.632022
44.614788 129.74582 -1.0445148 11.468025
44.602398 130.15379 -0.92949563 13.5765
44.406281 132.60817 -1.1172392 12
44.600422 132.82845 -1.1863365 13.06975
44.595592 133.5929 -1.0894601 13.071
44.591827 133.87486 -1.1232113 13.024
44.552452 134.13097 -1.0639986 13.395833
44.781708 134.44659 -1.0494027 15.0425
44.662918 137.09508 -0.82725132 15.0355
44.532299 120.12255 -0.4896538 10.449175
44.6264 120.71793 -0.52453542 10.697459
44.602776 120.91846 -0.52927923 10.682438
44.585178 121.34818 -0.46607003 9.7651663
44.685471 121.87946 -0.48883924 11.647142
44.543491 122.10451 -0.54385895 11.097546
44.461941 124.03786 -0.69265437 11.0835
44.597839 124.6567 -0.46896651 10.05625
44.569939 125.34556 -0.54714346 10.085375
44.415199 125.87496 -0.52665597 9.0834999
44.773087 127.44775 -0.53184986 14.017
44.569572 128.11647 -0.46189404 14.016
44.635139 128.6006 -0.62245643 13.151085
44.546844 128.99484 -0.64997047 15.074625
44.460377 129.50569 -0.6272341 10.108
44.403465 133.94434 -0.71207201 14.072
44.521404 134.05786 -0.6743952 13.57725
44.564491 137.29182 -0.66310918 13.057666
44.518494 120.18722 -0.27294809 11.419063
44.618622 120.56831 -0.21757597 11.246036
44.548065 120.94211 -0.24258478 11.372384
44.585186 121.41315 -0.26081076 11.206037
44.541286 121.79816 -0.16370955 11.760475
44.644749 122.20924 -0.23967309 11.717376
44.659847 122.56019 -0.20075147 12.034312
44.518303 122.92818 -0.073636368 11.1065
44.537239 124.23512 -0.23153429 10.0925
44.658985 124.68758 -0.19216271 11.828172
44.578247 124.94458 -0.30329588 11.074344
44.653576 125.32206 -0.2013869 11.803584
44.667282 125.7298 -0.15197995 11.860501
44.412697 126.66993 -0.0077073271 10.1135
44.796844 127.23304 -0.24330981 10.0825
44.783218 127.98739 -0.23990008 10.116
44.521038 128.1703 -0.11109177 11.081666
44.530018 128.61725 -0.21914238 10.1165
44.584808 129.56117 -0.14035755 10.695167
44.691147 129.71336 -0.096120298 10.038
44.591316 137.31104 -0.30212256 14.02
44.647972 120.26219 0.21384872 12.2017
44.582115 120.6021 0.1924478 11.881157
44.629364 121.06632 0.23013686 13.137168
44.629761 121.3921 0.17656179 11.738029
44.443508 121.97763 0.073791571 10
44.637592 123.17608 0.37456545 11.0815
44.601036 124.29786 0.1450434 12.6686
44.600189 124.56055 0.24181829 12.466332
44.696564 125.05624 0.20325899 12.2646
44.552784 125.38353 0.14040181 11.742665
44.733509 126.56098 0.12083662 10.4425
44.475002 126.99626 0.20945702 10.1105
44.776291 127.29916 0.16114236 10.1115
44.647896 127.9442 0.12515856 10.094334
44.720806 128.24876 0.20425464 10.445333
44.793209 129.60278 0.09868411 10.1155
44.440777 130.31143 0.050621338 11.08525
44.619774 137.06961 0.28230339 10.121
44.619576 120.25079 0.56554079 11.899179
44.663296 120.6133 0.5966512 12.682491
44.673203 121.06905 0.60591698 11.549438
44.655804 121.39169 0.51261353 13.061101
44.580368 121.721 0.47730422 13.0955
44.500813 123.78974 0.57643789 11.58175
44.782467 124.36832 0.695189 14.083
44.638435 124.55765 0.55448383 12.0845
44.487904 125.06695 0.44831455 11.112
44.523079 125.30122 0.45900065 14.049875
44.660423 128.10077 0.51219356 11.1115
44.414082 129.82973 0.78987533 12
44.639145 130.46371 0.42052373 12
44.52103 130.83505 0.48926848 12
44.621128 136.53778 0.79625636 15.082
44.510677 136.87672 0.47110024 14.0835
44.584957 120.269 0.93927854 12.572943
44.584763 120.5903 0.8681438 12.697676
44.569611 120.99186 1.0077529 13.530128
44.578129 121.28925 1.0461675 13.764667
44.774075 123.99697 0.86623478 12.0815
44.538303 124.28349 0.9158932 12.541
44.568981 124.59157 0.97789681 12.40825
44.561916 125.00874 0.96203732 12.429389
44.619217 125.21666 1.1000204 14.0895
44.409138 125.99155 1.0658553 13.0845
44.497555 127.24206 0.99429202 11.481001
44.732925 127.64281 1.0236466 11.0825
44.583435 130.17436 1.132951 13.028834
44.522552 136.61502 0.89646238 15.08275
44.757431 120.27579 1.2873471 14.0795
44.542885 120.90723 1.321054 12.04175
44.783588 123.69392 1.299602 12.0815
44.509415 124.66795 1.2859714 12.431834
44.526554 124.90337 1.3881224 13.082
44.70668 125.49181 1.3642833 11.9058
44.671623 126.48727 1.445645 11.1105
44.63707 127.18253 1.4607219 11.1115
44.610802 127.47797 1.402159 11.652445
44.714874 128.18771 1.4065591 13.085
44.664227 129.9404 1.2751123 11.554
44.481129 130.51901 1.2258855 13
44.417519 133.18608 1.2639422 11.1185
44.575878 124.7369 1.999025 12.082
44.481716 126.4232 1.6444529 15.085
44.590553 127.40274 1.8063383 12.9535
44.500488 127.79216 1.7037212 11.0415
44.57436 128.45972 1.8800852 12.083
44.520248 129.47174 1.9495363 12.610001
44.611122 129.85178 1.7643642 13.430938
44.461208 130.14738 1.778411 14.04375
44.685452 127.35676 2.0851953 14.092834
44.677868 129.12769 2.2387226 12.083
44.555668 129.50429 2.2331567 13.248666
44.778618 130.0737 2.0475485 14.086001
44.606113 129.45227 2.5447819 13.636832
44.68132 129.60045 2.6243958 15.0915
45.091927 145.82561 -4.8324914 3
44.87616 146.21292 -4.8458076 3
44.807877 146.4585 -4.8427143 3
44.997032 147.40086 -4.8570628 4
45.062012 149.44951 -4.9007668 4.6666665
44.894184 149.71072 -4.8494453 4
45.119305 131.96045 -4.4007721 1
44.807884 133.44482 -4.420702 1
44.845718 133.85033 -4.4121881 1.25
44.980743 134.32458 -4.4158864 1
44.933582 134.67543 -4.4255433 1
44.872025 134.99045 -4.4328694 1.5
45.082542 135.45042 -4.4317207 2
44.805824 135.73669 -4.4362998 2
45.074116 140.19588 -4.6596694 2
45.019287 140.60982 -4.6793976 2.5
44.867111 140.95067 -4.6791639 2
44.932976 141.39558 -4.6998758 3.3333333
44.992409 143.83209 -4.7687311 3.5
44.968605 144.62384 -4.7880816 4
44.9179 145.38092 -4.7704272 3
45.077759 145.7606 -4.7865863 3
45.189316 146.35931 -4.781992 3
45.025761 146.6942 -4.7910142 3
45.009563 125.2452 -4.1101694 2
45.061043 129.72131 -4.3491678 1.5
45.056133 130.87744 -4.382493 5
45.058331 131.40552 -4.3873281 0.5
44.953915 132.36746 -4.3924332 4
45.131821 133.4191 -4.3957324 1
45.141891 123.43162 -3.2554097 6
44.95853 123.07127 -2.9266417 5.3333335
45.019596 123.27327 -2.9795089 6.2142859
45.052288 123.86875 -2.9856706 6
45.042667 124.1623 -2.9625747 5.75
45.029816 124.59161 -2.9215715 5.5999999
45.075893 124.86286 -2.9468765 5.6666665
45.199837 125.27572 -2.8631961 6
44.844616 122.25966 -2.4636619 8.0495005
44.99688 122.51812 -2.5174718 8.0815001
44.826706 123.02614 -2.6980114 6.5
44.93047 123.46452 -2.7396219 6.5
44.997723 124.87156 -2.6811516 7
45.001976 125.25924 -2.5314472 7.5098753
44.925426 120.15537 -2.0224483 10.037
45.068077 122.65399 -2.3737664 8.0883131
44.9772 122.93218 -2.1574512 8.0820007
45.109516 123.39036 -2.0841422 9.0487499
45.146675 123.757 -2.0596871 10.033
45.051807 124.10279 -2.0961113 10.034
45.131546 124.61443 -2.1258245 8.0045004
45.139534 125.04623 -2.0362692 8.0045004
44.917892 125.38053 -2.3240545 8.0128126
44.860592 129.93733 -2.0193102 10.531
44.886791 130.12564 -2.0336154 10.07575
44.812359 132.64316 -2.2867098 10.05
44.973633 133.11287 -2.1067069 10.0715
44.853016 133.37592 -2.0579176 9.0144997
44.923164 134.19963 -2.0072575 11.0415
44.849209 135.07332 -2.1018035 9.5639372
44.987907 120.15369 -1.8078685 9.071929
44.975132 120.57291 -1.6901476 9.0888338
45.167446 121.04795 -1.7520558 10.132299
45.110985 121.32874 -1.6723852 11.6795
45.058048 121.61945 -1.7840987 9.0974998
45.046017 122.76265 -1.7962027 10.56625
44.93457 122.98138 -1.7992277 9.3218393
45.110287 123.37584 -1.8976402 9.5692501
44.922062 123.86781 -1.6890823 10.7175
44.848736 124.38317 -1.8054514 10.0165
44.969234 125.47056 -1.8894582 9.5150003
44.852936 125.67274 -1.7973999 9.767437
45.07774 127.86073 -1.6200879 12.02825
45.061131 128.31728 -1.6500041 11.4078
45.090168 128.51468 -1.6107155 12.542625
44.911308 129.86876 -1.9519188 10.43875
44.858952 130.10701 -1.9709749 11.05375
44.965412 132.68092 -1.8203357 9.7346668
44.856293 132.87347 -1.7955939 10.734334
44.852962 133.21992 -1.9292845 10.079
44.933262 133.76196 -1.6822908 12.035
44.953587 134.03352 -1.817461 12.05175
44.891727 134.86398 -1.9854597 11.0395
44.967285 120.21883 -1.4255143 10.062818
44.962868 120.66735 -1.3802652 11.379984
45.142418 120.98114 -1.4465457 10.887655
45.094509 121.31114 -1.4232591 12.544523
45.059334 121.76576 -1.4638472 10.707614
45.028141 122.08447 -1.3767642 10.0865
45.087555 123.37103 -1.3474036 10.523056
45.198757 124.35458 -1.4111577 9.0054998
44.871281 124.66214 -1.370409 10.253599
44.879482 125.41825 -1.2161372 9.1125002
45.063515 127.90439 -1.3861964 12.219058
45.041855 128.27583 -1.4331701 12.893909
45.052906 128.53252 -1.4796723 12.582142
44.965588 129.31076 -1.2811344 14.05975
44.878166 132.70837 -1.5219694 12.071
44.988453 133.79442 -1.5199903 13.054
44.864166 134.00491 -1.5269802 13.055
44.894146 134.72354 -1.3137577 11.017
45.054638 120.12807 -0.93967175 10.282163
45.036774 120.60902 -1.0041162 9.8811913
44.988983 121.35284 -1.1682285 13.0225
45.141972 122.05942 -0.8433333 11.075999
44.863625 124.73438 -1.066714 10.364333
44.837429 124.95387 -1.1027099 10.389834
44.992756 125.44216 -1.0395932 14.03825
44.851254 127.56924 -1.188917 12.0175
44.977604 127.71684 -1.0651169 12.016001
44.977695 128.20308 -1.0711834 11.414719
44.961849 128.44269 -1.0696505 12.559667
44.94363 129.04854 -1.0146027 15.029
44.974312 129.20927 -1.1204579 15.061
44.995407 129.71219 -1.0483726 11.4565
45.101479 130.43109 -0.9555338 14.0265
45.066818 120.25563 -0.60834438 10.240001
45.03598 120.60282 -0.51853031 11.156721
44.995338 120.98732 -0.54793489 11.472249
44.966324 121.27461 -0.50899059 11.31725
44.99926 121.88358 -0.56967634 11.5505
44.955257 122.04873 -0.55249 11.0945
44.871853 124.29977 -0.4392198 10.082
44.965401 124.69727 -0.4276458 10
44.947926 124.86469 -0.47757348 10.336125
44.968937 125.40147 -0.54735363 11.555
45.017139 127.49667 -0.44584349 13.01425
44.927486 128.36398 -0.68327332 12.578375
45.003445 128.78284 -0.45883924 11.0855
45.109177 129.42831 -0.41415575 15.075
44.845299 129.70847 -0.55712152 15.074
44.810612 130.28288 -0.72350162 15.0255
44.96981 120.17301 -0.13888021 10.626531
45.079391 120.62031 -0.19049262 11.320312
44.938732 120.89178 -0.23607132 12.388416
44.950985 121.45279 -0.27076492 11.634834
44.955429 121.81515 -0.28712159 11.4223
44.999199 122.24802 -0.26061907 12.182143
44.802353 122.42117 -0.0594141 10.11
45.052731 123.86401 -0.22235 11.546249
44.961807 124.23528 -0.13332073 11.400542
44.979256 124.50757 -0.19895546 11.317143
44.906269 124.90532 -0.23509285 11.669624
45.053299 125.40272 -0.22732536 13.88875
45.041042 125.79536 -0.22920308 11.37725
45.121887 126.0787 -0.13776687 13.011
45.108738 127.47608 -0.070411906 10.115749
45.03463 127.75829 -0.14575447 11.084
44.974461 128.22981 -0.13465357 12.0759
45.007244 129.49742 -0.27465528 11.749583
45.015728 129.84555 -0.21584617 10.11525
45.008987 130.00558 -0.053239752 10.118
45.02253 120.20961 0.19393528 12.486204
45.052464 120.56256 0.25696352 12.055142
44.991829 120.99259 0.19860068 11.733944
44.984669 121.38892 0.18190861 13.066709
45.010513 121.72993 0.069720581 10.772
44.860714 122.28564 0.13599217 13.0085
45.140987 123.94258 0.20699382 10.108
45.064899 124.23915 0.1482999 10.972833
44.990314 124.54815 0.20742966 11.0928
44.882637 125.02249 0.12049399 12.283166
45.039642 125.3541 0.21386729 11.59425
44.972374 127.56761 0.12056234 10.113
44.853226 127.91259 0.25705588 10
45.195698 128.33765 0.14753993 12.085
44.836376 128.86812 0.23355994 10.113
44.994663 120.21109 0.59862322 12.897825
44.98975 120.60434 0.60303515 12.081546
45.044163 120.93988 0.60046893 13.3585
45.056602 121.89231 0.72179282 11.11275
45.041222 122.17794 0.52588284 15.0455
45.086113 123.89013 0.66946369 11.223312
44.972176 124.22016 0.49924296 12.588499
44.967934 124.6197 0.57545 11.602938
45.005054 124.91903 0.6495505 11.057375
44.982529 125.41531 0.62310785 13.092
44.939232 125.74027 0.62545657 11.60825
44.824795 127.88494 0.53815418 13.008
44.927338 130.52957 0.52794451 12.086001
44.9482 120.2077 1.0537074 12.166953
45.069527 120.57812 1.0450553 14.159954
44.860596 121.09366 1.1254503 12.0805
45.021973 121.34837 0.95814747 13.544001
45.064491 121.73843 0.96000212 11.779286
45.053612 122.02329 0.92424309 11.111
45.060574 123.98159 0.85009015 12.1065
44.969315 124.21774 0.99606675 13.299293
44.952114 124.59377 0.95624804 12.419499
44.871452 124.99255 1.0348699 13.200624
44.935253 125.45056 1.099998 11.856
44.883171 125.94803 1.0237837 11.7084
44.955711 126.16366 0.90545559 14.08475
45.162514 126.68185 1.0062342 11.116
44.958557 126.87475 1.0444534 12.6005
44.842793 127.42711 0.97960937 12.0825
45.09026 128.0408 0.92373532 11.0825
45.073078 128.87434 0.88885564 11.1155
44.87093 133.82684 0.82756674 15.0135
45.026905 120.21651 1.272945 13.022715
45.064964 120.44201 1.255837 13.05075
44.922951 123.6428 1.2413998 13.081
45.12114 124.31741 1.3221717 12.353875
45.002247 124.52458 1.4188801 13.2826
45.104839 125.04434 1.4094685 12.786299
44.962738 125.4182 1.4196264 13.227
44.817425 125.64317 1.4738673 12.112
45.149269 127.14758 1.2385535 11.114
44.937988 127.50878 1.3048002 11.2775
44.84914 129.84081 1.2439867 11
45.145679 130.0231 1.3750794 12.1075
45.00288 124.62205 1.6714042 13.585
44.99876 124.93562 1.6098049 12
44.941559 125.57837 1.6483186 13.59875
44.843967 125.82922 1.8518776 15.0895
44.992882 127.16419 1.6209142 13.0825
45.040924 127.2065 1.9878398 15.0845
44.854385 129.7722 1.8280722 12.341249
44.819744 130.10916 1.9597541 14.0915
44.96022 130.47838 1.8310335 14.089
44.96257 126.90876 2.1548009 14.086
44.90237 127.31565 2.0880642 15.08475
44.9161 129.26074 2.3881755 12.1175
44.984089 129.77266 2.1742396 13.757251
45.031685 129.37309 2.5326004 13.4285
44.866352 129.69516 2.513927 15.086
45.011486 135.90413 7.5729427 9.0340004
45.457996 144.70764 -4.8030953 3
45.487934 145.078 -4.8224921 3
45.332108 145.41144 -4.8302302 3
45.481792 147.09302 -4.8478746 4
45.415478 149.09377 -4.8922176 4
45.261227 149.43866 -4.8469491 4
45.40057 149.94101 -4.8845701 4
45.395279 134.32008 -4.4170561 2
45.25296 134.55035 -4.4282103 2
45.499359 138.22285 -4.6444035 2.3333333
45.276634 138.42705 -4.6573277 2
45.556583 139.04379 -4.6435399 2
45.367256 139.49883 -4.6459212 2
45.392048 139.77179 -4.6551118 2
45.456085 140.09085 -4.6780229 2.5
45.314922 141.08362 -4.7043366 3.6666667
45.367001 143.3432 -4.7396407 3
45.521542 144.1889 -4.7758837 3.25
45.255096 144.65146 -4.7799792 3
45.368225 145.04025 -4.755908 3
45.428726 145.48163 -4.774344 3
45.449394 145.8606 -4.7747893 3
45.504341 126.28546 -4.2770953 3
45.362801 129.36662 -4.3390164 2
45.461433 129.90096 -4.3430781 3.6666667
45.507923 130.28818 -4.3508434 3.5
45.515224 131.74881 -4.3838906 1
45.411133 132.08563 -4.3946643 1
45.378044 132.56874 -4.3944945 1
45.475487 133.0522 -4.392489 2
45.415253 123.40666 -3.0363057 6
45.259377 123.78966 -3.050709 5
45.476742 124.62524 -2.927098 6
45.498657 121.09215 -2.4655085 8
45.329464 122.69833 -2.5349605 8.0815001
45.424583 123.57511 -2.4722207 8.0815001
45.382774 124.54177 -2.5367682 8.0605001
45.355282 124.93481 -2.5806866 7.3396668
45.282375 125.28868 -2.7058382 7
45.467083 121.16768 -2.2268834 8.3434372
45.387524 121.27578 -2.2255874 8.3698568
45.405678 123.14266 -2.2320163 8.5815001
45.433235 123.71628 -2.1761928 8.0810003
45.327564 124.332 -2.0847116 10.0355
45.237179 125.00125 -2.1499965 8.0076666
45.262184 125.4238 -2.3899248 8.0172501
45.399391 120.13204 -1.6810626 9.2727003
45.498791 120.66156 -1.746667 10.042799
45.346268 120.97445 -1.7737803 10.2665
45.302452 121.32931 -1.8156374 10.780479
45.597519 121.9846 -1.9035442 9.0795002
45.29287 123.0876 -1.8725468 9.0061922
45.35535 123.38189 -1.8545547 9.0854282
45.336353 123.68201 -1.7569747 9.0100002
45.393307 124.12144 -1.6938095 10.015333
45.328144 127.84692 -1.6785002 11.526751
45.247593 128.47504 -1.6926607 10.52
45.396641 120.19631 -1.4140885 9.7358837
45.394451 120.61243 -1.4232861 10.652122
45.403675 120.96063 -1.5190182 10.507277
45.342403 121.46267 -1.5211015 12.812584
45.511318 121.85631 -1.413296 13.336826
45.39027 122.08998 -1.5275465 13.048
45.561535 122.43099 -1.5033107 13.04975
45.291264 123.28003 -1.4364232 10.0815
45.275032 124.47864 -1.5455798 9.0074997
45.354546 127.81165 -1.43862 13.322296
45.254349 128.2075 -1.3782933 10.472751
45.229412 128.42175 -1.5657256 11.0205
45.357132 120.24191 -1.1105467 10.368473
45.305622 120.55324 -1.0267377 10.2631
45.287861 121.02998 -1.1642957 10.541
45.511047 121.41626 -0.92148936 9.1040001
45.374325 121.86034 -1.0264268 10.334249
45.258423 122.22291 -0.81710219 15.0255
45.304752 125.5509 -1.0952706 10.009
45.394348 127.54174 -1.0299327 12.0165
45.391548 127.88326 -1.0122156 11.080221
45.359749 128.06345 -1.1711212 9.0271244
45.218021 128.43718 -1.0718344 13.357
45.392601 129.4623 -0.82993048 14.072
45.212322 129.9557 -1.056116 15.0375
45.367439 120.20011 -0.59885603 11.127478
45.308464 120.57331 -0.53065544 11.186999
45.36565 121.00658 -0.60803115 11.762772
45.454414 121.3977 -0.56238365 12.165857
45.258095 121.86708 -0.64639717 12.249701
45.469952 122.2205 -0.64987403 12.0805
45.406071 125.14856 -0.66799337 12.012668
45.3769 125.34994 -0.61082762 10.834708
45.263565 127.40401 -0.69170767 15.023
45.472557 127.92645 -0.6170727 13.743
45.395805 128.20758 -0.66812801 15.056832
45.545757 130.10762 -0.5160374 15.026
45.338661 120.15557 -0.20746987 11.582038
45.371078 120.55724 -0.19647229 11.961975
45.337219 120.99538 -0.14696056 11.08125
45.349598 121.45579 -0.23639438 10.100333
45.498493 121.79759 -0.30335096 13.046375
45.250912 122.02266 -0.2798253 13.01025
45.306271 124.63531 -0.17987409 11.091249
45.259533 125.30091 -0.21021327 11.0815
45.41983 126.01569 -0.0021592423 14.0135
45.498962 130.189 -0.32320264 15.023
45.367027 120.14666 0.2111606 11.92074
45.414364 120.65576 0.040673524 11.430584
45.419758 121.08634 0.10632383 11.6965
45.309952 121.28985 0.13696711 11.910728
45.48711 122.01857 0.38624164 15.013
45.473465 123.5347 0.21333092 10.107
45.414555 123.71335 0.22977255 10.107
45.343296 124.1898 0.19019186 10.394358
45.255199 124.70892 0.34004059 13.0825
45.366959 125.35367 0.35413522 13.08425
45.438744 126.96501 0.26210919 10.11
45.277916 127.44627 0.20422953 10.112
45.449944 128.14523 0.12950867 10.02775
45.451149 128.61038 0.29921356 10.1115
45.404465 128.81467 0.31540021 10.111
45.455051 120.07547 0.58715314 13.549062
45.375378 120.54535 0.63374829 14.057834
45.411919 120.96919 0.66341978 11.955667
45.399418 121.55359 0.55749214 11.4966
45.379627 121.6862 0.56702292 14.390334
45.313972 123.51861 0.54244757 11.11275
45.411625 123.78204 0.62093216 12.414668
45.300789 124.38454 0.47030121 9.0885
45.215027 124.90005 0.60663235 11
45.326511 120.18842 0.95543772 12.359668
45.405365 120.70042 0.92383224 13.079624
45.394073 120.96464 0.96354449 14.573293
45.430313 121.32867 1.0576721 13.04425
45.278015 123.77484 0.94722527 13.087083
45.377758 124.18042 1.0754695 11.254213
45.236267 124.9612 1.1357365 11.104625
45.255573 127.79562 0.88052893 13.547001
45.240795 128.69409 0.94984496 11.116
45.414059 128.93906 1.1802169 11.117
45.52644 129.69595 1.1651406 11.1175
45.262924 120.8145 1.2791582 13.0795
45.325634 123.66032 1.2727389 13.0805
45.392246 124.18256 1.3016641 13.686999
45.300194 124.51675 1.3127416 13.640167
45.269703 125.34412 1.4054357 11.857876
45.504993 128.42931 1.2222793 12.1065
45.507774 129.51907 1.3669597 11.115499
45.423283 129.76956 1.4194491 11.11525
45.538376 124.23888 1.7834533 12.081
45.492416 124.45634 1.677915 13.584249
45.55283 124.82579 1.6349905 12.113
45.579857 126.87736 1.7295872 13.0815
45.284561 127.39149 1.9278101 12.582
45.209145 127.258 2.0874608 14.084
45.852146 144.21725 -4.8060155 3
45.649166 144.73788 -4.8170094 3
45.644737 145.42491 -4.8012948 5
45.785683 146.93861 -4.8524256 4
45.757282 148.79465 -4.888566 4
45.78651 148.99991 -4.8411903 4
45.743954 149.63853 -4.8813448 4
45.932144 136.61496 -4.5948515 3
45.92239 137.04199 -4.6308575 2.5
45.911476 137.46631 -4.6365075 2
45.712589 137.86746 -4.6474562 2
45.765072 138.28191 -4.6074247 2.6666667
45.859547 138.71777 -4.6464853 3
45.77924 139.20125 -4.6524897 2
45.85693 139.85155 -4.6898308 3
45.615623 140.10294 -4.6872835 3
45.666973 140.57086 -4.6952233 3
45.721386 141.03195 -4.7067041 3
45.760723 141.59015 -4.7207808 3
45.761562 141.83087 -4.7184792 3.5
45.879913 142.5667 -4.7390242 3
45.848011 143.03258 -4.7534227 3
45.807076 143.41133 -4.7731795 3.3333333
45.8564 143.74574 -4.7448592 3
45.824528 144.16095 -4.7456222 3.25
45.728592 144.54495 -4.7510433 3
45.766094 145.07703 -4.7590122 3
45.943108 125.5608 -4.247674 3
45.769859 127.00707 -4.3175263 0
45.980392 129.17702 -4.3331103 1
45.988716 129.42558 -4.3332357 1
45.779591 129.80388 -4.337121 2.3333333
45.734783 130.19415 -4.2977996 4
45.963688 130.58157 -4.3487654 2
45.785088 130.98279 -4.3659782 1.5
45.833256 131.41992 -4.3733778 1.25
45.875004 131.8683 -4.3813734 1.5
45.790688 132.07327 -4.3741627 3
45.748211 121.12654 -2.4034455 8.1059999
45.798748 123.68734 -2.6264987 8.0815001
45.699699 121.10266 -2.2607176 8.1075001
45.618877 121.23337 -2.328856 8.1075001
45.799706 121.94254 -2.0426521 9.0819998
45.727673 120.20665 -1.711473 10.03755
45.730324 120.54312 -1.7415661 9.7086668
45.642685 120.80999 -1.7807289 9.0959997
45.623661 121.24217 -1.938428 8.0799999
45.711853 121.89339 -1.7982247 10.714286
45.764885 122.05039 -1.8920999 10.375834
45.743946 120.12594 -1.3194069 9.8324537
45.718925 120.63643 -1.3987974 11.0354
45.675259 120.87733 -1.3897569 12.061251
45.745815 121.83124 -1.4897854 11.839039
45.714672 122.20287 -1.3503789 13.53685
45.779926 120.22373 -1.0929588 11.079
45.799461 120.72042 -0.97809368 10.08
45.815361 120.93584 -1.052516 10.5695
45.82328 121.96455 -1.1825811 14.042
45.67141 125.18768 -1.1072966 9.1105003
45.737785 125.41503 -0.83389062 11.083
45.643017 127.80441 -1.0773977 11.090667
45.694706 120.30293 -0.54713196 10.029938
45.767925 120.56971 -0.5165748 11.408417
45.802174 121.0033 -0.59186035 11.576249
45.737022 121.33256 -0.60630488 13.709
45.679535 121.73071 -0.49045551 10.724584
45.736111 125.33508 -0.51495457 11.044333
45.744591 125.61406 -0.67919272 11.0825
45.679897 127.7095 -0.74140602 15.067
45.812317 120.20911 -0.23659189 11.84945
45.746143 120.49815 -0.28851455 11.909771
45.85273 121.15881 -0.031760626 10.0815
45.883621 121.37503 -0.21632913 11.304668
45.965183 121.6898 -0.067231327 11.104
45.725285 122.07352 -0.017248845 12.51
45.886822 125.14462 -0.015269765 10.1125
45.742619 125.31846 -0.31208286 11.377833
45.723904 120.08521 0.12519474 11.67365
45.867249 121.12865 0.054113831 13.084
45.718834 121.54395 0.29187158 14.0105
45.758602 121.60615 0.021685429 13.079
45.799221 122.33715 0.32635939 10.1055
45.881779 124.95023 0.14742874 10.109
45.689377 127.91332 0.33770797 10.11
45.707275 120.12022 0.61092651 12.464101
45.720345 120.59669 0.62394118 12.426002
45.676327 120.89793 0.66769832 13.856668
45.789684 121.31558 0.70740223 11.081
45.616047 122.04427 0.70185792 15.08
45.825981 124.06927 0.63746983 11.082
45.722637 120.06332 0.95025253 13.16675
45.751072 120.73912 0.86811596 15.078
45.726082 120.89629 1.0135866 13.086625
45.6031 121.25302 0.96539104 13.5935
45.927761 123.93738 0.97639352 11.11275
45.82172 124.2261 1.1422659 14.085626
45.786736 124.44096 1.1205598 13.2851
45.940414 127.72775 0.91682988 11.115
45.648285 120.72138 1.2706052 12.0795
45.690594 120.9659 1.2743592 15.079
45.784077 124.173 1.2812902 13.975861
45.714081 124.66895 1.4655432 11.443667
45.896629 124.95647 1.4885414 11.610001
45.809196 125.33396 1.3631825 11.101001
45.897572 126.68443 1.5552008 11.11
45.739994 124.35077 1.8173175 13.0805
45.715191 124.64841 1.6949965 13.09775
45.739902 124.88117 1.7556603 14.08575
45.695335 125.43233 1.850675 13.426167
45.649292 124.6069 2.0338628 12.081
45.875172 127.58416 2.1999531 12.0815
45.974377 128.77655 2.0201094 12.114
45.771755 127.40405 2.4140127 12.0815
46.014633 144.16794 -4.8006449 4
46.218262 145.26723 -4.8044496 5
46.094334 145.9131 -4.8310337 5
46.226238 146.60136 -4.8420429 4
46.199192 148.51616 -4.8610911 4
46.158562 149.35487 -4.9142294 4.3333335
46.359058 149.86162 -4.9388146 4
46.244877 134.52229 -4.5872102 2
46.004898 135.60938 -4.6043038 2
46.323799 136.75638 -4.6246643 3
46.181915 137.13362 -4.6257586 3
46.192295 137.8259 -4.6499619 2.5
46.352814 138.35916 -4.6248012 3
46.158318 138.59273 -4.6606193 2.5
46.307579 139.31863 -4.6837964 3
46.24501 139.79094 -4.6813645 3
46.135056 140.15527 -4.654881 3
