# .PCD v0.7 - Point Cloud Data file format
VERSION 0.7
FIELDS x y z intensity
SIZE 4 4 4 4
TYPE F F F F
COUNT 1 1 1 1
WIDTH 1230
HEIGHT 1
VIEWPOINT 0 0 0 1 0 0 0
POINTS 1230
DATA ascii
41.705002 -38.712605 0.33066112 3
41.739437 -38.076363 0.30124891 3.3333333
41.774151 -37.868347 0.30027965 3
41.76255 -37.470371 0.28755891 4
41.741405 -36.913708 0.25805685 2
41.841873 -36.631359 0.23637412 2.5
41.862251 -36.256218 0.18283357 4
41.777306 -35.393333 0.16711065 3
41.997959 -35.184574 0.17086966 3
41.721745 -34.508972 0.1532342 3
41.86821 -33.805801 0.18428276 4.1428571
41.786945 -33.508633 0.28630173 3.5
41.608303 -45.048965 0.74446386 5
41.722153 -44.765152 0.66437095 3
41.852962 -44.173908 0.75565732 4
41.83765 -43.825996 0.63270003 4.6666665
41.808968 -42.576714 0.55419987 3.3333333
41.753052 -41.881432 0.50375426 4
41.843662 -41.393856 0.45766485 4.5
41.889881 -40.943428 0.43083358 4
41.755253 -40.650639 0.47306383 2.6666667
41.933342 -40.362919 0.43182135 2
41.723907 -39.696686 0.40129337 3
41.804501 -33.722374 0.46463823 2.5
41.782822 -33.324932 0.6365307 4.6666665
41.828438 -32.9879 0.69636703 4.96875
41.697544 -32.672043 0.53864002 0.5
41.911774 -32.213726 0.65435362 2.5
41.779354 -31.87929 0.69930547 1.4333333
41.875275 -31.328611 0.7452184 3.9333332
41.846535 -31.059555 0.68084085 1.5
41.833405 -30.542589 0.71316528 5.9000001
41.81176 -30.123016 0.66935164 3.2727273
41.99305 -46.341492 1.1683232 1
41.919727 -44.945038 1.130536 1
41.93375 -44.472549 1.0021634 5
41.749218 -44.225922 0.94979411 3.5
41.600071 -34.144691 1.1041014 4
41.807201 -33.348442 0.90810508 5.5
41.806957 -32.962807 0.99815983 4.1759262
41.719448 -32.737484 1.0160156 3.5833333
41.782818 -31.752655 0.92120475 2.5
41.855167 -31.341778 1.0157776 4.2651515
41.939621 -31.089314 0.97333223 5.5714288
41.842346 -30.588341 1.0182682 5.6111112
41.69537 -30.332226 1.0145532 5.25
41.994713 -58.968674 1.5972347 1
41.926773 -58.469067 1.5609534 1.3333334
41.973782 -58.168629 1.5388099 1.5666666
41.831581 -57.807507 1.5637652 1.9
41.971375 -57.424583 1.5412657 1.0833334
41.860104 -56.933537 1.4863106 1.8
41.935501 -53.061169 1.5524377 2
41.601646 -52.374134 1.5486037 3
41.950356 -51.451027 1.5702071 3.5
41.908295 -50.970013 1.5848297 2.6666667
41.82151 -50.608055 1.534324 3.75
41.74527 -50.289455 1.5319111 2.5
41.741928 -49.751366 1.4209714 2
41.778221 -49.286194 1.4800192 4
41.812088 -48.992931 1.4899188 3.2777777
41.806694 -48.679482 1.5123221 3.6666667
41.734009 -48.215126 1.4327341 7
41.978741 -47.76049 1.4118609 4
41.834572 -47.572975 1.303251 3
41.929443 -46.828491 1.3577006 2
41.725178 -46.591213 1.2757607 2
41.77219 -46.184856 1.3255174 3.2857144
41.972153 -45.797287 1.2885604 4.5
41.81562 -45.436985 1.2919638 2.5833333
41.681149 -34.088459 1.2503601 4
41.942039 -33.730419 1.5885253 7
41.936958 -33.326962 1.4341941 5.4000001
41.825554 -32.855434 1.5245056 6.9444447
41.770611 -32.769123 1.4687053 6.2333331
41.984306 -32.058727 1.3683264 6
41.859798 -31.798176 1.3754624 5.5
41.836494 -31.288841 1.4250175 5.8611112
41.9156 -31.141573 1.424089 5.7333331
41.887123 -30.537004 1.3818352 5.6666665
41.844662 -30.190943 1.5006289 6.84058
41.755043 -59.778049 1.7728413 2.9000001
41.786854 -59.445187 1.786136 2.6666667
41.909 -58.998543 1.849419 3.5079367
41.958111 -58.586647 1.8004247 3.1060603
41.935905 -58.213558 1.7896297 3.0652175
41.908978 -57.817547 1.8145272 2.6470585
41.936523 -57.383347 1.8233353 3.2717948
41.888939 -57.003777 1.8495747 3.3846154
41.853573 -56.610504 1.8063736 3.2023809
41.835609 -56.253704 1.7663318 3.0416667
41.837833 -55.845245 1.7312646 3
41.813671 -55.435333 1.7172539 3.5999999
41.848141 -55.029716 1.7611799 3.8333333
41.865429 -54.609886 1.7005113 3.5
41.710995 -54.174129 1.759979 4
41.722839 -53.758503 1.7495434 3.4285715
41.763054 -53.421806 1.7600081 3.9375
41.85881 -53.132671 1.7618675 3.5714285
41.864426 -52.184654 1.6821855 3.4285715
41.938255 -51.912384 1.6231799 3
41.796951 -51.408627 1.7990483 4.6111112
41.822231 -51.023735 1.7342167 3.7666667
41.913559 -50.611847 1.8693615 4.3062501
41.92844 -50.349213 1.7282052 3.375
41.790508 -49.977753 1.6449509 4
41.821186 -49.294651 1.9216032 4.8333335
41.715847 -49.008598 1.8220719 5.1568627
41.784649 -48.621414 1.7750399 4.7272725
41.922749 -48.146839 1.8725786 6.5
41.771507 -33.69326 1.7372324 7.2567501
41.81509 -33.404446 1.7092137 7.2690244
41.869106 -32.926487 1.8727113 8.174654
41.86898 -32.754936 1.7875061 7.6666665
41.917267 -32.118481 1.9109105 8.4925604
41.90963 -31.983427 1.9096683 8.4397917
41.883991 -31.289509 1.8351134 8.0516119
41.923183 -31.101803 1.8247831 8.1642704
41.852661 -30.617756 1.8865685 8.5410166
41.876431 -30.174479 1.8138893 8.4730501
41.914371 -58.933281 2.0890517 3.5
41.951481 -58.627872 2.1046002 4.3636365
41.930111 -58.193966 2.0914235 4.2894735
41.873299 -57.784985 2.0786293 4.358974
41.882683 -57.397678 2.0598991 4.5185184
41.880878 -57.017506 2.0710683 4.5142856
41.83287 -56.69812 2.038372 4.5999999
41.76738 -54.040356 2.2950344 5.8333335
41.834801 -53.842392 2.181128 5.5900002
41.810555 -53.428299 2.1623163 5.358974
41.870678 -53.064346 2.1712174 5.3076925
41.84713 -51.313854 2.101341 5.5416665
41.779465 -51.002865 2.2280424 6.0535712
41.866528 -50.616112 2.1913073 5.7013893
41.90667 -50.311302 2.3174658 6.5
41.788994 -49.720654 2.3574524 7
41.809132 -49.357498 2.2391815 6.125
41.756771 -48.99744 2.1541226 6
41.80447 -48.566097 2.1515002 6.5
41.810993 -48.267811 2.2833138 7.0680313
41.908298 -44.869938 2.2205658 7
41.941219 -44.701317 2.1989579 7.1811662
41.950687 -44.380013 2.1498425 7
41.758213 -34.069599 2.3068461 8.7845001
41.860546 -33.81847 2.2939863 9.2969751
41.857372 -33.473248 2.2696831 9.0014315
41.890842 -33.055 2.2102921 8.8891745
41.906578 -32.728149 2.0683362 9.2788124
41.775829 -32.145237 2.2712789 10.163666
41.804657 -31.958433 2.1398098 9.8009996
41.853283 -31.276043 2.1037858 9.2294073
41.918114 -31.113945 2.2199712 10.57806
41.831863 -30.683784 2.1270735 9.9345407
41.916401 -30.15659 2.1551776 9.9594173
41.907616 -59.901382 2.6603215 6.54425
41.83617 -54.0481 2.5815639 6.458333
41.847084 -53.794701 2.6699924 6.9654832
41.814541 -53.46455 2.6473782 7.3682761
41.727089 -53.125175 2.7682977 8.0558996
41.978142 -50.832756 2.670722 8.0780001
41.893959 -50.471653 2.7027781 8.2006855
41.907333 -50.229546 2.6117289 7.6948795
41.84967 -49.821835 2.6699486 8.2324419
41.749847 -49.485386 2.6228006 8.1465559
41.790592 -49.030128 2.617718 7.8531666
41.897736 -48.502197 2.6168942 8.3006268
41.794308 -48.2052 2.6338732 8.4029694
41.671761 -47.874756 2.6603732 8.0483751
41.98719 -45.874615 2.7541521 8.0105
41.902267 -44.524963 2.7244432 9.8032494
41.890373 -44.219669 2.6849039 8.9220448
41.921726 -43.954605 2.7036707 8.0089998
41.685246 -34.0728 2.4385123 10.0299
41.856892 -33.857616 2.4330039 9.6109495
41.863876 -33.347275 2.6413221 10.46941
41.869694 -32.996357 2.6008427 9.5567808
41.954685 -32.673409 2.6755998 9.6813335
41.733517 -32.180119 2.5947294 11.780417
41.973083 -31.791262 2.5868254 13.04975
41.941959 -31.316568 2.6003485 11.923556
41.942158 -31.093193 2.539037 12.366549
41.783333 -30.565958 2.5803549 12.331822
41.899216 -30.311867 2.5958352 12.803166
41.796783 -59.848572 3.0865879 7.9959841
41.987926 -54.419399 2.8483651 8.0804996
41.824245 -54.132885 2.9305034 8.0617743
41.812073 -53.807564 2.9472666 8.0126762
41.843201 -53.379757 3.0404007 8.7345219
41.861095 -53.019958 3.0663288 9.2530499
41.739693 -52.771023 3.1612689 10.051
41.752953 -51.653755 3.07968 9.0762501
41.81982 -51.284477 3.0998139 8.7486801
41.826332 -51.022224 2.9981201 8.9386616
41.870647 -50.534172 2.9684198 9.0855751
41.887489 -50.220734 2.9857121 9.1631603
41.869038 -49.836391 2.9378369 9.433567
41.791988 -49.393932 2.9019783 8.6964159
41.855125 -48.928181 3.0606406 9.6465797
41.88781 -48.589424 3.0535665 9.6268187
41.843357 -48.173626 3.032069 9.8778276
41.798756 -47.860821 3.0808918 9.0345707
41.955551 -46.061871 2.93521 9.9448748
41.830425 -45.728813 3.0206845 8.9871855
41.822746 -45.50988 3.0696285 8.2136497
41.950371 -44.934071 3.0014379 10.794708
41.909325 -44.60611 2.9558699 10.188499
41.834259 -44.227825 3.0355737 9.7500172
41.901325 -43.799976 3.0743482 10.0505
41.883457 -34.071907 3.1065099 10.595357
41.811394 -33.909149 3.1286137 15.05275
41.864716 -33.235119 2.8164096 12.026125
41.801762 -33.00058 2.9149234 12.282118
41.823727 -32.651615 3.0145757 12.9302
41.829609 -32.176422 3.006346 12.451793
41.877247 -31.833227 2.9594476 11.629499
41.83065 -31.521803 2.9209437 13.475571
41.88113 -31.012041 2.992125 14.037583
41.7024 -30.720711 3.0052819 15.056
41.74577 -30.133068 2.9024906 14.55475
41.839691 -59.778645 3.4582498 8.8808727
41.761913 -54.127159 3.457068 8.8876877
41.765297 -53.804646 3.4006867 9.5358677
41.869339 -53.509636 3.3161905 9.6087322
41.670437 -52.907482 3.3049972 9.6877003
41.614487 -52.751091 3.3564522 10.0305
41.775448 -51.315071 3.3840051 9.6998997
41.879387 -51.034027 3.4005957 10.279497
41.879623 -50.585175 3.3909311 10.568825
41.811169 -50.292023 3.3737981 10.966053
41.819645 -49.765015 3.5125682 10.776607
41.818707 -49.426208 3.5052924 11.43335
41.768009 -48.940399 3.4002221 11.121393
41.823742 -48.573627 3.3796332 11.101199
41.824448 -48.174187 3.3422487 11.319969
41.922352 -47.956394 3.2234285 9.0132504
41.923599 -45.667122 3.2604597 11.367251
41.777328 -45.396309 3.3621616 10.01675
41.907917 -45.074711 3.4554858 12.026166
41.640469 -44.703758 3.5415533 13.0295
41.837029 -44.18755 3.4390762 11.412453
41.869522 -43.968758 3.4350879 11.572624
41.909416 -34.004906 3.2478583 14.052375
41.930016 -33.80685 3.3288808 11.329374
41.681541 -33.260468 3.5661173 9
41.776672 -32.94873 3.5047619 11.009
41.691422 -32.607582 3.2985392 12.4183
41.731491 -32.109821 3.2612464 13.408463
41.722488 -31.897215 3.4777434 13.108791
41.798161 -31.47747 3.4740634 13.518167
41.744003 -30.197166 3.356178 13.017
41.871437 -59.869099 3.7558486 9.5454578
41.821384 -54.061344 3.7031801 10.256473
41.810062 -53.82053 3.7820234 10.758164
41.857597 -53.407452 3.78705 11.542565
41.806812 -52.968208 3.7858105 11.906617
41.831257 -51.316822 3.7620759 10.317271
41.870491 -51.034336 3.7777784 11.260904
41.844269 -50.633381 3.8362932 12.431515
41.789322 -50.06171 3.7280354 10
41.883461 -49.704449 3.6743999 12.384833
41.811962 -49.336651 3.7521374 12.704333
41.838379 -48.950821 3.8991158 14.047
41.850174 -48.583794 3.7879968 10.347667
41.945801 -48.012936 3.6026886 11.018
41.736576 -45.380833 3.8161256 12.814322
41.768761 -45.061016 3.8393309 12.688666
41.827271 -44.605335 3.8599503 11.747692
41.819275 -44.285145 3.6956799 12.820063
41.668793 -33.35231 3.7168579 11.526
41.780769 -32.956509 3.7902865 10.290107
41.639912 -32.436401 3.8431203 9
41.690151 -32.223843 3.7452018 13.030666
41.831356 -31.905474 3.7201526 14.351666
41.836868 -30.590038 3.8076887 12.01725
41.630226 -30.071594 3.8256686 12.011
41.808315 -59.944416 4.084619 10.479205
41.790245 -54.151203 4.1436129 10.454215
41.841972 -53.822186 4.1738911 12.004341
41.795975 -53.382339 4.2350779 13.571984
41.826115 -53.050251 4.3320599 14.047937
41.890507 -52.770683 4.3425107 14.546
41.848358 -50.907639 4.1229477 11.159693
41.843262 -50.662384 4.150619 12.070601
41.759411 -50.188728 4.2522535 12.637694
41.774082 -49.769287 4.1686983 12.601548
41.79599 -49.360516 4.2075825 12.664532
41.844524 -49.006462 4.1315885 12.925417
41.864906 -48.736904 4.1149111 11.349334
41.961472 -45.404034 4.1129069 13.18425
41.777138 -45.001389 4.1339254 12.238251
41.881741 -44.567295 4.0587897 13.176594
41.705948 -34.115017 4.2507887 12.677501
41.708546 -33.820389 4.1993322 10.0045
41.788231 -32.645317 4.0724511 10.004
41.776398 -32.327831 4.0967927 12.0135
41.862057 -31.18894 4.2188592 11.006
41.939404 -59.803425 4.7963786 14.06
41.98922 -59.578106 4.633194 12.07375
41.761002 -53.72356 4.5843568 13.037231
41.842648 -53.376556 4.5978074 13.810999
41.77261 -52.991722 4.6744146 13.7065
41.661816 -52.771763 4.4251981 15.0615
41.813644 -51.340893 4.6664739 12.679749
41.704502 -50.914246 4.6895485 12.04625
41.811577 -50.458992 4.6185145 14.0465
41.790497 -50.149609 4.5671902 13.260316
41.806629 -49.787674 4.5019903 12.787188
41.741123 -49.397396 4.5166988 12.2385
41.867989 -49.000694 4.5070677 12.54425
41.871078 -48.324974 4.5163794 13.5175
41.857731 -34.117134 4.5551763 12.0081
41.819672 -33.833473 4.6296072 12.840167
41.709354 -31.257061 4.6314154 15.0135
41.917015 -30.547787 4.4374547 15.0135
41.872852 -59.850376 4.8674445 12.355083
41.945362 -59.379387 4.8850904 14.052501
41.900269 -34.118015 5.0719676 12.809401
41.723194 -33.873314 4.9805193 11.8415
41.728706 -32.312897 5.1556535 11.004
41.889843 -31.8834 5.1032524 14.343499
41.826443 -59.799164 5.3496728 13.275551
41.866463 -34.169155 5.2758012 13.67525
41.774063 -33.769646 5.406158 12.005751
41.785732 -32.487705 5.5260315 13.50725
41.80632 -32.036785 5.3046398 13.5075
41.734459 -31.923523 5.2576108 10.507
41.871479 -33.615471 5.6491175 14.008
41.843678 -32.972279 5.8221736 11.0065
41.821949 -32.190594 5.8304405 12.504749
41.705597 -31.870245 5.6701274 15.01
41.801277 -32.615726 6.1452088 12.863358
42.388657 -41.036411 0.38385352 5
42.13821 -40.149796 0.38611507 3
42.32468 -39.94706 0.39789033 2
42.247093 -39.495674 0.36937788 4
42.234539 -39.039478 0.33717772 2.75
42.37701 -38.64315 0.32173806 2.5
42.20039 -38.090691 0.30068201 3
42.105419 -37.77586 0.28520715 3.3333333
42.268806 -37.411949 0.27856821 2.6666667
42.174999 -36.95372 0.19688773 3.5
42.073063 -36.557774 0.16563456 4
42.281876 -36.23579 0.15171219 3.5
42.147812 -35.882088 0.16444363 3.5
42.075611 -35.321236 0.10407321 5
42.215897 -34.987972 0.14642869 2.1666667
42.278179 -34.602692 0.12501591 4
42.141102 -34.24366 0.096153513 4
42.249825 -33.784637 0.1992566 4.1428571
42.135082 -33.418732 0.25881663 4
42.101204 -44.37513 0.73688471 5
42.240814 -43.736935 0.70455283 4.3333335
42.217361 -43.371254 0.60398543 5
42.279217 -43.005848 0.5588302 3
42.170044 -42.741653 0.54765767 4
42.269485 -42.213074 0.50733566 3.75
42.206432 -41.922997 0.50402224 3
42.232792 -41.42701 0.43810916 5
42.264656 -41.048241 0.4659586 2.8
42.204281 -40.099724 0.4107033 2.3333333
42.019169 -39.884773 0.40557286 3
42.28809 -33.37685 0.63070172 6
42.197033 -33.033859 0.74143565 3.5
42.24448 -32.647823 0.69928664 4.875
42.22155 -32.155582 0.64684778 1.3333334
42.195236 -31.807396 0.64202875 2.4583333
42.137661 -31.355207 0.70595437 1.5166667
42.24094 -30.933622 0.62775546 1.6666666
42.165905 -30.592798 0.67617196 3.4166667
42.157677 -30.235079 0.63177842 2.4166665
42.032848 -45.270084 1.1380016 4.5
42.349876 -45.146309 1.1633826 2
42.104843 -44.541245 1.1354352 1.75
42.187397 -44.224976 1.1012567 2.8235295
42.254272 -43.832104 1.0227127 4
42.358662 -43.533619 1.0098695 0
42.387897 -34.189445 1.1436441 4
42.270321 -33.360287 0.91484362 1.5
42.125366 -32.955032 1.0087984 5
42.293983 -32.663494 0.98369473 4.6428571
42.108707 -32.114662 1.1082518 4.5
42.215168 -31.365131 0.98303038 3.3988097
42.142078 -31.005039 0.98133022 3.8333333
42.181858 -30.662991 1.0244462 5.5625
42.001202 -59.059776 1.5815132 4
42.152229 -57.584541 1.5929737 4
42.16507 -56.576614 1.5462708 2.5
42.279144 -53.74902 1.4625934 1
42.125725 -51.466675 1.5630844 2
42.35215 -50.9324 1.5731585 3
42.262897 -50.574677 1.5538527 2.5
42.245815 -50.132927 1.5312636 2.5
42.267044 -49.752846 1.4781008 2.0555556
42.200993 -49.444321 1.447543 1.9
42.202126 -48.972462 1.4374857 1.7777777
42.313812 -48.572109 1.4876466 3.375
42.154648 -48.302383 1.253858 3
42.291599 -47.67572 1.4154143 4.1428571
42.198879 -47.41877 1.3373328 2.5
42.30143 -47.044773 1.4090288 2.75
42.221916 -46.579193 1.4122882 2.7916667
42.119778 -46.173012 1.2932467 2.25
42.132378 -45.654411 1.3149245 3.25
42.192787 -45.373417 1.2623053 3.0952382
42.317253 -45.067524 1.2858595 2
42.185101 -44.655441 1.4050545 4.1666665
42.376812 -34.469177 1.2573904 5
42.365192 -34.174561 1.4083589 4.8785715
42.189228 -33.907108 1.4305989 5.25
42.256653 -33.385216 1.2889283 4
42.217709 -32.984753 1.4109571 5.9285712
42.287811 -32.744995 1.3927646 5.3000002
42.139496 -32.154816 1.3515533 5.5
42.107719 -31.226788 1.4442046 5.8000002
42.080345 -31.026819 1.4026581 5.7916665
42.279835 -30.542517 1.4384817 6.590909
42.197506 -30.138224 1.3935653 6.1190476
42.113056 -59.813179 1.8342174 3.75
42.180916 -59.358414 1.810199 3.0238097
42.050526 -58.996605 1.8043908 3.5
42.038601 -58.594112 1.7546639 3.2142856
42.101921 -57.818871 1.7405381 3.25
42.01812 -57.56797 1.6719368 3.5
42.013851 -57.138138 1.7091323 2
42.181553 -56.55357 1.7116992 2.8
42.103428 -56.168499 1.7037281 2.75
42.201229 -55.818554 1.6995199 2.4000001
42.158596 -55.43829 1.793779 3.1818182
42.145893 -54.995163 1.7426288 2.5999999
42.218304 -54.574699 1.774595 3.8333333
42.189537 -54.219151 1.7541807 4.5714288
42.13419 -53.844883 1.8633335 3.8846154
42.15023 -53.394051 1.7161922 2.7777777
42.16621 -53.048264 1.8029485 3.6666667
42.2486 -52.651226 1.6442258 2.6666667
42.223045 -52.241989 1.7241776 4
42.230343 -51.846165 1.6547687 2.5
42.123131 -51.262482 1.8054661 4.75
42.160805 -50.928345 1.7230015 4
42.11071 -50.587498 1.7026743 3.4629629
42.197277 -50.189079 1.6901186 3.6666667
42.370407 -49.985222 1.9051543 6
42.166836 -49.032955 1.6831981 3.75
42.121765 -48.490253 1.8739988 4.6666665
42.176811 -48.154587 1.9630516 5.7142859
42.251881 -47.740807 1.817376 5.5
42.259212 -46.839828 1.6357671 3
42.346516 -46.140781 1.8564318 6
42.353352 -45.403984 1.782709 6
42.290535 -44.663498 1.6728022 5.25
42.311237 -44.307327 1.9561676 8.0880003
42.359856 -34.141529 1.7818068 7.2412724
42.218822 -33.793613 1.810716 7.3681154
42.234962 -33.363922 1.8329955 7.7739134
42.22966 -33.098972 1.840211 7.9408388
42.125732 -32.161774 1.7858436 7.8483748
42.034435 -31.051395 1.8124853 8.0248127
42.227753 -30.533066 1.7475504 8.232276
42.093166 -30.181282 1.8605145 8.4451952
42.002163 -59.05262 2.0540819 6
42.097195 -54.043571 2.3604529 6
42.10775 -53.752312 2.2095618 5.6999998
42.1576 -53.372459 2.2843733 5.9629631
42.111526 -53.083275 2.200002 5
42.396896 -51.546268 2.0390413 6
42.00037 -51.067703 2.0645449 5
42.095375 -50.584137 2.1120751 6
42.083652 -50.335468 2.1366107 5.6428571
42.154377 -49.344322 2.174016 6
42.169147 -48.929363 2.2638097 6.4595232
42.148041 -48.639759 2.2769086 6.6145835
42.19466 -48.280136 2.1669536 5.8000002
42.275578 -47.823467 2.1252365 5.75
42.359547 -47.397144 2.0785213 6
42.224033 -44.563877 2.2787969 7.4874167
42.213963 -44.318195 2.2425754 7.1111112
42.294327 -34.089401 2.069098 8.5787058
42.250122 -33.751915 2.1140745 8.6212034
42.317894 -33.404301 2.2336857 9.4096489
42.208576 -33.020527 2.2342322 9.5791903
42.100647 -32.739765 2.1950355 10.15575
42.285389 -32.164463 2.3451309 10.385417
42.110302 -31.277054 2.2352285 10.237083
42.201221 -30.936211 2.1404841 9.8297577
42.16927 -30.701513 2.1826644 9.8664999
42.117188 -30.14488 2.1140265 9.7902384
42.201447 -59.789341 2.6594772 6.8125
42.085285 -54.41169 2.7335334 8.0854998
42.172058 -53.75956 2.6250715 6.930727
42.16843 -53.352123 2.6299477 6.9884629
42.068813 -50.455242 2.6475601 7.6473756
42.083271 -50.228901 2.6103377 7.690815
42.046322 -49.829746 2.6300273 7.9158053
42.108665 -49.240318 2.5877917 7.7719498
42.162804 -48.943466 2.6356072 8.0966129
42.112492 -48.619656 2.6410711 8.2341757
42.104828 -48.305508 2.5453854 7.574357
42.238495 -46.113255 2.798455 9.0205002
42.243046 -44.618229 2.5845194 8.7191248
42.209057 -44.179886 2.6703854 9.1271362
42.156746 -43.849934 2.7331982 8.1741657
42.299213 -34.124752 2.7198291 10.447571
42.229595 -33.80135 2.686903 10.632059
42.14444 -33.395428 2.5926726 11.352227
42.221687 -33.025314 2.5488241 11.020572
42.262058 -32.628788 2.6564081 11.395685
42.16951 -32.20718 2.5770087 11.036942
42.284687 -31.813726 2.6568244 12.104291
42.178867 -31.427896 2.5328603 11.860056
42.173092 -30.972759 2.6533623 14.0445
42.159805 -30.552439 2.694854 13.667461
42.12368 -30.372839 2.6894991 13.0285
42.254471 -59.788437 3.0329511 7.6061964
42.203766 -54.127262 2.9460485 8.0530996
42.240921 -53.76667 3.0167363 8.3896217
42.212139 -53.404789 2.9813364 8.4473696
42.169117 -53.134247 2.9202781 8.5235004
42.121284 -50.940804 3.1280906 8.6808252
42.157505 -50.79948 3.1725998 10.0685
42.028458 -50.14864 2.8284194 8.4244003
42.039581 -49.870499 2.860785 8.4082918
42.082333 -49.278343 2.8900802 8.8877153
42.149574 -48.998158 2.9342406 9.2543383
42.125679 -48.584591 2.9923325 9.6614141
42.055836 -48.247604 3.0519986 10.17123
42.120312 -46.16576 2.8968322 9.6529169
42.19165 -45.717564 3.0127082 10.235163
42.19149 -45.421154 3.0627744 9.079031
42.077099 -45.120316 2.9758167 9.2978745
42.207615 -44.570805 3.0355535 9.3405504
42.178951 -44.214497 2.9686973 9.5841684
42.13483 -43.860691 2.9921567 10.330095
42.280624 -34.034988 2.8853891 11.3915
42.294197 -33.808693 2.9915092 11.822394
42.373497 -33.478642 3.0352826 9
42.026665 -32.885429 2.9010816 11.526438
42.123096 -32.500111 2.8831282 11.800903
42.185669 -32.197823 2.9027739 12.760071
42.212337 -31.788355 3.0309646 12.86875
42.155006 -31.013094 2.9000664 13.410438
42.264931 -30.651539 2.9439681 14.539344
42.206688 -59.804157 3.4315593 8.8301287
42.127983 -53.756371 3.358613 9.3173885
42.12645 -53.456623 3.3811703 9.6545057
42.027199 -51.419628 3.358247 9.4652996
42.087929 -50.963123 3.3444426 10.080683
42.161457 -50.689461 3.4204082 11.094501
42.078316 -50.320808 3.3685975 12.045
42.042728 -49.24295 3.4322629 11.800251
42.087505 -48.974483 3.374511 11.180364
42.116398 -48.644436 3.4242051 11.352049
42.034828 -48.262684 3.3817327 11.746865
42.015648 -47.940689 3.2202299 9
42.168987 -45.705399 3.4194043 11.949261
42.157413 -45.457359 3.3634048 10.736234
42.214508 -45.017323 3.5136178 10.23835
42.257225 -44.626797 3.2983148 11.469688
42.150265 -44.169056 3.4053223 11.388134
42.085365 -43.949314 3.3376276 12.037625
42.391048 -34.207558 3.3339338 10
42.136036 -33.749298 3.3790116 11.492272
42.235741 -33.469807 3.429558 9.833333
42.346382 -32.13623 3.4828787 13.544624
42.226879 -31.809427 3.3603601 12.164322
42.083565 -31.205124 3.4061573 13.016
42.082199 -31.032938 3.3744373 11.01
42.112732 -30.34417 3.5937138 14.016251
42.205799 -59.818714 3.7980399 9.9507132
42.060345 -54.161316 3.660804 9.5807495
42.067638 -53.76836 3.7010756 10.220656
42.114513 -53.488327 3.7617152 11.199206
42.100067 -51.285515 3.7961388 11.6409
42.052818 -50.96907 3.7515607 10.7619
42.07769 -50.644085 3.7122827 11.524407
42.199417 -50.127525 3.7361181 11.0765
42.222019 -49.846951 3.7190068 10.7
42.20071 -49.337681 3.8569472 12.390583
42.232315 -48.916698 3.8149686 12.824547
42.135315 -48.564781 3.7522371 12.416453
42.091618 -45.706921 3.7449589 14.656941
42.135822 -45.440659 3.8142624 12.011075
42.250797 -45 3.8186653 11.750889
42.295582 -44.532509 3.8415718 11.432813
42.209003 -44.296192 3.7515786 11.642442
42.301056 -33.809238 3.8089018 10.811857
42.186569 -33.492714 3.7787848 11.590521
42.166042 -33.038586 3.8594317 10.505751
42.202892 -31.696726 3.6798151 13.366
42.254143 -31.351574 3.898495 14.5445
42.087708 -30.483099 3.7165661 14.373166
42.262772 -30.273758 3.8416934 12.726334
42.301819 -59.681713 4.2878389 10.739214
42.013222 -54.026653 4.0335584 11.076
42.118538 -53.723351 4.1718965 13.283334
42.111675 -53.480198 4.2332106 12.826449
42.172131 -53.072849 4.1770391 13.640902
42.102203 -51.16016 4.0225 12.074
42.079849 -50.586258 4.125051 12.225901
42.136192 -50.215275 4.2286272 12.6309
42.221489 -49.749317 4.1932831 12.387
42.111328 -49.474991 4.2967043 12.227599
42.081726 -49.063061 4.1663265 13.54775
42.32407 -48.449409 4.3597236 13.0765
42.212902 -48.220852 4.3692503 12.699917
42.382587 -45.68729 4.0974841 14.019
42.146782 -45.309738 4.1419206 11.508688
42.207424 -45.081562 4.1481071 13.023334
42.219856 -44.652744 4.1251841 12.431643
42.205681 -34.171387 4.1312671 12.178123
42.271099 -33.756008 4.194284 12.006269
42.278088 -33.504147 4.078001 12
42.126553 -32.910316 4.2545757 14.035167
42.105339 -30.834003 4.2825317 14.012
42.086105 -30.369913 4.250936 10.003
42.209724 -59.770187 4.6754904 11.659062
42.254719 -59.501022 4.7447681 14.059063
42.158947 -59.060417 4.7167821 13.4666
42.152859 -53.759876 4.6672359 12.783438
42.009998 -53.23793 4.6558962 11.509251
42.359375 -51.670776 4.5026984 14.0215
42.240108 -51.363098 4.6254835 13.02975
42.153362 -51.162483 4.7090559 13.04525
42.177639 -50.499332 4.6404481 14.406333
42.062649 -50.170937 4.6645532 13.077126
42.211273 -49.7981 4.5685558 13.7135
42.235416 -49.452351 4.5917411 14.7205
42.263157 -48.618999 4.5336032 13.386416
42.195568 -48.391914 4.4855194 14.07425
42.192032 -33.697048 4.5103073 12.002357
42.258797 -33.457279 4.5614901 11.877
42.320965 -33.087109 4.7094698 13.342167
42.355068 -32.710464 4.4329848 14.011
42.082535 -32.395916 4.6731091 15.0125
42.292786 -59.792431 4.9439745 12.05475
42.194363 -59.311535 5.0030804 13.559687
42.297169 -59.129063 4.8814187 13.270601
42.312401 -50.881996 5.1698174 12.51525
42.220406 -50.629219 4.9857354 14.684834
42.359844 -50.017029 5.0718589 13.014
42.211025 -49.819473 5.0185566 13.165531
42.301186 -33.768215 5.0497394 11.428572
42.332756 -33.51432 5.0979948 10.5
42.1399 -32.581749 5.0321994 10.509251
42.172405 -32.255077 5.1481857 11.0035
42.201389 -30.690578 4.8011389 14.0095
42.083145 -59.707493 5.4009657 14.073626
42.284805 -50.643993 5.3037324 15.016251
42.20747 -33.686611 5.3133521 12.673167
42.167767 -33.411545 5.500433 11.668667
42.234917 -32.202194 5.4026451 13.6228
42.240131 -33.674438 5.6190958 14.0075
42.148914 -33.402405 5.6859646 13.756937
42.250538 -32.889175 5.9393983 12.805301
42.365917 -32.648781 5.8114071 15.0085
42.36219 -32.008896 5.6740785 15.0855
42.189182 -32.650455 6.0851488 13.505751
42.078384 -31.641804 6.2000604 14.087
42.665199 -41.215355 0.38144633 5
42.592926 -39.777161 0.35951808 2.7142856
42.588711 -39.330967 0.36684537 2.3333333
42.548031 -39.026451 0.31341594 2.6666667
42.648762 -38.452877 0.30733508 2
42.60545 -38.299263 0.30605096 3
42.634186 -37.797249 0.27005711 1
42.591831 -37.300377 0.24768926 3
42.621929 -36.961987 0.24809892 3
42.585957 -36.526394 0.17478973 2.6666667
42.598557 -36.250366 0.16148686 3
42.609978 -35.844749 0.11015666 4.5
42.594826 -35.473122 0.14903377 3
42.735119 -34.872559 0.099626355 3
42.608852 -34.56179 0.11703556 2.8
42.739319 -34.286709 0.10372215 4
42.630531 -33.734371 0.17034616 3.7272727
42.619194 -33.477291 0.31624526 4
42.621269 -43.791965 0.72728306 6.6666665
42.566826 -43.388039 0.61438972 3.875
42.553001 -42.993214 0.54645294 4
42.6106 -42.507423 0.51138902 3.5
42.656837 -42.228954 0.49350947 3.5
42.662231 -41.663494 0.45140758 3
42.599594 -41.307346 0.45968392 2.4000001
42.665188 -40.901802 0.43646654 2.5
42.650085 -40.432117 0.42018491 2
42.529007 -40.269161 0.4143168 2.5
42.589989 -33.94381 0.75447029 6
42.628704 -33.449589 0.55118519 2.9749999
42.644917 -32.636574 0.72137123 3.825
42.604694 -32.149567 0.63652796 2.6666667
42.613003 -31.850639 0.61230284 3
42.584393 -31.42539 0.72674 2.7857144
42.624874 -30.939384 0.64665586 2
42.553982 -30.63096 0.62865525 3.3636363
42.61763 -30.114676 0.57135838 4.8333335
42.58839 -45.886738 1.1834441 3
42.616692 -45.354622 1.1445756 0
42.66869 -44.981918 1.1787567 3.75
42.657871 -44.413822 1.1801918 3.1666667
42.636044 -44.215981 1.1210893 2.9000001
42.622055 -43.781239 0.98485965 4.8666668
42.68219 -43.524132 0.922773 6
42.578159 -34.050243 0.98136163 2.25
42.637093 -33.923122 1.0369954 2.8642859
42.72723 -33.596748 1.1902618 7
42.654514 -32.937244 1.047141 5.3666663
42.522488 -32.660362 0.97230893 4.188889
42.619976 -32.215141 0.96659601 1.75
42.68227 -31.89373 1.1696861 3.9940474
42.708797 -31.221996 1.0111957 6
42.659252 -30.967794 0.98817587 3.1520834
42.545349 -30.708374 1.1273723 3.9895833
42.49408 -30.074781 1.1746254 4
42.598488 -57.700668 1.5995367 2
42.746029 -52.327362 1.5977842 4
42.667946 -51.277653 1.572421 1.7
42.684418 -50.952522 1.5830985 1.9799999
42.587486 -50.494671 1.5568585 2.5
42.625187 -50.18026 1.5532908 2.5166667
42.651352 -49.866997 1.526559 2.0833333
42.695187 -49.398369 1.5354793 2.0972221
42.600079 -49.007355 1.5063194 2.2916667
42.59428 -48.504253 1.5554276 2.1666667
42.541763 -48.232639 1.4972775 4.8000002
42.556469 -47.764164 1.5224447 4.6666665
42.600445 -47.321465 1.408447 2.75
42.563301 -46.966232 1.3505778 1.5714285
42.502533 -46.580639 1.3261805 1.4722223
42.619308 -46.211525 1.4361947 2.715909
42.565689 -45.787498 1.3789417 2.8787878
42.57671 -45.452789 1.4038308 2.9649122
42.646797 -44.993778 1.3082972 2.6428571
42.577637 -44.546555 1.3658147 3.6848485
42.575001 -44.310303 1.377856 5.1923075
42.576488 -34.228069 1.3951516 4.8102565
42.555943 -33.819603 1.3999736 5.3055558
42.622551 -33.449047 1.28031 5.25
42.662285 -32.979633 1.5048612 6.2916665
42.592075 -32.651352 1.4310349 5.5999999
42.642006 -32.127998 1.4155475 5.2545452
42.654877 -31.894917 1.3879831 5.129365
42.56144 -30.956476 1.281816 5.1111112
42.562004 -30.670052 1.3642397 5.6809525
42.555222 -30.316002 1.3306081 5.5
42.716763 -59.741173 1.7640709 4.6666665
42.594143 -59.413891 1.7552149 2.9000001
42.60923 -58.693733 1.6557542 4
42.730762 -57.705814 1.7091047 1.3333334
42.69944 -56.90551 1.752156 2.6666667
42.608418 -56.552441 1.7579651 2.6764705
42.715176 -56.22863 1.6856689 1.4
42.576832 -55.712616 1.7951114 3.090909
42.602005 -55.426762 1.7609435 2.5454545
42.621826 -54.958637 1.8120471 3.6111109
42.635056 -54.572872 1.8435738 3.5
42.604622 -54.152103 1.8098553 4
42.622356 -53.820721 1.7348241 2.375
42.561531 -53.294739 1.6757544 2.5333333
42.637524 -53.030781 1.74617 3.5
42.584358 -52.579109 1.7210695 2.9629629
42.562271 -52.150707 1.7339687 3.5
42.572704 -51.788994 1.7177722 3.488095
42.653316 -51.367794 1.766951 3.625
42.685074 -50.952049 1.7365564 2.9074073
42.584576 -50.60033 1.7095326 3.25
42.704605 -50.181236 1.6403371 3
42.620743 -49.720985 1.814723 4.431818
42.714764 -49.492378 1.8252931 4.1333327
42.795349 -49.002743 1.6650456 3
42.602955 -48.553867 1.7908131 4.2142859
42.561726 -48.20118 1.85422 5.0500002
42.63903 -47.792274 1.8124776 5.3958335
42.597652 -47.439068 1.8850629 5
42.523026 -46.40892 1.8652322 5
42.484516 -46.277546 1.7719344 4.5090089
42.516674 -45.716221 1.8029029 5.0625
42.512615 -45.531315 1.7612569 4.6964288
42.601879 -44.932507 1.7763222 4.5555553
42.544422 -44.573139 1.777977 5.6078429
42.659904 -44.292164 1.7745144 5.7166667
42.520378 -34.186012 1.6693764 6.5719376
42.569511 -33.77142 1.7941204 7.6038666
42.576565 -33.411087 1.8117173 7.7272811
42.544128 -33.045025 1.7603718 7.6746664
42.430534 -32.187939 1.7642785 8.0819998
42.6241 -31.884396 1.7617136 7.5090628
42.71418 -30.982935 1.8709196 8.0356674
42.542664 -30.661081 1.7180482 8.0474758
42.761581 -30.156208 1.9678293 8.0074997
42.746315 -53.219658 2.0953734 5.5
42.724983 -53.12833 2.1607919 4.3333335
42.523228 -51.734287 2.028465 4.6666665
42.741436 -51.439095 2.1889706 5
42.756138 -49.769135 2.239567 7.3627777
42.745007 -49.519695 2.2316289 6.1350145
42.629528 -48.102257 2.0280311 5.5
42.62278 -47.666588 2.054127 5.25
42.587406 -47.394352 2.0420463 5.6666665
42.589439 -44.814457 2.203475 7.0267
42.554981 -44.615906 2.2077227 7.1033902
42.580421 -44.298481 2.217222 7.3797731
42.589123 -33.69487 2.1098433 8.6379147
42.576336 -33.416573 2.1366055 8.6878443
42.525711 -32.992481 2.2312782 9.3748217
42.726067 -32.631603 2.305835 9.6505003
42.717842 -32.163795 2.188657 8.8264999
42.699356 -31.847559 2.1830559 9.5038958
42.452084 -31.527927 2.3653851 11.066
42.769512 -30.937101 2.1530945 10.202635
42.697754 -30.07449 2.1968806 10.085177
42.506706 -59.984264 2.711827 6.6666665
42.527309 -53.741184 2.7134759 7.6008615
42.51107 -53.554138 2.7799795 7.5314999
42.755886 -49.831367 2.6350684 8.0210419
42.732647 -49.505177 2.6030595 7.7842603
42.545254 -44.814476 2.5737605 9.166667
42.533413 -44.676403 2.5511684 8.5341644
42.535744 -44.271797 2.402714 8
42.747578 -43.730793 2.7760324 10.254801
42.661484 -43.446472 2.697001 8.0074997
42.475212 -34.162605 2.6541712 10.5165
42.514881 -33.84227 2.7011654 8.4297142
42.493778 -33.501518 2.6505055 8.788806
42.500278 -32.952118 2.4864476 10.158892
42.576569 -32.606918 2.5277784 10.986736
42.613613 -32.148502 2.4815676 9.8558741
42.60223 -31.802832 2.6255412 11.359756
42.558178 -31.460052 2.6388927 12.936234
42.604523 -30.946127 2.5649433 13.026787
42.537945 -30.738983 2.6279311 13.037427
42.501534 -59.836308 3.0718298 7.868546
42.449448 -54.213734 2.9040332 8.0825005
42.453175 -53.806549 2.8209283 8.0810003
42.46714 -53.525497 2.8359861 8.0559998
42.727322 -49.850052 3.0410502 9.072464
42.703938 -49.517693 2.9977953 9.4096899
42.409393 -48.763859 2.9331419 10.036
42.509399 -45.393631 3.0217459 8.9027185
42.575306 -45.016098 2.9136312 10.308947
42.491638 -44.623726 2.9487727 10.035964
42.559608 -44.189678 2.9621146 9.7042999
42.688606 -43.800648 3.0292022 10.089788
42.534416 -43.591618 2.9755504 8.0129995
42.499775 -33.73568 3.0120356 11.152633
42.495308 -33.543644 3.0347731 11.375
42.589924 -32.026512 2.9859776 12.444208
42.610573 -31.779818 3.0401759 12.043403
42.611797 -31.430876 2.9168212 13.477063
42.505875 -30.949516 2.9438353 13.26175
42.434208 -30.723263 2.9632301 13.793229
42.719101 -30.08366 3.0493083 13.949999
42.571602 -59.889858 3.3850319 8.6608047
42.626648 -51.082085 3.440491 9.5807495
42.622116 -50.593216 3.5292752 11.2353
42.630779 -50.260136 3.5116084 11.433299
42.663921 -49.763084 3.4273307 10.510847
42.693989 -49.511017 3.4129267 11.674693
42.565533 -45.673061 3.338784 12.711909
42.588188 -45.377014 3.3934426 11.829044
42.553123 -45.021576 3.477324 12.272938
42.569397 -44.60025 3.3075147 10.7655
42.583038 -44.231091 3.4115033 11.431727
42.765495 -43.899895 3.3013632 11.572625
42.523247 -34.119148 3.3599648 11.019222
42.587318 -33.774399 3.4046414 11.014864
42.597584 -33.506607 3.3622284 11.546791
42.587318 -32.427155 3.326993 12.541
42.533623 -32.226738 3.3672762 12.544874
42.604347 -31.862255 3.4229522 13.23905
42.679165 -30.927626 3.3193123 11.530251
42.400864 -30.1243 3.5775943 12.0105
42.618484 -59.90535 3.7218444 9.7028456
42.648407 -50.176212 3.741801 11.412125
42.64325 -49.784424 3.7616172 11.778789
42.648796 -49.462006 3.7583234 12.679235
42.622265 -49.067131 3.8546014 11.831689
42.525661 -48.727226 3.8962359 15.06025
42.468647 -45.345497 3.8079109 12.523
42.536125 -44.919788 3.7800181 12.474542
42.575115 -44.614689 3.7521789 11.962188
42.688503 -44.229546 3.8596995 10.772429
42.68174 -43.97543 3.7258701 10.008
42.550907 -34.032402 3.6590266 13.514626
42.559456 -33.702248 3.7697289 11.559389
42.605434 -33.443512 3.7799692 11.323854
42.545918 -33.036869 3.8863738 10.504582
42.465748 -31.691366 3.7476804 13.058
42.478642 -31.516996 3.7948856 14.0785
42.497879 -31.117147 3.7676313 15.076
42.452297 -30.679628 3.9127157 15.0775
42.463863 -30.27705 3.8609319 14.579
42.576611 -59.862701 4.209887 10.313824
42.664146 -59.497196 4.3562903 11.0764
42.656132 -51.53075 4.3365798 13.54375
42.609222 -50.457325 4.2498183 13.018
42.607143 -50.164593 4.2798109 10.514916
42.657059 -49.7822 4.1766238 12.068686
42.679684 -49.424507 4.1752844 13.757195
42.44809 -49.046062 4.119051 13.6393
42.505177 -48.471397 4.3191738 15.07
42.601845 -45.706463 4.0556297 13.684083
42.541466 -45.432613 4.0721989 11.013083
42.629944 -45.009811 4.2714005 12.326429
42.548515 -44.646671 4.1570907 11.481501
42.558605 -44.283478 4.1131649 12.684989
42.481995 -33.693413 4.1847887 10.668334
42.59684 -33.379398 4.123075 11.30145
42.794247 -33.037033 4.0544195 9
42.629375 -32.639297 4.2219958 12.008
42.561653 -31.072414 4.0191417 11.0065
42.586189 -59.790665 4.561666 11.870916
42.532963 -59.479763 4.6685042 12.677282
42.500401 -59.086315 4.7253165 13.86275
42.560253 -51.678673 4.400743 14.0215
42.556568 -51.335495 4.5422783 12.151907
42.58263 -51.045849 4.5619755 12.527916
42.567879 -50.590061 4.6415224 11.848332
42.779972 -50.384212 4.7932339 13.014
42.570827 -49.829746 4.6196222 13.239301
42.604343 -49.453865 4.6880908 12.4384
42.640785 -49.016022 4.6180167 13.809251
42.638435 -48.656971 4.5868611 13.078501
42.403515 -45.246483 4.4504094 12.0805
42.657177 -45.020256 4.5016522 13.509479
42.573486 -34.164452 4.7690701 15.011
42.601013 -33.827908 4.5856333 10.666667
42.530487 -33.456337 4.4408779 11.377406
42.614681 -33.0177 4.6247988 12.005875
42.629154 -32.631535 4.6208181 11.003901
42.685303 -32.316959 4.7319012 12.340667
42.601692 -31.772278 4.7527981 15.0105
42.714699 -31.382603 4.6634569 12.54425
42.538963 -30.950779 4.7409015 14.546
42.688545 -59.743484 5.0236273 11.980062
42.577526 -59.371166 4.9648433 12.831894
42.595577 -59.136108 4.8667493 12.574312
42.467297 -50.867542 5.1382151 14.0155
42.543522 -50.611542 5.0665908 13.615499
42.65873 -50.141872 4.9431939 11.790499
42.62653 -49.880047 4.9055347 12.424001
42.443649 -49.225266 4.9301124 13.08
42.737507 -49.042427 4.8752508 13.0805
42.505329 -34.023117 4.8115802 12
42.541889 -33.723724 5.0979447 11.557944
42.518578 -33.532482 5.083395 11
42.494999 -32.539375 4.9860172 14.008334
42.635071 -32.19249 5.0731273 13.25675
42.647408 -31.8528 5.0223823 12.4228
42.594776 -31.407377 5.1890039 13.0065
42.736977 -31.180523 5.1086216 11.0025
42.655907 -59.790279 5.3479481 13.825624
42.676105 -50.591763 5.2572765 12.370833
42.571217 -33.8009 5.450161 12.0035
42.653759 -33.55352 5.3478894 10.675334
42.757809 -33.092037 5.3847318 13.50625
42.549282 -31.894848 5.3653369 13.622
42.524071 -33.344006 5.7295613 12.005
42.549793 -32.561142 5.7559371 12.754375
42.656357 -32.296402 6.0257549 12.54525
42.956223 -41.371109 0.38020906 5
43.07663 -40.312756 0.38670629 2
42.983692 -39.777756 0.34498465 3.5
42.975674 -39.445431 0.34566846 2.3333333
43.00182 -38.580273 0.29943743 2.7142856
42.953785 -38.222336 0.29676113 2.5999999
43.058609 -37.794407 0.2629008 2
42.996296 -37.415131 0.24960697 1.8
42.958576 -36.980423 0.2154185 3.4000001
42.927181 -36.542408 0.17416073 3.6666667
42.964653 -36.228508 0.1579804 2.75
43.073029 -35.759125 0.11289799 3.5
43.039906 -35.32592 0.12566152 2.6666667
43.018181 -34.640907 0.078080468 3
43.02396 -34.269005 0.08797121 2.5
43.009109 -33.739834 0.19856909 4.5714288
42.977665 -33.468304 0.24860886 4
43.113934 -30.142673 0.14041156 1.8333334
43.008167 -44.057961 0.69283599 3
43.016193 -43.681179 0.68922895 4.5
43.027309 -43.340233 0.58579969 4.4444447
42.847878 -43.178871 0.54487044 4
42.99155 -42.603424 0.51094449 2.8
43.030502 -42.314632 0.4709422 4
43.039986 -41.890541 0.42944428 5
43.023422 -41.508789 0.46057403 2.5
43.008003 -41.008255 0.42730561 1.3333334
42.992989 -40.595638 0.41467983 2.3333333
43.06929 -34.050598 0.75698131 5
43.045547 -33.697388 0.6655575 5.5
43.027195 -33.403088 0.56257498 4.2000003
43.042091 -33.115185 0.71090949 4.3333335
42.994816 -32.664803 0.69872081 4.3333335
43.017323 -32.243305 0.61546111 5
43.072586 -31.896156 0.69600505 5.3333335
43.044483 -31.467915 0.65480244 4
42.930405 -31.035694 0.67813665 4.4000001
42.999599 -30.561386 0.6317668 4.1428571
43.105587 -30.29315 0.56948096 4.6875
42.937294 -45.221649 1.19073 4
43.010319 -44.595936 1.099057 4.25
42.931305 -44.276688 1.1242055 4
43.060425 -43.794823 0.9646852 5.1666665
43.149353 -43.583897 0.89780468 7
42.893181 -34.045509 0.87068492 7
43.055176 -33.754078 1.0121223 4.1347222
43.107555 -33.328934 1.1141646 3.7
43.021835 -32.968445 1.031333 4.1825395
42.957245 -32.70866 1.0127274 4.3333335
42.813957 -30.957405 0.9003734 3.1111114
43.159626 -58.024361 1.5931762 0
43.152813 -51.829498 1.5710396 4
43.112286 -51.310772 1.5884987 3.6666667
43.089027 -50.919384 1.5298665 1.1666666
43.046543 -50.539661 1.5339589 2.3816667
43.096386 -50.234478 1.5291135 2.4375
43.040924 -49.751095 1.5002036 2.4071429
42.906914 -49.408672 1.4863864 1.8138889
43.02956 -48.978771 1.4770756 2.9642856
43.066048 -48.564659 1.5301129 2.261905
43.090145 -48.233044 1.5150653 3.3333333
43.10704 -47.734859 1.4920228 3.287879
43.000942 -47.374107 1.4446166 3.6428571
42.970505 -47.020977 1.4028407 2.4305556
43.014561 -46.517513 1.3113114 2.6111112
42.955078 -46.13279 1.3302041 2.9722223
42.985706 -45.793091 1.3658117 3.1166666
42.95681 -45.370995 1.333173 3.4285715
42.948269 -44.949631 1.2380112 3
43.008545 -44.579041 1.4713901 4.6428571
42.872795 -34.039185 1.3478868 4.208333
42.904839 -33.865215 1.3746516 4.7023811
43.003838 -33.385967 1.3303359 4.935606
43.039696 -33.026783 1.3613206 4.6190476
43.012592 -32.779583 1.552699 6.5
42.826397 -32.144417 1.3363101 5
42.811962 -30.448889 1.4893929 6
42.981884 -59.816509 1.911798 2.875
42.992977 -59.492844 1.8618859 3.125
43.158371 -59.035728 1.8282007 2.6666667
43.083054 -58.61985 1.7641495 1.875
43.17654 -58.028236 1.746971 4
43.014229 -57.809948 1.7680949 2.4000001
43.053841 -57.4744 1.739727 2.2222223
42.800098 -56.915581 1.6660745 1
42.984951 -56.514233 1.7321004 1.9
43.024765 -56.210403 1.7538919 2
42.994667 -55.848824 1.7617614 2.2727273
43.001694 -55.457195 1.7741362 2.8181818
43.069935 -55.019604 1.8218614 2.8185186
43.04369 -54.562904 1.8334804 3.4512823
43.05204 -54.213898 1.8178871 3.3725491
43.021595 -53.836388 1.8162771 3.1111112
42.96693 -53.240932 1.7213606 1.8571428
42.962589 -52.962048 1.7875997 3.2142856
42.97876 -52.619793 1.7677935 2.988095
43.055805 -52.166458 1.8647765 4.0358973
43.045582 -51.780621 1.7299825 3.0277777
43.055027 -51.436253 1.7474008 3.6354165
43.014225 -50.966736 1.675315 3.5999999
42.936558 -50.600704 1.6501299 3.2592592
43.020359 -50.180698 1.6824603 4
42.944599 -49.679203 1.8663586 4.3703709
42.878429 -49.440174 1.7889339 3.9242425
43.131546 -48.933174 1.6171478 1.5
43.04298 -48.631516 1.7158806 3.75
42.944069 -48.187496 1.8339908 4.6970587
43.005962 -47.789032 1.7910542 4.7916665
42.986328 -47.503025 1.7661743 5.1428571
43.104576 -44.810951 1.6194764 5
42.946564 -44.548027 1.6880741 4.5714288
42.896908 -44.229618 1.7043797 5.5
42.809879 -34.001923 1.6216345 6
42.914738 -33.66267 1.7530847 7.2065215
43.006763 -33.373547 1.8214111 7.6019216
43.192081 -32.874321 1.6058873 5.8571429
43.196228 -32.650883 1.6981043 7.696167
42.842804 -32.028595 1.9947671 9.0702496
43.105495 -31.258772 1.7313998 8.0822506
43.04908 -31.002859 1.7925751 8.2186661
42.922337 -30.051584 1.9388374 9.1490879
43.114326 -59.792736 2.1393058 3.625
43.030148 -59.418888 2.0180364 2.2
42.976501 -53.252918 2.1499729 5
42.919777 -53.018326 2.1205478 5.1500001
43.036411 -52.25769 2.0839102 5.1388888
42.801311 -51.602905 2.1162608 5
42.903847 -51.432854 2.0696266 5.1944442
42.84927 -49.698654 2.145854 6.125
42.834335 -49.499355 2.2723961 5.9166665
42.860554 -48.290474 2.2011268 5.9000001
42.800629 -44.520977 2.1409173 7
42.936691 -44.392822 2.225708 7
42.967358 -33.432159 2.0608177 8.5220633
43.061825 -32.53397 2.1014652 8.5039997
42.972202 -32.197426 2.2185459 9.8021412
43.034687 -31.804644 2.2113445 10.139685
43.106049 -31.514183 2.264679 11.837807
42.848309 -30.954023 2.1728158 10.300632
42.852955 -30.07493 2.0765407 9.4942293
43.184963 -59.880089 2.5736907 5.4666667
42.803314 -49.761253 2.5625834 8.0839996
42.842201 -49.518143 2.5176384 7.3476663
43.115715 -45.06086 2.7242692 10.034
43.134926 -44.437309 2.6453831 10.042
43.1455 -44.264236 2.6542075 8.6359997
43.065792 -34.1852 2.7266388 13.509467
43.019005 -33.78371 2.7234464 11.155116
43.03101 -33.478558 2.7478878 8
43.128677 -32.632275 2.6140678 11.507937
43.01099 -32.110764 2.4364772 9.9538631
42.984745 -31.802876 2.605176 11.883134
43.012867 -31.405285 2.5620542 13.007339
43.051914 -30.996071 2.6103365 12.518367
43.063931 -30.789312 2.5984561 12.0355
43.18367 -59.927876 3.0718234 7.8466668
43.101143 -45.604923 3.1109915 13.046249
43.077229 -45.357983 3.0377955 10.470018
43.051277 -44.960155 2.9507134 10.101806
43.09515 -44.594189 2.991796 9.622179
43.101871 -44.19561 2.9806471 10.439807
42.994583 -43.738094 3.0195098 10.633171
43.067669 -43.449467 2.9020231 10.65924
43.173882 -34.095047 2.8691378 14.530375
43.012508 -33.776375 2.8937521 11.203887
42.952721 -33.511402 3.0215392 10.390462
43.187805 -32.95837 2.8179362 9
43.19062 -32.602131 2.921381 11
42.949291 -31.771893 2.967247 12.694007
43.019619 -31.398256 2.9364181 11.028773
43.018368 -31.111376 2.8464458 13.217667
42.89769 -30.14966 3.0447326 13.564249
43.187542 -59.939484 3.3113642 8.4285717
43.089569 -59.214516 3.574419 10.051499
43.04031 -59.153893 3.5612605 9.5704994
43.14436 -50.023216 3.5224421 10.0335
43.033619 -49.747868 3.4634533 11.230295
42.978741 -49.449902 3.4695103 11.621375
42.973442 -49.016426 3.5094864 12.399666
42.906509 -48.566772 3.4744029 13.0635
43.15416 -46.157963 3.4834464 13.331383
43.048733 -45.692776 3.367445 12.375084
43.005371 -45.352024 3.2728796 11.455753
43.071934 -45.027512 3.341238 12.332893
43.033131 -44.603489 3.417583 11.631364
43.024632 -44.168274 3.4082036 12.243711
42.996845 -43.832859 3.3927608 11.792181
42.817711 -43.595119 3.5386021 12.0155
42.903347 -33.632473 3.2880878 11.006437
42.955612 -33.423538 3.3782194 11.026583
43.030434 -33.051533 3.5241945 9.0007992
42.974087 -31.725229 3.4486678 14.683415
42.813244 -31.591291 3.5638752 15.01675
42.887615 -30.852612 3.4226844 12.776125
43.089108 -30.565321 3.2808692 14.57575
42.998383 -30.284592 3.3019657 14.243335
42.988956 -59.831997 3.8239043 10.2835
43.067993 -59.35067 3.8521943 10.437573
43.131287 -59.152809 3.6291907 9.7402496
42.935612 -50.107674 3.7824957 11.374001
43.114933 -49.780903 3.7206025 11.182607
42.95853 -49.409004 3.8829436 11.25424
42.934448 -49.028233 3.7749078 12.05145
42.945705 -48.644245 3.6845038 11.0357
43.064499 -45.752983 3.7850819 11.38141
43.073143 -45.398575 3.9092634 11.1098
43.065186 -44.964863 3.8594527 11.460042
43.099274 -44.594646 3.8085711 12.145833
42.993935 -44.245789 3.7199028 12.261069
42.954956 -33.33791 3.7813816 11.942817
43.021385 -33.018761 3.8209474 10.343533
43.05283 -32.620316 3.7874317 13.007
42.844414 -31.128643 3.7758129 12.086
43.086826 -30.510113 3.7621467 14.580126
42.983582 -30.116638 3.7619343 13.748166
42.963711 -59.821934 4.1163111 11.600249
43.107788 -59.418854 4.1312089 11.790333
43.090813 -50.847488 4.3871012 12.57925
43.07346 -50.658077 4.2810993 11.704666
43.135075 -50.176319 4.1503539 12.027041
43.002151 -49.699158 4.1654787 12.296469
42.945354 -49.403927 4.1983914 12.593389
42.937454 -49.020977 4.2827654 14.237249
43.070023 -48.624657 4.2921801 13.281639
43.181107 -48.357777 4.3003006 14.0155
43.040348 -45.679462 4.0114112 14.030104
43.039062 -45.368835 4.1439037 12.028749
43.061607 -44.979656 4.170413 13.088811
43.027134 -44.675541 4.1337838 11.973214
42.801006 -44.246326 4.1297393 14.0755
42.971638 -33.838974 4.2372513 12.254126
42.994091 -33.415051 4.2048512 11.40375
42.954517 -32.977928 4.1291885 12.607
43.074852 -32.792664 4.0463262 10.0025
42.956322 -32.037838 4.3361425 15.01125
42.990906 -31.241068 4.303688 12.0865
42.896431 -31.031017 4.2328043 15.0115
42.94952 -59.829151 4.6227679 12.819667
42.963032 -58.914749 4.6615391 15.057125
43.120052 -58.760204 4.738596 13.075084
43.0149 -51.295223 4.4557476 12.2845
42.971519 -50.988811 4.4753895 13.4294
42.938843 -50.721928 4.4766464 11.534375
42.972023 -50.183273 4.5656118 13.014874
43.090679 -49.858631 4.6203032 12.724625
42.923119 -49.423653 4.4866204 12.038333
43.079849 -49.127625 4.6156564 12.0824
42.82888 -48.726971 4.5042925 14.0765
42.963093 -34.032578 4.7563725 11.003
42.946152 -32.936886 4.4866924 12.004167
43.149132 -32.521454 4.4972072 12.404699
43.077312 -32.220772 4.6089602 11.577972
42.814651 -31.969297 4.7151899 12.088
43.127151 -59.731171 5.083364 12.27975
43.068317 -59.42551 4.9630756 12.0795
43.09491 -58.970753 4.8714275 12.9095
42.913673 -50.903416 5.0767422 14.0145
42.979565 -50.645554 5.1191282 13.513625
42.938862 -50.146847 4.913682 13.014833
43.031166 -49.945526 4.8956499 14.01375
42.980965 -49.45557 4.9211526 14.035333
43.024403 -49.079937 4.9450021 13.746834
43.11578 -32.705402 5.1687508 10
42.888893 -32.070938 5.0359201 12.5105
42.89465 -31.83849 4.9482021 12.363999
42.979309 -31.465204 5.1607814 13.005666
42.996956 -31.117754 5.0328107 12.0455
42.971603 -59.894676 5.3816056 12.680349
42.887711 -50.363503 5.2025919 12.014
43.087063 -33.702045 5.2911797 11.01
42.998173 -33.308872 5.4026523 10.404
43.036999 -33.004982 5.3727608 13.5055
