# .PCD v0.7 - Point Cloud Data file format
VERSION 0.7
FIELDS x y z intensity
SIZE 4 4 4 4
TYPE F F F F
COUNT 1 1 1 1
WIDTH 1290
HEIGHT 1
VIEWPOINT 0 0 0 1 0 0 0
POINTS 1290
DATA ascii
48.125504 34.817348 -1.2162446 4
48.095619 35.828117 -1.2706152 3.5
48.088043 36.092659 -1.2226202 3
48.086594 36.462685 -1.2004217 7
48.240845 37.330517 -1.2069836 4
48.119495 37.762741 -1.2598686 3.5
48.082455 38.132462 -1.2166487 1
48.066193 38.717659 -1.3411382 6
48.383636 39.876686 -1.287219 6
48.342869 40.235352 -1.246112 1
48.270226 40.416122 -1.2847148 4
48.23003 41.053192 -1.221577 2.3333333
48.158375 41.414173 -1.3036153 0.73333335
48.258762 41.836121 -1.2781817 1.9444444
48.291214 42.111752 -1.2776582 1.5714285
48.330151 42.579105 -1.3109014 1.5
48.22057 43.095222 -1.3639513 3.2
48.192608 43.296432 -1.3166748 4
48.17849 43.770687 -1.3452404 4
48.267586 44.168491 -1.2831328 4
48.169205 44.614635 -1.3046553 4.8333335
48.117039 45.984978 -1.2196616 6
48.074108 47.049477 -1.3253776 4
48.128925 47.538868 -1.3084049 6
48.129143 47.853603 -1.4191854 3.5999999
48.115807 48.267204 -1.2445977 2.9000001
48.186607 48.614426 -1.3754883 3.2333333
48.033779 49.03907 -1.3064294 4.2166667
48.042274 49.399097 -1.3773117 3.8
48.065514 49.824215 -1.4555352 3.5
48.171246 50.117561 -1.5047841 3.7222223
48.166821 50.475357 -1.3586988 3.3872547
48.301804 51.518017 -1.3591795 4.0333338
48.199127 51.616417 -1.2498069 5
48.159485 30.391186 -1.111219 6
48.176022 30.701996 -1.0586517 4
48.059429 31.514481 -1.1443498 6
48.076111 32.319736 -1.0326922 6.3975005
48.055916 32.610928 -0.92392081 3.6984999
48.061577 32.905479 -0.87769395 3.25
48.285702 33.41217 -0.93921971 3.3333333
48.273464 33.783203 -0.85550535 1.6875
48.144421 34.232231 -1.0018471 2.2
48.235378 34.602482 -1.0473452 0.33333334
48.239468 34.960636 -1.0682334 0.33333334
48.164028 35.428768 -0.97456527 2.2692308
48.230358 35.797066 -0.96079761 2.3076923
48.284557 36.09782 -1.0351707 2.3333333
48.161842 37.013809 -0.98467475 2.8
48.17794 37.529636 -1.0745461 2.6666667
48.202015 37.791832 -1.1022012 1.6190475
48.242626 38.19725 -1.0589117 1.9629631
48.176117 38.540554 -1.0046654 2.6666667
48.107265 38.960735 -0.97580045 3.4000001
48.257797 39.418232 -1.0087135 3.0769231
48.240631 39.816288 -1.0093346 2.2307692
48.188984 40.144321 -1.1010844 2.7727273
48.176601 40.477165 -1.0800833 2.0999999
48.212124 40.972389 -1.0571628 2.8
48.320141 41.390015 -0.99362826 5.5999999
48.324833 41.89513 -0.98041242 3.5888889
48.326275 42.14526 -0.98273939 4.4733334
48.345043 42.431065 -1.0271673 4
48.279457 42.943367 -1.038095 3.7857144
48.296535 43.452385 -1.0568954 4.3809524
48.241741 43.837669 -1.065533 4.125
48.209896 44.245667 -0.9872489 4.4166665
48.19857 44.547688 -0.96101034 4.5833335
48.181595 44.944721 -0.99564052 5.6666665
48.326771 45.506653 -1.1145718 5
48.278461 45.851383 -1.0539135 4.6666665
48.091961 46.153194 -0.98478234 5.25
48.088192 46.695396 -0.93784171 6
48.126453 47.088203 -0.96915001 4.3000002
48.168873 47.385258 -1.0239652 3.5
48.10218 47.741417 -1.0991083 3.5999999
48.213882 48.197975 -1.1062316 3.5
48.091236 48.649105 -0.95073366 4.560606
48.028545 48.992081 -0.99098819 4.458333
48.014793 49.268066 -1.0466092 4.3611112
48.16853 49.957077 -0.84935522 5
48.120335 50.151997 -1.0924226 5.4285712
48.259296 50.492176 -0.94428653 4.9166665
48.252476 51.493328 -1.0094508 5.5694442
48.344864 51.610771 -0.95234895 5.5
48.143074 57.699745 -0.98253024 8.1464996
48.007214 58.17411 -1.1439333 8.1164999
48.105003 59.234772 -0.9833675 8.1470003
48.1087 30.181295 -0.55721182 7
48.113678 30.493065 -0.59045404 7
48.037823 32.007317 -0.65522861 7
48.026382 32.683922 -0.53737831 2.3888888
48.141964 32.938122 -0.59481961 3.6333332
48.338783 33.399906 -0.71149343 2.6666667
48.397854 33.605644 -0.74794829 4
48.146111 35.542995 -0.74367559 2
48.05595 37.16613 -0.77701318 2
48.394341 39.182404 -0.56194723 4
48.387257 39.3848 -0.53294945 4.5023808
48.374565 40.311676 -0.48264173 5.5
48.363571 40.585876 -0.45306453 5.5
48.361725 40.806911 -0.48454034 5
48.353127 41.443451 -0.59495413 5.6666665
48.310043 41.884735 -0.59521061 4.9352937
48.297813 42.146122 -0.55647731 5.375
48.261879 43.083149 -0.48405787 5
48.2873 43.370808 -0.60269159 5.6296296
48.226986 43.791595 -0.61454469 5.75
48.220539 44.145496 -0.65430146 6
48.24773 44.564922 -0.5213747 6
48.222179 44.965557 -0.66371197 5.6666665
48.184628 45.414337 -0.71555668 6
48.208347 45.79908 -0.66657835 5.8000002
48.118351 46.214458 -0.63068932 6.1923075
48.126858 46.591583 -0.63435918 5.8740788
48.169418 46.979786 -0.65640926 5.6666665
48.280781 47.231426 -0.67987919 5.3333335
48.076172 47.79258 -0.70331216 5
48.026718 48.031845 -0.76745474 6
48.02969 48.641098 -0.66538125 5.8000002
48.017426 48.934742 -0.64363873 5.875
48.010899 49.314499 -0.70537734 5.5999999
48.036034 49.882191 -0.69908863 6.3012137
48.132828 50.202854 -0.65844601 6.4114504
48.19524 50.527092 -0.58828849 6.5201726
48.303318 51.595455 -0.6566276 6.1999998
48.2883 51.613781 -0.54905516 6.8333335
48.278969 30.18932 -0.12055917 8.1349001
48.325764 31.05777 -0.072180972 8.1512508
48.235237 31.319118 -0.15828876 8.1342506
48.24329 31.759983 -0.18119152 8.1294003
48.175762 32.119465 -0.22186232 8.1260004
48.04631 32.682926 -0.21155192 4.9797502
48.103992 32.91301 -0.17233944 5.4926147
48.166382 33.333435 -0.13704155 8.1418333
48.069153 37.013756 -0.087813035 8.1517506
48.059559 37.792255 -0.15340304 8.1496258
48.36253 39.419678 -0.13073599 6.4792447
48.348755 39.93713 -0.23973291 6
48.335732 40.273808 -0.19452821 6.1666665
48.337723 40.739319 -0.21806853 6.5
48.333672 40.913807 -0.11228544 6.8333335
48.309395 41.463371 -0.077788547 7
48.302704 41.903156 -0.14073403 6.7936502
48.286446 42.151955 -0.15266205 7.0687976
48.250862 42.582775 -0.13422306 7
48.22678 43.072918 -0.13910377 6.8000002
48.265095 43.436123 -0.20578389 6.9639087
48.226807 43.817787 -0.21572787 6.8846154
48.203751 44.150326 -0.19104765 7
48.170418 44.557869 -0.17166129 7.2199502
48.148106 44.969158 -0.17499872 7
48.15694 45.464531 -0.21014898 7.2775002
48.135098 45.797234 -0.22595881 7
48.100731 46.241486 -0.22407362 7.3676052
48.09193 46.596474 -0.18534528 7.2633166
48.081215 46.936478 -0.19818532 7.2366662
48.048359 47.424061 -0.27046454 6.9166665
48.051151 47.834686 -0.19457863 7.3580003
48.03838 48.140533 -0.28054252 7
48.027687 48.652645 -0.23829612 7.3168521
48.011082 48.956627 -0.23301622 7.3970938
48.015812 49.394196 -0.31341773 7.1111112
48.071434 49.877655 -0.25819772 7.3588333
48.103043 50.161999 -0.20473024 7.7244773
48.214233 50.553272 -0.15262267 7.9786053
48.26342 50.833031 -0.066794463 8.2298002
48.16132 51.447479 -0.17812458 8.0352707
48.281063 51.63031 -0.16611928 8.1396046
48.327682 30.155827 0.20060094 8.4394999
48.184204 30.626965 0.35582593 9.1285
48.232319 31.077063 0.20058137 8.4862509
48.27459 31.331299 0.26180246 8.1712494
48.218437 31.813074 0.20949702 8.4853334
48.25526 32.227337 0.097772807 8.165
48.058479 32.731167 0.24830481 7.1826949
48.096718 32.940941 0.26144469 7.0182056
48.091869 33.24868 0.13736905 7.8210001
48.156441 34.35334 0.22271505 8.1695004
48.372147 38.724968 0.026165677 7
48.377342 38.985832 0.18288855 7.5402498
48.374645 39.405239 0.22451358 7.7165976
48.339859 39.848377 0.22061825 7.6239996
48.323185 40.268734 0.27768219 7.7633123
48.344967 40.64225 0.15587085 7.5205002
48.339512 41.03804 0.17278637 7.7858334
48.305717 41.435287 0.28671607 7.9555311
48.29076 41.876682 0.21076721 8.0487947
48.283016 42.157936 0.23141679 8.2370872
48.236919 42.565113 0.28438005 8.0995626
48.217041 43.059612 0.22642705 8.1639996
48.208767 43.442955 0.22168653 8.226553
48.219448 43.8158 0.18128216 8.1088943
48.213642 44.235672 0.18205512 8.2802792
48.181103 44.599552 0.20839514 8.4165792
48.143139 44.988262 0.17538087 8.302659
48.133022 45.365551 0.20140542 8.3934469
48.130173 45.779781 0.28635746 8.6105423
48.107994 46.195934 0.14574961 8.3191538
48.08511 46.599762 0.18685344 8.5457458
48.075153 46.926834 0.18938343 8.2605829
48.056335 47.457806 0.2656236 9.3699999
48.066345 47.776382 0.2935749 9.2888231
48.024223 48.20927 0.20596173 9.0333452
48.01297 48.583038 0.26570955 9.0269165
48.048988 49.089016 0.24193533 9.2793751
48.011963 49.24942 0.12276525 9.0463753
48.122181 49.840908 0.24282597 8.7133331
48.069954 50.187153 0.18694197 8.8413372
48.209496 50.586342 0.22046265 9.4086571
48.217434 50.861492 0.31351709 8.1747494
48.16684 51.428955 0.33091894 8.7249994
48.256077 51.643841 0.2508814 9.2371798
48.155815 54.934597 0.39518875 8.1765003
48.173351 58.867126 0.23495731 8.177
48.328583 30.272789 0.42869902 9.1479998
48.353809 31.189762 0.44836232 9.1094999
48.13472 32.746445 0.57309926 8.2857141
48.101788 32.938763 0.64923775 8.1511841
48.396053 38.267807 0.51657754 8.0137501
48.37215 38.649319 0.58158588 8.3691664
48.360027 39.076721 0.73879564 9.0665627
48.371174 39.414455 0.57646 8.8548889
48.336292 39.71785 0.607391 8.477046
48.350731 40.211174 0.59855515 8.8428497
48.318428 40.634243 0.57349157 8.7102079
48.323292 40.952572 0.5842889 9.0495615
48.306255 41.370014 0.57343429 9.1128502
48.305737 41.884739 0.54850328 9.1900797
48.286522 42.13398 0.62166786 9.318078
48.243896 42.507538 0.58516288 8.8143501
48.225941 43.008652 0.51315564 9.2156248
48.202122 43.421909 0.48587179 9.0918751
48.20409 43.800274 0.49620348 9.4617147
48.173653 44.157772 0.46839371 9.5423746
48.161793 44.59222 0.48156956 9.4279242
48.156254 45.04261 0.51966161 9.594389
48.144337 45.422764 0.4603762 9.8070002
48.107555 45.860641 0.45540813 9.6448002
48.089191 46.1884 0.50309527 9.2846174
48.104511 46.562313 0.53434402 9.9012346
48.072311 47.000198 0.41761237 9.0760002
48.059479 47.453457 0.4160758 9.0764999
48.074371 49.814869 0.4387801 9.4086657
48.161831 50.293781 0.43420103 9.1867857
48.092812 50.527756 0.40942144 10.014
48.194374 50.947327 0.65516591 9.6179171
48.196426 51.467922 0.53408903 9.0528126
48.242783 51.663425 0.60761422 10.816886
48.148033 54.976677 0.59660435 8.1774998
48.187325 58.603794 0.57784545 7.7171669
48.110725 32.765205 0.95198017 9.7049999
48.088001 32.950863 0.98328823 9.3480606
48.081348 33.285545 0.93983465 8
48.367424 39.458031 0.90514344 10.20315
48.281487 42.099632 0.8431406 10.632563
48.195202 50.690369 1.1041272 9.3949995
48.18457 50.917263 1.0451124 12.046714
48.147461 51.371674 0.95700043 10
48.232876 51.662262 0.87314695 11.41315
48.237408 54.604687 1.0892953 10.81745
48.393078 54.85981 1.1034591 13.064
48.219597 58.560883 0.99241662 11.422999
48.215866 31.897566 1.5633973 8
48.128887 32.765533 1.3876065 11.625
48.101509 32.930756 1.4028711 10.353396
48.00753 33.313992 1.5971607 9
48.102161 50.673954 1.3902982 10.027843
48.119144 50.88961 1.4333901 13.643613
48.066193 51.414009 1.5594138 13.523687
48.093857 51.807209 1.5155656 13.701333
48.03503 52.217983 1.5231053 14.046
48.021885 52.586174 1.5374055 12.0765
48.108196 53.039459 1.507762 14.059
48.012321 53.384567 1.4505295 15.06025
48.388912 53.72113 1.5706133 13.0215
48.090431 54.202187 1.4434332 14.54925
48.056019 54.585266 1.3710798 11.015583
48.108833 54.981251 1.4327583 13.392583
48.389675 56.352341 1.5204901 15.061
48.307243 56.630516 1.4862525 11.08
48.279491 56.933571 1.4474133 13.04575
48.28059 57.665958 1.4593327 15.0615
48.258785 58.383385 1.4060637 12.017
48.168888 58.637672 1.3506347 13.184214
48.268661 59.03812 1.4114456 13.701335
48.247486 59.957512 1.3959949 14.052
48.08477 32.213276 1.7331579 8.0697498
48.108368 32.726223 1.7727668 12.936357
48.104607 32.935299 1.8160626 11.863666
48.068508 33.280342 1.8135678 9.0012999
48.2183 50.713432 1.6618642 11.07975
48.056229 50.96944 1.61036 13.07275
48.113827 32.112217 2.0659215 8.0089998
48.069698 32.778584 2.0698473 15
48.111122 32.952862 2.1998525 12.755737
48.035957 33.354809 2.335531 10
48.028572 53.420898 2.2740414 8.1027498
48.233231 31.807133 2.5070195 9
48.073627 32.199055 2.6415896 9.0700998
48.039116 32.479126 2.5909004 9.0509996
48.095089 32.964924 2.5290058 13.428572
48.142025 31.827837 3.4459982 10
48.156876 32.178261 3.5500257 10
48.486439 49.853912 -1.7095115 2
48.419147 50.20525 -1.7723353 2
48.555805 50.519371 -1.7913057 2
48.531315 51.006443 -1.8902637 1
48.653027 51.509399 -1.7609079 2.9722221
48.700424 35.849133 -1.295332 3
48.628849 36.29348 -1.3616787 3
48.61211 36.547787 -1.2262261 3
48.625885 37.136673 -1.2076672 0.5
48.51963 37.569107 -1.2108123 1
48.571934 37.705666 -1.2454715 1.75
48.562511 38.071861 -1.2811563 1
48.474052 38.837975 -1.3595079 6
48.406246 39.754459 -1.2885078 1
48.504688 40.125893 -1.2274599 1.5
48.66658 40.900986 -1.2338349 3.75
48.671707 41.297333 -1.2656257 1.5
48.427338 41.638107 -1.3156365 1
48.698357 42.24588 -1.300981 1.5
48.597713 42.614628 -1.2948335 2.75
48.470081 43.044449 -1.2969102 3.75
48.573063 43.393112 -1.3238246 2
48.514862 43.757389 -1.2480003 2.5
48.632164 45.107166 -1.3278841 4
48.542927 47.78088 -1.3505641 2.5
48.433739 48.303905 -1.2324606 4
48.418606 48.481735 -1.4960328 2
48.761242 50.249405 -1.3228767 3
48.600121 50.464764 -1.3405415 3.8857143
48.690701 51.588757 -1.3482741 3.6666667
48.707359 51.670288 -1.368867 5.2222219
48.60656 30.138733 -1.0604804 4
48.570442 30.649916 -0.92354578 4
48.627346 31.024792 -0.91514063 2.5
48.622761 31.425724 -0.91819108 2.25
48.608315 31.815943 -0.86000466 1.7
48.60186 32.151409 -0.87504661 1.1666666
48.682846 32.587879 -0.85526133 1.5
48.500843 33.063911 -0.84597206 2
48.564426 33.411423 -0.85843247 1.875
48.543159 33.76656 -0.95254046 2.1428571
48.624031 34.198936 -0.93881589 2.3181818
48.62479 34.520142 -0.98226368 1.6666667
48.61105 35.001083 -0.96602726 2.45
48.543373 35.361572 -0.99267948 1.5
48.47406 35.875713 -1.0005301 2.3333333
48.593906 36.284775 -0.96555072 2.2222223
48.556721 36.629063 -1.0024449 2.4791667
48.607632 36.920559 -0.96954763 2.7291665
48.624352 37.381153 -0.94697434 3.6666667
48.480984 37.854855 -1.1036123 3
48.524227 38.205208 -1.0765421 2.7
48.494492 38.590786 -0.89518869 3
48.480122 39.071964 -0.90866071 4
48.461037 39.31506 -0.91071546 3.9614034
48.483818 39.925381 -0.92784649 5.3333335
48.482731 40.126514 -0.98057735 3.3333333
48.5597 40.704494 -1.0423402 3.6666667
48.700974 40.933735 -0.98688114 3.0625
48.434681 41.236858 -0.80657244 6
48.53883 41.855309 -1.1822453 6
48.402699 42.218124 -0.97334623 6.5
48.534512 42.999126 -1.0458815 4.4761901
48.601326 43.325348 -1.0207235 4.125
48.679585 44.841236 -1.1803292 4
48.5961 45.493069 -0.93864214 5
48.652828 46.485847 -0.92184997 6
48.623878 46.947937 -1.1208743 5.5
48.557701 47.281136 -0.97066218 4.1999998
48.639381 47.704025 -0.99456531 4.1923075
48.55257 48.134975 -1.1258229 3.6666667
48.703743 50.233299 -0.89821613 6
48.570099 50.548141 -1.0770948 4.3333335
48.703201 51.614544 -0.91631627 5.4000001
48.591866 30.68045 -0.61793327 4
48.684109 30.927521 -0.68692499 4.5
48.609524 31.630745 -0.73163319 3
48.563736 32.157169 -0.49129695 3.6666667
48.655193 32.653397 -0.50856453 3.9333334
48.663864 32.871056 -0.55942506 3.787879
48.538033 33.437073 -0.71036935 2.3636363
48.491543 33.629944 -0.71810716 3
48.71841 35.0298 -0.74229604 3
48.540295 35.407307 -0.73571622 2.6428571
48.620552 35.872391 -0.64704752 3.4375
48.622311 36.211849 -0.56631553 4.2272725
48.566681 36.622723 -0.64860409 4.1723814
48.61517 36.974701 -0.61121196 4.1781607
48.670273 37.357063 -0.60243744 4.4083338
48.54425 38.215378 -0.60502964 5.75
48.437664 39.168049 -0.58011293 4.3571429
48.451031 39.395874 -0.56529266 5.3828573
48.421185 39.957115 -0.59674656 6
48.734634 40.917854 -0.61968696 5.5
48.493389 42.166702 -0.61262256 7
48.445572 43.253632 -0.55943328 5
48.45517 44.822216 -0.61836123 6
48.540699 45.603642 -0.6728369 6
48.763359 47.583786 -0.73696893 5
48.536617 50.363014 -0.53771389 7.5539999
48.563927 50.559719 -0.6175704 6.3092499
48.431129 51.582272 -0.6743803 6
48.609241 51.627037 -0.53771788 6.9166665
48.575447 30.961315 -0.13431749 7.0545001
48.728699 31.256374 -0.017398683 6
48.707527 31.638124 -0.29256701 5
48.662548 32.195877 -0.15863188 5.5
48.664696 32.678898 -0.17700952 5.0104165
48.651752 32.879063 -0.15448499 5.4047618
48.54071 35.4562 -0.21963628 6
48.74844 35.921478 -0.38632986 6
48.659607 36.114895 -0.35287261 4.75
48.55928 36.647324 -0.24449192 5.7064462
48.568302 36.901051 -0.22337225 5.7604165
48.613098 37.354855 -0.21722217 6
48.518269 37.87162 -0.14050879 6.4285712
48.498207 38.362953 -0.21780275 6.3333335
48.459446 38.54002 -0.11361582 6.75
48.452042 39.132061 -0.18767945 6.2142859
48.446693 39.397373 -0.15166211 6.757576
48.441833 40.138168 -0.20682622 7
48.415543 41.363937 -0.3778477 7
48.57436 43.489262 -0.30568218 6
48.662796 50.311951 -0.16536783 8.1189089
48.571796 50.638889 -0.22385326 7.7220783
48.783192 50.857441 -0.13739397 8.1571665
48.421017 51.597794 -0.20050938 8
48.601685 51.634506 -0.18372136 8.090909
48.775764 30.250397 0.16124777 5.6666665
48.775356 30.596268 0.22316755 5.8333335
48.728622 30.971964 0.10863724 6
48.739902 31.214256 0.23394997 6
48.714375 31.826567 0.29298908 7.0345001
48.724754 32.10231 0.28785983 7.0354996
48.670109 32.65057 0.26385936 6.8124194
48.646156 32.889881 0.28959376 7.0437827
48.63942 33.49971 0.33363858 7
48.627575 33.627403 0.33194005 7
48.634911 34.197311 0.30719468 7
48.609985 34.638271 0.24875106 7
48.601227 34.944912 0.28308693 7
48.567654 35.540756 0.2250075 7
48.691875 35.681793 0.24863718 7
48.572411 36.103424 0.22200233 7
48.565315 36.663013 0.2144222 7.362288
48.545769 36.925053 0.21171147 7.4617982
48.490505 37.372982 0.16501759 7.470643
48.470955 37.731972 0.13768205 7
48.459389 38.222328 0.18817014 7.4474998
48.42823 38.677998 0.20816909 7.342833
48.44442 39.127148 0.21630777 7.6666665
48.447392 39.385777 0.23153469 7.8486781
48.422852 39.686394 0.26085317 7.9222002
48.41394 41.503277 0.20075548 8.0655003
48.48312 41.936787 0.055666272 8
48.464886 42.11145 0.073234357 8
48.441872 45.659252 0.25059399 9.059
48.576321 50.334953 0.15746693 9.0636997
48.549263 50.654381 0.23094448 9.3017282
48.729939 50.834915 0.29504856 8.1737499
48.559902 51.655525 0.19252481 9.2196064
48.409348 58.728542 0.37751824 8.1774998
48.736816 30.281019 0.6329996 7.5109997
48.733467 30.584751 0.52626634 7.4236999
48.740131 31.01153 0.56368393 7.8471003
48.732922 31.424631 0.4854573 7.3509998
48.71719 31.744907 0.48263818 7.6170001
48.719337 32.299213 0.59922135 8.402667
48.680492 32.68536 0.64050597 8.2323332
48.637459 32.941948 0.67267859 8.1889544
48.641735 33.349091 0.58846068 8.0487499
48.639935 33.813957 0.68855917 8.0170002
48.671463 34.035343 0.70284289 8.5300007
48.578697 34.576561 0.62656784 8.0328341
48.69355 34.872456 0.49713168 8.0430002
48.522484 35.335453 0.75237375 8.3684998
48.518009 36.256401 0.67623639 8.4397993
48.549568 36.674442 0.64670187 8.6978464
48.523663 36.944145 0.63217777 8.6074619
48.485657 37.458736 0.60902137 8.4942274
48.458229 37.802986 0.68632102 8.7684298
48.46706 38.197598 0.70759296 8.9749041
48.416615 38.595249 0.73891979 9.4666996
48.437145 38.985371 0.67811346 9.5526247
48.447094 39.383118 0.67158264 9.262435
48.509075 39.710815 0.64846396 8.7955618
48.406609 40.168823 0.6280908 9.0745001
48.413929 41.051445 0.58523178 9.5527496
48.450409 42.074013 0.73219788 9
48.478508 45.233906 0.71449369 9.0854998
48.520535 50.247986 0.42380843 9.0780001
48.774315 50.647263 0.69069403 9
48.602104 50.825001 0.73276252 9.4181662
48.619282 51.561729 0.66050905 9.2852001
48.616734 51.660847 0.62998712 10.590056
48.653793 54.749664 0.58123934 9.1055002
48.713062 30.23678 0.99508089 8.3474169
48.732494 30.588614 0.9687795 8.7445002
48.721504 31.038727 0.96593779 8.8658333
48.712189 31.379698 0.92147923 8.8014374
48.728264 31.826946 0.86113715 8.6067505
48.657516 32.263424 1.0027235 9.2306004
48.6745 32.641361 0.96241564 9.600462
48.647793 32.915363 0.91776204 9.2193432
48.629021 33.353313 0.90319121 9.0736666
48.651253 33.881191 0.98925292 9.7051668
48.57 34.244652 0.90492773 9.0210838
48.588219 34.589352 0.8637529 9.4059992
48.543484 35.01553 0.8817941 9.0562496
48.55991 35.476093 0.87712181 9.46665
48.550125 35.851486 0.85122836 9.5720005
48.530457 36.221966 0.8730914 9.7106667
48.531822 36.71664 0.91076434 9.8369741
48.546806 36.866768 0.94302154 10.22677
48.506626 37.422077 0.84517765 9.715333
48.464401 37.746334 0.82146138 10.0345
48.465549 38.326454 0.82329655 10.063
48.456562 38.725822 0.82378328 10.06425
48.418282 39.427578 0.8929534 10.433332
48.489902 39.666973 0.92943418 11.0375
48.414818 42.213707 0.81900704 11.0555
48.472073 50.899277 0.90834528 10.60425
48.539616 51.480408 0.9316864 10.039187
48.562275 51.672886 0.9180243 11.549942
48.709843 53.052704 1.0716084 9.1590004
48.585804 54.646255 1.1461008 11.3825
48.589588 54.955658 1.0539074 10.11325
48.621208 58.562073 1.1103905 11.8383
48.783463 30.203022 1.2102298 10.0815
48.589035 42.545944 1.2639874 7
48.608891 50.663528 1.5599575 9.796875
48.645924 50.949867 1.3173554 12.620286
48.799782 51.20562 1.5786389 9.0050001
48.684376 52.962372 1.5877478 14.043313
48.525822 53.334476 1.5655268 15.059
48.695457 53.737446 1.5733936 13.023666
48.616749 54.262623 1.5615405 13.661749
48.650219 54.620701 1.4981226 12.404819
48.664364 54.929169 1.5158906 12.887084
48.63147 55.338367 1.5393213 14.307125
48.593643 55.732811 1.5319997 14.546375
48.618954 56.195038 1.5143081 13.195167
48.599075 56.618641 1.4768057 11.628149
48.647713 57.019287 1.4897251 13.788094
48.666519 57.366436 1.4865675 13.871292
48.555305 57.752125 1.4587954 12.899667
48.579258 58.191814 1.4519436 13.84935
48.596237 58.565178 1.3719858 13.260939
48.511974 58.881367 1.4183464 13.056
48.525814 59.410088 1.4025538 13.15714
48.589626 59.749084 1.4166145 13.887834
48.795845 31.988289 1.8224944 8.1520004
48.74202 32.127686 1.7634066 8.0955
48.755489 35.765743 1.8668447 8.1599998
48.687855 36.317848 1.8428671 8.1035004
48.697418 36.765167 1.9308563 8.1470003
48.729935 37.136608 1.9556272 8.1490002
48.718124 38.683846 1.8642337 8.0810003
48.535202 42.701714 1.8696147 8.1355
48.48716 43.962433 1.9106187 8.1370001
48.476082 44.375046 1.9244465 8.1374998
48.644718 50.656536 1.6537372 11.044562
48.614384 51.022373 1.6683662 13.897178
48.642673 51.336872 1.6731808 13.039166
48.763351 51.735535 1.6602887 14.055249
48.662819 52.166931 1.6415777 14.377666
48.751236 52.410023 1.6906984 13.07125
48.699413 53.070274 1.6150618 13.070375
48.697182 53.393379 1.6214235 14.29775
48.714828 53.628239 1.6351264 13.022
48.599457 54.41637 1.6093233 14.0265
48.521282 40.590706 2.0800881 8.0434999
48.497707 41.428413 2.0911856 8.0445004
48.454926 42.68541 2.1084471 8.0459995
48.48999 43.534145 2.1236873 8.0469999
48.432869 43.96246 2.1281376 8.0474997
48.401604 45.227249 2.1483591 8.0489998
48.698261 58.250893 2.943948 8.0179996
49.039146 48.054722 -1.6276017 4
48.960136 50.589081 -1.7883919 1.6666667
48.891365 51.074554 -1.8345649 1.2
49.035408 51.452133 -1.7887598 2.625
48.838127 37.11953 -1.2113962 2
48.931393 37.962147 -1.2002347 1
48.875805 38.04985 -1.2245909 1
48.81115 38.424049 -1.2141302 1
48.827343 40.8298 -1.3433681 1
48.80817 41.399815 -1.3249933 1.5
48.879803 41.880379 -1.363101 1.5
48.915657 42.078918 -1.2691647 2.6666667
49.032192 42.640739 -1.3349093 2.5
48.800823 42.995396 -1.3675475 2
49.155422 43.401604 -1.3414735 2
49.159721 43.980556 -1.2914851 3
49.0984 44.743759 -1.2820659 3
49.014568 44.966354 -1.224131 4
49.088318 47.19138 -1.3162296 5
49.122108 48.662315 -1.597527 4
49.08025 48.942009 -1.5595554 2
48.88044 50.233402 -1.3644838 5.6666665
48.99379 50.528774 -1.3139881 3.7
49.046951 51.585976 -1.478188 4
49.052216 51.604595 -1.3364679 3.6666667
48.889328 34.70116 -1.0035089 1.5
48.879169 34.996029 -0.93065518 1.9375
48.959431 36.241703 -1.0583169 1.6666666
48.895939 36.569962 -0.97901708 2.4166667
48.894142 37.134193 -0.91742605 2.625
48.973537 37.396614 -1.104457 2.5
48.851307 37.718491 -1.1114079 1.6666666
48.823986 38.453442 -1.1565956 2
48.878353 41.414062 -1.1249777 2.3333333
48.848305 42.239693 -1.119271 3
48.858456 42.543293 -1.1847631 2
49.037586 42.984543 -1.1075679 3.875
48.877491 43.253334 -1.0179908 4.5
48.828426 47.655334 -1.0603456 4
48.922844 50.210403 -0.91632599 7
49.087357 50.558109 -0.96076065 5.166667
49.040825 51.626484 -0.96132499 5.1904759
48.818943 31.070271 -0.67452925 3.5
48.837551 31.205185 -0.78167218 3
48.859798 33.32251 -0.77929145 3
49.050163 35.165016 -0.72924119 4
49.017593 35.260422 -0.68547225 3.5
48.96796 35.871834 -0.63871431 3.75
48.930527 36.165844 -0.57640004 4.2142859
48.921341 36.508541 -0.66456109 3.25
48.920353 36.966923 -0.60511315 3.5999999
48.924767 37.366039 -0.59670007 4.1500001
48.928341 37.611767 -0.7170555 3.5
48.806412 40.93972 -0.52768731 5
48.801231 47.676941 -0.79483974 5
49.008877 50.28751 -0.73717624 7
48.932301 50.649563 -0.5359261 7.0448327
49.126171 50.943874 -0.41968614 7
49.050224 51.637733 -0.55826586 6.666667
48.910793 36.452183 -0.28237092 5
48.923813 50.287846 -0.14380755 8.1023932
49.008659 50.653736 -0.21431369 7.7002501
49.196163 50.840534 -0.0074859718 8.5392494
48.980732 51.650063 -0.13956936 8.1455927
48.809196 30.669329 0.01194942 5
49.00462 35.641121 0.26848048 6
48.891068 50.356018 0.19443288 9.0673332
49.019146 50.544376 0.28079125 9.261281
49.002922 50.910141 0.31594226 8.3907499
49.020458 51.658642 0.22653274 9.2675714
48.820236 30.161369 0.41383213 8.1040001
48.807686 31.24625 0.47962052 8.0924997
49.157841 50.580517 0.41692466 10.033751
48.918098 50.921936 0.66058803 9.1157494
49.137188 51.567833 0.60136354 9.0807495
49.046532 51.676174 0.67451739 10.741834
49.042103 54.987015 0.54917318 8.1767502
48.801929 31.419876 1.1812783 10.079
48.852692 32.908539 1.1659195 10
48.850079 50.753834 1.0290052 9.6199999
48.888607 50.914513 0.8975355 11.522125
48.930092 51.595863 0.92240173 10.0775
49.007179 51.669449 0.89542991 11.534749
48.822258 54.619225 1.0180269 9.1545
48.934715 54.865486 0.87887096 9.1420002
48.805832 30.457514 1.2126074 10.082
48.97736 50.683445 1.4792063 10.203
48.980347 50.910671 1.3960848 12.145144
49.076508 53.023724 1.5803139 12.714168
49.041336 53.759369 1.5767353 13.03518
49.046631 54.141621 1.5778595 13.343625
49.014347 54.607986 1.5101726 12.634482
49.019512 54.925209 1.5385791 12.863204
48.95142 55.367664 1.5508022 13.271676
49.047329 55.798077 1.5293895 14.323393
49.049309 56.140011 1.5090705 13.153222
49.015167 56.569527 1.4924632 12.683768
49.102852 56.959999 1.4702983 13.1915
49.09745 57.388779 1.4532555 13.496545
49.031517 57.775055 1.4632343 14.447574
49.04715 58.145821 1.4378664 14.04775
49.061546 58.595425 1.3929713 13.109813
49.037819 58.964573 1.4078163 13.398981
48.997978 59.311443 1.4033719 13.795606
49.029469 59.764198 1.3843511 13.60886
48.805706 35.621262 1.9323723 8.1759996
49.073841 50.744801 1.7121724 12.4611
48.968479 50.937668 1.6434885 13.498539
49.001461 51.41507 1.6778973 13.327178
49.012394 51.708881 1.658435 14.377167
48.985966 52.167091 1.6414443 12.537687
49.005474 52.576878 1.6372877 13.671187
49.005512 52.942017 1.6219264 13.299062
49.058327 53.326981 1.6327116 14.05475
49.02935 53.767303 1.6066974 15.045626
48.981804 54.078716 1.6160873 12.051126
49.338123 48.270939 -1.6665379 2
49.324306 48.924908 -1.6109858 2
49.539776 49.742683 -1.6543652 2.5
49.424679 50.534477 -1.7378243 2.3
49.553532 51.565998 -1.7511992 2.5
49.414986 51.602848 -1.6720847 2.8333333
49.261078 33.928627 -1.2437732 1
49.250309 38.856743 -1.2866096 2
49.350883 43.776581 -1.2876313 3
49.508369 44.25238 -1.3684008 2.6666667
49.441463 44.588707 -1.3635341 3
49.20042 45.077839 -1.4586377 3
49.598637 45.697884 -1.2756704 5
49.345463 46.693146 -1.276565 5.8000002
49.497925 46.998299 -1.3365004 5
49.274197 47.377136 -1.3154094 5
49.441788 48.248165 -1.3638551 3.5
49.55209 49.683731 -1.5074264 2.75
49.37513 50.539387 -1.3814285 3.5
49.571278 50.852554 -1.5543551 7
49.306973 51.594723 -1.5732268 3
49.452675 51.621784 -1.3508037 3.8611114
49.401226 31.108335 -1.0444871 1
49.261322 34.685425 -1.1485176 1.5
49.376228 35.922115 -0.94276428 2
49.321304 36.112152 -0.86277002 3
49.343235 37.307232 -1.1261333 3
49.486671 44.173389 -1.1805989 3
49.330044 47.066792 -1.0906999 6
49.562016 47.69804 -1.1473701 5
49.385002 50.59734 -0.87573016 5.2222228
49.435905 51.637714 -0.96807176 5.2222223
49.443108 35.862652 -0.72217238 4
49.422466 36.220757 -0.71115154 4
49.364052 50.285442 -0.68532532 7
49.40704 50.629662 -0.57099903 6.5
49.453701 50.851257 -0.55103099 8.1324997
49.489819 51.665459 -0.5079211 6.9000001
49.354065 50.321846 -0.18704541 8.070857
49.402969 50.558956 -0.19556047 7.8845201
49.256016 50.883057 -0.13572195 8.0349998
49.459999 51.673176 -0.14870395 8.0932226
49.264168 50.361534 0.2046341 9.0692501
49.440815 50.524906 0.20337476 9.0414686
49.467838 50.840714 0.11436435 8.6017494
49.300327 51.502579 0.29846433 8.1219997
49.50164 51.69376 0.23185034 9.0580721
49.304794 58.758854 0.38474876 8.177
49.256752 58.872272 0.24654725 8.1765003
49.379723 50.325649 0.55963564 10.04925
49.359692 50.521702 0.48112312 9.6093578
49.545395 50.970642 0.71866894 10.0975
49.340935 51.578053 0.56842589 9.0800838
49.414982 51.689316 0.67628908 10.202255
49.282883 50.887482 0.91523457 10.428833
49.418869 51.691837 0.91098714 11.458678
49.268158 52.183525 0.98142397 9.1517506
49.385159 53.443272 0.8253656 9.1379995
49.352821 53.825157 0.85835427 9.1415005
49.304073 58.485752 1.0279056 9.007
49.49966 50.922935 1.450105 12.6335
49.226284 51.52211 1.5610441 8.5054998
49.393677 52.177372 1.5277101 9.6754999
49.419315 52.62315 1.576936 13.035333
49.490959 52.967407 1.5604722 13.04375
49.388523 53.391155 1.5741984 13.247174
49.366585 53.757912 1.5582156 13.497583
49.377617 54.157207 1.5446242 13.450226
49.405174 54.590256 1.499921 12.35722
49.426422 54.968975 1.4925226 13.282206
49.422558 55.364483 1.4885324 12.869395
49.372986 55.775734 1.4812363 12.834715
49.4216 56.195328 1.4515638 13.110133
49.383732 56.56345 1.4352595 12.251857
49.351021 56.967907 1.4298431 12.792104
49.371597 57.346588 1.3785024 11.458714
49.424206 57.75301 1.3716778 12.2414
49.416473 58.149033 1.3453368 11.794078
49.408596 58.588486 1.3020366 12.405795
49.372623 58.916817 1.3314499 12.547813
49.346649 59.412621 1.3461895 12.793155
49.370651 59.830208 1.2968097 12.05175
49.447578 50.611248 1.657459 10.775843
49.377583 50.926411 1.6743687 13.601055
49.395054 51.353767 1.6605164 13.6474
49.368492 51.769588 1.6456292 13.625396
49.335155 52.197144 1.6399916 13.343325
49.318436 52.595501 1.6325145 14.055901
49.29657 52.960609 1.6208797 14.6526
49.287075 53.386658 1.6118455 14.2547
49.245159 53.852173 1.6233977 11.0785
49.928036 35.776394 -2.2450361 5
49.853249 36.235538 -2.3255177 5
49.752434 50.463055 -2.0618882 1
49.811317 48.162209 -1.7187904 3
49.714878 49.369076 -1.7428606 2
49.677299 49.928753 -1.7192663 2
49.966694 50.253345 -1.8282144 2
49.796516 50.598114 -1.7258854 2.5
49.743633 51.274197 -1.8941243 2
49.849525 51.625477 -1.7225611 3
49.993374 43.548862 -1.4315341 4
49.912003 43.79377 -1.3935452 4.3333335
49.804287 44.209984 -1.3596905 4.6666665
49.726994 44.972466 -1.3384079 3.5
49.746933 45.34066 -1.4410205 4
49.947048 45.651176 -1.49216 5
49.692799 46.018555 -1.4336495 5
49.745071 46.66708 -1.3010048 5
49.603577 47.280045 -1.4597867 5
49.685703 47.875999 -1.4105911 3.5
49.682392 48.181774 -1.5561734 4
49.890377 50.60561 -1.3843967 3.5999999
49.818054 51.645329 -1.3874015 4
49.714855 43.975597 -1.1952844 3
49.792706 46.744156 -1.0110345 6
49.759407 50.316643 -0.97264081 6.3333335
49.915562 50.571529 -1.0152966 5
49.855381 51.663971 -0.98057055 5.3333335
49.605091 35.705524 -0.588085 4
49.648937 36.383911 -0.67101878 5
49.694725 36.683231 -0.77419662 4
49.861427 50.259289 -0.58699745 7
49.882614 50.554184 -0.60125387 6.8214006
49.771328 51.674564 -0.55499232 6.75
49.7799 50.284664 -0.19581473 8.0255003
49.856861 50.580982 -0.16145484 8.0691166
49.793659 50.847103 -0.25979078 8.0862503
49.748528 51.682766 -0.18977508 8
49.868389 50.550484 0.24516672 9.05445
49.778843 50.82655 0.15775774 9.0375004
49.72229 51.70079 0.27208292 9.2926254
49.74213 50.670158 0.65173668 9.1484289
49.813236 51.003948 0.66708648 8.8165007
49.688732 51.552036 0.56841588 8.840374
49.793884 51.6847 0.66111577 9.931632
49.800636 54.837421 0.50263625 9.1110001
49.725273 50.973091 0.95835912 10.573833
49.830608 51.723099 0.94462246 11.25325
49.775578 52.508183 0.88935548 9.1455002
49.781292 52.956028 0.84238154 9.1409998
49.925465 58.776951 1.0176888 9.0074997
49.824913 50.674259 1.4806207 9.8635712
49.781071 50.922668 1.4962089 12.919544
49.800758 51.359676 1.5697336 12.703834
49.80983 51.790092 1.547824 12.613715
49.779736 52.159321 1.5434368 13.327642
49.775623 52.577225 1.5257469 12.602472
49.726658 53.019184 1.5144476 12.642825
49.78709 53.386288 1.48993 12.316387
49.796234 53.763069 1.4842283 12.506614
49.746208 54.187485 1.4827583 13.178751
49.803913 54.558884 1.4504645 12.463571
49.777897 54.983353 1.4128051 11.869166
49.784035 55.423321 1.402092 12.5435
49.775391 55.745365 1.3870939 12.443049
49.759319 56.150864 1.3937194 12.2419
49.765537 56.566036 1.3888121 13.387834
49.755634 56.936935 1.3533123 12.0516
49.764027 57.441288 1.3601861 12.6375
49.747509 57.760063 1.3538308 12.042916
49.645958 58.155952 1.3437563 13.299063
49.719982 58.652447 1.2851198 11.017
49.68037 58.86338 1.3130759 11.718333
49.656357 59.338631 1.2735488 12.03675
49.64101 59.767845 1.2811202 14.05425
49.761436 50.467434 1.6193386 11.017
49.760944 50.90773 1.6352699 12.871667
49.755341 51.384052 1.6323738 12.558812
49.708889 51.826962 1.6205356 12.810813
49.603218 52.094749 1.6262753 13.0665
49.612263 53.16964 1.600289 11.0775
49.907555 57.836926 3.5452893 9.0609999
50.31031 35.814732 -2.2692409 5
50.303207 47.798023 -1.622714 4
50.144188 48.887169 -1.8096272 2
50.119572 50.731041 -1.8451196 2
50.192383 51.025028 -1.8546956 2.0833333
50.05537 51.403168 -1.8786197 2
50.182961 51.631695 -1.6577237 3
50.192299 45.379555 -1.2796558 4
50.133816 46.185909 -1.4551061 6
50.076511 50.275105 -1.4227529 7
50.141254 50.612251 -1.33617 5.3673339
50.132912 51.655945 -1.3780454 4.25
50.029736 50.583851 -0.90006179 5.5
50.205357 51.665039 -0.91064858 5.6666665
50.205029 50.325863 -0.68169063 7
50.172394 50.542171 -0.57382935 7.3693333
50.132858 50.928963 -0.49254683 8.1335001
50.172497 51.687778 -0.47715354 7
50.037773 50.363914 -0.10119932 8
50.192352 50.551239 -0.134718 8.0591812
50.077389 50.909344 -0.0032435223 8.1654997
50.136238 51.700687 -0.18339033 8
50.197365 50.360508 0.37891865 9.073
50.146893 50.642506 0.22680026 9.0382147
50.294628 50.847431 0.26717949 8.6077499
50.189388 51.709373 0.19569309 9.25
50.004898 50.326046 0.42306554 9
50.250744 50.6301 0.5399552 9.3238745
50.200947 51.082436 0.64635175 8.8134995
50.242813 51.467388 0.69055504 9.0994997
50.144485 51.680923 0.61167395 9.7184992
50.05011 55.04266 0.4610998 8.177
50.077721 50.764256 1.112783 10.0765
50.107853 50.877575 0.98489201 9.7891665
50.36681 51.532154 1.0475509 11.525249
50.157864 51.714954 1.0050375 11.157594
50.141674 52.110935 0.92241871 9.1485004
50.384712 54.794018 1.1665546 10.078
50.118114 50.691277 1.4274431 9.0440006
50.209694 50.926643 1.4696033 12.684688
50.137768 51.437294 1.5107411 12.441
50.132751 51.783794 1.5335085 13.297625
50.188999 52.084141 1.4927987 12.313499
50.139069 52.606049 1.487574 12.770571
50.107506 52.946438 1.4962195 13.455301
50.10635 53.34462 1.4618617 11.55975
50.336361 53.844921 1.4412414 11.5715
50.241871 54.231949 1.4221213 11.074582
50.025833 54.602039 1.4500179 11.076
50.341434 54.904469 1.363731 11.0745
50.052269 55.547874 1.3823369 11.0755
50.24818 50.792744 1.6180104 13.0625
50.360676 59.508965 3.6792178 9.1514997
50.692566 35.351604 -2.2431109 5
50.642056 35.937176 -2.2809744 5
50.773365 48.771694 -1.9812481 2
50.778778 34.88736 -1.4672132 1
50.527195 43.858761 -1.5555073 3
50.610355 50.654083 -0.90179259 5.5
50.549801 50.358753 -0.76470166 7
50.547291 50.655434 -0.49934629 7.3708329
50.602295 50.652828 -0.20148014 8.0986242
50.454189 50.808353 -0.30613607 8.1479998
50.445099 50.353722 0.31857145 9.0697498
50.59597 50.620655 0.22771989 9.0604439
50.459049 50.888798 0.22654368 8.6095009
50.556931 50.787518 0.58321464 9.0775003
50.621746 51.044273 0.74507827 9.1177502
50.587063 51.215214 0.4929719 9.1064997
50.470238 57.117062 0.58747846 9.1044998
50.403103 59.008823 0.62467927 9.1009998
50.668453 50.799496 0.93247056 9.1525002
50.766895 51.122162 1.0758224 10.075
50.567284 51.315304 1.0210811 10.0745
50.520378 50.780178 1.3858413 10.079
50.652821 50.990746 1.448128 11.793979
50.513462 51.49918 1.4855163 11.552125
50.630352 51.745541 1.46369 11.8529
50.65023 52.158699 1.4547347 12.2633
50.443821 52.521645 1.4428105 12.7275
50.680073 53.008625 1.4195508 11.569875
50.654156 53.443947 1.3877853 11.569375
50.575634 53.861843 1.3595573 10.079
50.668602 54.379913 1.3566121 11.0735
50.601776 57.720497 3.5837038 9.1499996
50.660324 58.398224 3.628432 9.1505003
50.527683 58.957966 3.6548774 9.151
51.185982 35.068829 -2.4129391 5
50.816891 35.500961 -2.4518356 5
50.927696 35.493801 -2.3268349 5
50.99086 50.292347 -2.0792782 2
51.094494 50.678181 -2.0769236 2
50.992519 44.161915 -1.7228129 5.5
50.81049 50.656673 -1.8405932 3
51.006245 50.865673 -1.6929839 3
50.972889 35.102772 -1.3139274 2
51.059566 35.266273 -1.2613139 2
50.897232 35.654961 -1.3201452 2.75
50.811062 44.332787 -1.4645994 3
50.954296 50.848934 -1.410635 4
50.802364 35.131992 -1.1669655 2
50.946053 35.393696 -1.111529 3
50.872211 35.636688 -1.1347671 3
51.085365 50.665287 -1.099435 7
51.00486 50.889149 -1.052416 5
50.83849 50.391022 -0.65180784 7
50.951824 50.654808 -0.53877532 7.2764997
51.01421 50.649338 -0.12102776 8.0647917
51.027561 50.914566 -0.11917201 8.0425005
50.95982 50.54488 0.27721703 9.0641994
50.963463 50.935848 0.36780816 9.5
50.99585 51.750118 0.13908249 9.0469999
50.995926 50.63435 0.54997736 9.0561247
50.987759 50.915371 0.63195336 9.8864288
50.981503 52.321491 0.65038842 9.0784998
50.863937 56.184788 0.60522747 9.1040001
50.993427 50.565731 1.0560982 10
50.966583 50.95911 1.0384713 11.26205
51.021721 51.386436 1.111125 11.7175
50.999226 51.897812 0.85027808 11.056499
50.94944 50.675652 1.4290268 10.557125
50.962978 50.939243 1.3867674 11.979843
51.00494 51.352524 1.4399859 12.6528
51.007034 51.740971 1.410041 12.456599
51.055351 52.144585 1.3621666 11.401
50.947338 52.573826 1.3908973 12.06375
51.025684 53.025497 1.3433236 11.071
50.904892 53.378922 1.3493798 11.0715
51.00388 53.936104 1.2980061 10.574875
51.017776 54.270813 1.2974759 10.078
51.013184 54.508755 1.2624972 10.0775
50.824104 54.823017 1.3059759 10.0785
51.045158 57.36124 3.5892942 9.1494999
51.177834 57.365677 3.6186328 9.0600004
51.061665 57.91888 3.6332581 9.0605001
51.450363 50.31068 -2.121738 2
51.339657 43.627773 -1.8444878 3
51.207401 44.068233 -1.7208005 5
51.343948 50.613327 -1.7807134 3
51.513504 51.651333 -1.8347285 3
51.228497 35.420986 -1.2710832 2
51.292328 36.538132 -1.3696219 3
51.316811 50.578785 -1.3777776 5.75
51.482388 36.447258 -1.1092515 4
51.48708 50.389942 -0.91784877 7
51.504536 50.612499 -0.86357337 6
51.50692 50.821423 -1.1333251 5
51.4491 50.34687 -0.65797138 7
51.432556 50.597759 -0.59363568 7.1521873
51.509052 50.959099 -0.45710203 7
51.470455 51.771439 -0.49499649 7
51.361416 50.584618 -0.13729331 8.0680666
51.370163 50.609818 0.23994073 8.8930416
51.491997 50.608105 0.46688721 9.0725002
51.310375 50.867931 0.93854803 9.1520004
51.320866 50.739071 1.4390509 10.57475
51.237633 51.853352 1.3410556 12.0605
51.277626 52.930153 1.3268083 11.071
51.714813 34.95116 -1.557447 2
51.796272 50.461926 -1.4377011 7
51.842262 50.376011 -1.1840469 7
51.744225 50.659203 0.52091664 9.0733337
51.730995 50.663605 0.80668628 9.0810003
51.805908 50.668144 1.4668243 11.464
51.805355 50.822739 1.2791464 11.0675
52.275898 30.346876 14.914588 14.0935
52.52282 34.163628 -2.9288371 4
53.75893 45.382812 -3.3110843 5
53.776501 33.392353 -2.8881266 4
54.31263 45.170242 -3.3035684 5
54.249565 33.096123 -2.8737369 4
54.097279 42.737679 -3.1720359 5
54.396564 38.135124 -2.4359796 1
54.348118 38.564159 -2.4424736 1.3333334
54.256866 38.828171 -2.4581263 1
54.300484 39.940308 -2.5054722 1
54.264874 40.606281 -2.5360546 1
54.146145 40.939976 -2.540473 1
54.032799 41.261986 -2.5182366 1
54.389664 46.840195 -2.7257786 4
54.288845 30.442347 -2.0928864 1
54.372437 30.845879 -2.108145 1
54.277981 32.879189 -2.2317231 1
54.346699 33.289124 -2.2435827 1
54.397804 34.874283 -2.2600415 1
54.5923 32.958466 -2.9031465 4
54.76461 33.574265 -2.9559228 4
54.474834 33.785049 -2.9581409 4
54.641205 37.069801 -2.4113853 2
54.679867 41.352863 -2.5402539 2
54.412121 43.663063 -2.6102991 2
54.669334 44.355526 -2.6250525 2.5
54.454445 44.591049 -2.6457324 2
54.777546 45.508049 -2.659364 3
54.738144 50.049583 -2.6806324 5
54.663631 50.89608 -2.7883136 5
54.731609 30.243099 -2.1609547 2
54.520454 31.114437 -2.0877402 1.5
54.74287 31.95813 -2.1849246 3
54.726952 32.003834 -2.1835983 1
54.588856 32.56039 -2.1640956 1.6666666
54.563965 33.063316 -2.2274222 1
54.616844 33.775772 -2.2557094 1
54.510807 34.179176 -2.2370276 1
54.455986 34.479477 -2.2443542 1
54.894073 43.713898 -3.2436464 5
54.970844 32.610817 -2.8860817 4
55.039154 33.35006 -2.9515915 4
55.157028 42.07193 -3.1397595 5
54.868481 43.081375 -3.1868234 5
54.894985 37.549927 -2.4293098 2
55.08651 40.591557 -2.5254707 2.3333333
54.887321 41.064472 -2.5333519 2
55.054184 41.771004 -2.553525 2
55.160652 42.59811 -2.5904417 2
55.004768 43.279949 -2.5983346 3
55.171314 43.943748 -2.5989304 3
55.196152 44.930397 -2.6380155 2
55.091858 45.224182 -2.6508923 3
54.942722 46.421593 -2.6969433 4
54.820889 48.780457 -2.7944868 4
54.877487 50.337505 -2.7380052 2
55.154209 50.76683 -2.7386556 5
55.058693 30.360231 -2.0203288 2
55.017887 30.656942 -2.182559 2
54.801785 30.883993 -2.0468218 2
55.093884 31.541666 -2.1645761 3
55.009304 31.772993 -2.1084754 3
54.874092 32.11718 -2.0618629 3
54.846432 36.338249 -2.3658159 2
55.218819 43.931732 -3.2764394 5
55.34639 32.250916 -2.8848641 4
55.373074 41.96685 -3.1467516 5
55.349709 42.873936 -3.1840365 5
55.459335 48.985271 -2.8194695 2
55.507114 49.329884 -2.8365922 2
55.468479 37.754623 -2.4097428 2
55.492744 41.010311 -2.5323715 2
55.378727 41.218048 -2.538034 2
55.384556 42.184822 -2.5774393 2
55.531498 42.777359 -2.5994956 2
55.565525 43.546928 -2.58445 3
55.467579 43.85363 -2.6386051 2
55.317379 44.171223 -2.6486526 2
55.473434 45.775589 -2.6512969 3
55.227188 46.225899 -2.6862335 4
55.464432 46.674316 -2.6728699 3
55.366364 47.674534 -2.7636263 4
55.345852 48.319092 -2.7607105 4
55.323753 50.183983 -2.6931167 5
55.558392 30.136496 -2.1711128 2
55.546329 31.021154 -2.1451695 3
55.317638 31.434906 -2.0709765 3
55.371887 34.394798 -2.2977161 2
55.497639 34.60667 -2.3116226 2
55.282738 35.635777 -2.3311777 2
55.958538 42.520561 -3.2401643 5
55.787003 43.502098 -3.2759836 5
55.7575 43.782261 -3.2797165 5
55.918003 58.075485 -3.2480068 6
55.778957 36.611889 -2.8920059 5
55.833794 41.783875 -3.1491892 5
55.865814 42.74535 -3.191597 5
55.922722 49.196838 -2.8829403 2
55.881859 49.91993 -2.915926 2
55.960728 37.781353 -2.4061203 2
55.840393 38.956371 -2.4627748 2
55.963215 39.916111 -2.4919701 2
55.837296 40.251263 -2.5055637 2
55.646744 40.726524 -2.5231254 2.5
55.978638 41.67944 -2.5641484 2
55.785141 42.235836 -2.5856493 2
55.643692 42.562592 -2.5954382 2
55.867096 42.867569 -2.6058857 2
55.913769 43.32555 -2.6002128 2.5
55.825272 45.344372 -2.6315181 3
55.836472 46.264278 -2.6597207 3
55.794067 47.366085 -2.7473838 4
55.922749 30.273832 -2.0677075 2
55.787846 30.62199 -2.1179142 2.4000001
55.770687 30.952784 -2.1049032 2.5
55.725266 32.042103 -2.237045 2
55.815662 32.547695 -2.0723116 3
55.675533 35.071064 -2.3280873 2
55.774452 35.292873 -2.3395665 2
55.904335 35.766117 -2.2878618 2.6666667
55.715641 36.647541 -2.3622937 2
55.812473 37.192791 -2.3799655 2
55.836155 37.8489 -2.3809745 2
56.31142 30.675562 -2.8665082 4
56.284374 31.206572 -2.8818758 4
56.042786 32.335316 -2.9198532 4
56.221485 38.347874 -3.0904999 5
56.248947 50.207798 -3.005657 2
56.361027 51.073723 -2.8220637 5
56.301044 34.193207 -2.4575782 4
56.077999 38.3797 -2.4264066 2
56.156658 38.736763 -2.4424224 2
56.209103 39.092751 -2.4556069 2
56.224655 39.457287 -2.4636288 2
56.260143 39.707672 -2.4928696 2
56.139175 40.243893 -2.5041032 2.25
56.191151 40.675957 -2.5229712 2
56.338966 41.126705 -2.5327687 2
56.238483 41.330524 -2.5471513 2
56.24794 41.869541 -2.5717707 2
56.181324 42.11137 -2.5718992 2
56.202 42.660408 -2.5821083 2.2
56.118431 42.943226 -2.5872896 2.5
56.387924 44.257862 -2.6625495 3
56.26923 44.967205 -2.6339052 3
56.2001 45.837742 -2.6462669 3
56.233013 47.05825 -2.7335274 4
56.206051 47.714062 -2.7336099 4
56.243374 48.438717 -2.7362382 4
56.248932 51.412159 -2.7972376 5
56.221504 51.881134 -2.6651359 3
56.113449 30.233625 -2.1086891 3
56.230373 30.733221 -2.1707323 2
56.313599 31.021734 -2.1796038 2
56.11694 31.410952 -2.2198966 2
56.248314 31.756081 -2.1252174 2.5
56.088669 32.096424 -2.0446098 3
56.265831 35.032024 -2.3397684 2
56.385365 35.378838 -2.3585377 2
56.275074 35.852161 -2.3295305 2
56.218616 36.203201 -2.3429565 2
56.153477 36.595631 -2.3868539 2
56.213779 36.849117 -2.3441081 2
56.02026 30.51524 -1.9847788 3
56.427479 42.338184 -3.2450721 5
56.543766 43.063488 -3.2535264 5
56.703079 57.14082 -3.3306639 6
56.510254 57.372314 -3.2086868 6
56.799759 38.886074 -2.9325752 5
56.64793 40.014675 -3.1549506 5
56.671658 41.29813 -3.1259236 5
56.579082 41.710979 -3.199815 5
56.620037 49.760273 -2.8192744 4
56.553562 52.503906 -2.8568242 3
56.750195 53.366734 -3.0261431 4
56.780895 55.209507 -3.1751273 6
56.699142 57.40015 -3.162415 6
56.519707 58.061718 -3.0174594 6
56.518726 33.916111 -2.434597 4
56.777084 35.137836 -2.4410179 4
56.702572 37.04636 -2.4133661 2
56.718269 37.428467 -2.4301636 2
56.762047 37.840332 -2.4447989 2
56.664654 38.163776 -2.4523785 2
56.687584 38.584862 -2.4746144 2
56.627533 39.011284 -2.4839835 2
56.577118 39.433357 -2.4963875 2
56.59314 39.815777 -2.503767 2.5
56.542534 40.086639 -2.51982 2
56.512947 40.6022 -2.5377793 2
56.414169 41.294353 -2.5544629 2
56.532082 43.821556 -2.7610145 3
56.669502 44.099068 -2.6753101 3
56.577187 44.827904 -2.6539342 3
56.629379 45.283558 -2.6276147 3
56.658188 46.23875 -2.6661398 3
56.419369 46.578293 -2.6788869 3
56.5653 46.900948 -2.7351456 4
56.709164 49.082462 -2.6113827 4.5
56.599567 30.266462 -2.1156268 2
56.672329 30.628189 -2.12866 2
56.45599 31.503572 -2.1977272 2
56.528465 31.873251 -2.2074504 2
56.644855 32.358021 -2.2268317 2
56.708042 32.727909 -2.2391045 2
56.597775 33.048981 -2.2755954 2.3333333
56.624989 33.362297 -2.2815788 2
56.750782 33.714985 -2.2434645 2
56.687344 34.585205 -2.2642829 2
56.598392 34.961369 -2.2825456 2
56.554001 35.387318 -2.2943468 2
56.592339 36.182129 -2.3546052 2
56.635258 36.669647 -2.3889196 2
56.742367 30.802725 -1.9632884 3
56.508499 31.274769 -1.9910845 3
56.999329 34.053452 -2.8944209 5
56.950863 36.543545 -2.9666133 5
56.999939 36.985455 -2.8856912 5
57.02914 38.530281 -2.9314024 5
56.985508 38.993603 -2.9400575 5
57.107643 39.657936 -2.9819765 5
56.926044 41.216095 -3.1321042 5
57.164219 41.845634 -3.1559253 5
56.944427 50.434444 -2.8190939 4
57.013607 51.791737 -2.8754356 5
57.176819 52.512222 -2.8477371 5
56.934223 53.57576 -3.0640676 6
57.003628 53.75103 -2.932606 6
56.96751 54.133514 -3.0474243 5
56.841576 55.029655 -2.9557459 6
56.926525 56.229225 -3.1696942 5
57.185398 57.597488 -2.923938 6
56.835476 57.838055 -3.1031179 6
57.119232 33.486771 -2.4234214 4
57.062645 34.910496 -2.4337225 4
57.188793 37.133518 -2.7383397 5
57.173199 37.287632 -2.7480304 5
57.091827 39.347439 -2.4907711 3
56.979424 40.74403 -2.5518873 3
57.011997 43.634861 -2.6550367 3
56.826885 44.020603 -2.7270188 3
57.157593 44.528667 -2.7515075 3
56.895416 45.110195 -2.6402125 3
57.003716 45.690762 -2.6902573 3
57.121391 46.050198 -2.5643501 4.5
56.997246 46.575813 -2.6294014 4
57.017506 47.223675 -2.5879519 6
57.183189 48.654362 -2.5616515 3
57.103931 49.005703 -2.7241051 6
57.0173 49.777302 -2.7351904 4
57.011345 51.546406 -2.7029555 4.5
57.039009 51.758888 -2.6849685 3.6666667
56.89518 52.01524 -2.6968796 3
