# .PCD v0.7 - Point Cloud Data file format
VERSION 0.7
FIELDS x y z intensity
SIZE 4 4 4 4
TYPE F F F F
COUNT 1 1 1 1
WIDTH 1230
HEIGHT 1
VIEWPOINT 0 0 0 1 0 0 0
POINTS 1230
DATA ascii
52.565002 -78.735641 4.7459545 8.158
52.441799 -77.70842 4.5501914 8.1680002
52.413063 -74.012688 4.5605855 10.114
52.549496 -73.862328 4.5822802 9.1507502
52.483429 -73.322136 4.5966678 9.7585287
52.638153 -72.986099 4.6151519 9.7884979
52.682056 -72.628479 4.608592 9.4147539
52.697514 -72.198441 4.5972619 9.436223
52.643993 -71.777687 4.5943575 9.8326054
52.61525 -71.390373 4.5561142 9.5520945
52.669937 -71.005409 4.5743051 9.8701525
52.603642 -70.558861 4.5527587 10.086269
52.58881 -70.29451 4.593431 10.583809
52.677078 -69.810707 4.5071745 10.563901
52.673878 -69.483818 4.5027823 10.16305
52.584846 -68.959656 4.5383573 10.1971
52.526508 -68.542328 4.5584712 11.208887
52.570747 -68.212128 4.5276709 11.475887
52.521614 -67.81218 4.5923233 11.611727
52.505688 -67.448143 4.5879626 12.19734
52.490948 -66.988777 4.5172253 12.120262
52.49041 -66.587196 4.5368023 12.647013
52.519417 -66.219353 4.5828352 11.771392
52.441551 -65.737625 4.4725685 12.618266
52.450756 -65.326675 4.5742555 12.358561
52.447708 -65.059204 4.5040927 12.246342
52.453213 -64.617477 4.5002937 13.572214
52.478935 -64.260155 4.5840716 10.2202
52.650936 -63.196003 4.4622583 15.1275
52.484188 -62.502884 4.5916667 12.50428
52.454586 -62.197449 4.5388322 10.728749
52.590424 -61.846714 4.5753689 13.082675
52.407528 -61.569622 4.7483025 11.1
52.453373 -61.111206 4.5359225 9.0935001
52.455257 -60.639397 4.4820671 12.68805
52.626606 -60.203506 4.4742627 14.1203
52.450596 -76.664711 4.9741936 8.0150003
52.565384 -74.690437 5.1729655 11.1035
52.59116 -74.241219 5.0788999 11.5234
52.424911 -73.78492 5.0653853 9.8153744
52.431843 -73.362701 4.9009686 9.7940912
52.581966 -72.986862 4.8813062 10.706307
52.699585 -72.625862 4.8898191 10.64595
52.731575 -72.173477 4.8446074 11.317937
52.727268 -71.922531 4.8978715 10.673362
52.728889 -71.423737 4.8370934 10.741166
52.723408 -70.991302 4.8653507 11.761889
52.516083 -70.544991 4.9514871 11.794199
52.504105 -70.321518 4.9870925 12.241015
52.707199 -68.568771 4.8196592 14.1405
52.542389 -67.795006 4.9897299 12.232978
52.516521 -67.417381 4.9187541 11.958166
52.471451 -66.495598 4.811275 12.07925
52.588547 -66.360161 4.8175931 12.94175
52.483147 -65.301346 4.904808 14.056333
52.444557 -65.1689 4.9697309 14.5
52.510868 -64.345627 4.8167439 13.472333
52.758724 -77.428749 5.3500528 10.158
52.712662 -76.494583 5.5906544 10.093
52.47226 -75.004272 5.2717695 12.1175
52.583221 -74.562096 5.2171135 12.134501
52.548096 -74.264793 5.3174272 10.5255
52.420074 -73.645256 5.4956679 10.084249
52.42662 -70.338326 5.3135285 10.531751
52.591698 -68.068611 5.2572536 13.114
52.690277 -67.887207 5.2481942 12.752833
52.779633 -61.746498 5.2945523 11.012
52.485191 -78.699692 5.9235501 9.0915003
52.403954 -78.089966 5.9913077 9.092
52.684555 -77.755714 5.8096042 10.444
52.677658 -77.451454 5.9264598 11.1035
52.762413 -76.525726 5.7794609 11.097
52.792057 -76.022469 5.9317226 9.0944996
52.429279 -74.462494 5.8529153 9.0024996
52.433163 -74.307472 5.8939953 12.16525
52.478573 -73.837837 5.7334776 12.14525
52.635178 -78.689659 6.2191749 9.5931253
52.553909 -78.104485 6.2436681 12.5179
52.78418 -77.635094 6.038342 9.092
52.683105 -77.343559 6.1363435 11.328751
52.579281 -77.014168 6.2404275 12.553071
52.729675 -76.116814 6.2689552 12.084416
52.645187 -75.937386 6.3571448 13.288167
52.570438 -78.819756 6.7564039 13.10675
52.450134 -78.627037 6.522882 10.094
52.693871 -78.173927 6.6499987 13.6465
52.624222 -77.761818 6.5853653 11.596916
52.428108 -77.433983 6.5755963 12.120501
52.617001 -76.996651 6.6074352 13.863874
52.695427 -76.566261 6.6102591 14.63025
52.592617 -76.036606 6.5789442 13.088699
52.705395 -75.912712 6.4939184 11.58075
52.442986 -75.532661 6.7812753 9.0035
52.658295 -89.956535 7.0080681 9.6644993
52.551208 -89.480598 7.1899171 9.1689997
52.482613 -88.162209 7.1226072 10.165
52.735802 -87.729073 7.1477165 9.1619997
52.43285 -82.22123 7.1129661 10.093
52.559601 -78.599213 6.987812 14.122041
52.611977 -78.247734 7.0489087 13.651502
52.632111 -77.805733 7.0414062 13.24764
52.721569 -77.490936 7.0355802 13.121583
52.6959 -76.913719 7.0149999 12.5171
52.609821 -76.530777 7.0161185 12.358909
52.565262 -76.298332 6.9941707 11.65945
52.552425 -75.835197 7.045785 11.054601
52.789215 -89.931938 7.2739501 9.1660004
52.597023 -82.124252 7.2202177 11.0915
52.427273 -81.297989 7.2065434 9.0004997
52.466125 -80.852173 7.5541902 15.1205
52.456371 -79.179245 7.2438836 15.117
52.723209 -78.464325 7.4672852 14.1565
52.571209 -78.110703 7.442277 14.128214
52.539055 -77.692513 7.3670626 12.87275
52.440613 -77.422592 7.3426023 11.379125
52.421448 -76.941505 7.4925714 12.054
52.636074 -76.622437 7.3765297 12.961834
52.5723 -76.148399 7.4101529 11.468859
52.655304 -75.776535 7.4042468 13.096151
52.654606 -75.525429 7.4641972 13.057999
52.668633 -89.460548 7.8952255 11.158
52.449768 -89.181366 7.6572185 10.167
52.417015 -88.265358 7.7176442 11.159
52.549721 -82.179535 7.9022293 12.129
52.562225 -81.890533 7.8861399 10.1595
52.771832 -78.565125 7.8014441 9.0030003
52.665447 -78.221519 7.8090982 11.171
52.518696 -77.71064 7.902514 13
52.562798 -77.410118 7.7539377 10.1365
52.558006 -76.823112 7.789505 14.165501
52.739189 -76.635582 7.7169428 13
52.549854 -76.195198 7.883194 11.936249
52.602196 -75.820808 7.8196487 12.231207
52.659687 -75.404053 7.8689919 13.056
52.617355 -89.2276 8.1334705 10.66675
52.689308 -88.806526 8.000577 10.1695
52.437561 -88.471764 8.3297911 10.162001
52.575272 -88.333122 8.301403 11.166
52.740555 -87.724083 8.3434696 10.1615
52.751171 -87.456268 8.0505228 10.171
52.619354 -80.939598 8.2657356 13.14175
52.459175 -80.567398 8.251009 14.457334
52.617817 -80.238983 8.1850986 15.153
52.778503 -79.822128 8.3482161 13.498166
52.632141 -78.099304 8.2142849 14.162999
52.615246 -77.780991 8.1233225 12.176333
52.670624 -77.342934 8.0387764 12.08525
52.510979 -77.106689 8.0247202 14.162
52.562729 -76.621048 8.2346907 12.838125
52.624813 -76.120819 8.1667795 12.955785
52.609356 -75.77433 8.1854553 13.054134
52.647163 -75.480843 8.1989527 13.296124
52.538803 -88.495895 8.5022783 10.495999
52.61087 -88.289024 8.413847 11.6605
52.733013 -87.789268 8.7547808 12.164
52.570435 -81.618469 8.584938 15.151
52.634987 -80.309036 8.4952526 15.153
52.772106 -79.790726 8.428875 15.154
52.63475 -79.29921 8.6738129 10.6775
52.61974 -79.0895 8.6275883 13.1675
52.612358 -78.604095 8.6464729 13.7354
52.549129 -77.734894 8.5152855 14
52.579624 -77.468079 8.5858927 11.2295
52.616882 -77.092918 8.5307159 12.178499
52.615189 -76.550774 8.5977783 12.505049
52.542137 -76.262451 8.5954723 12.566787
52.650528 -75.825523 8.58249 13.075999
52.645187 -75.31041 8.4109192 11.0005
52.440926 -88.634521 8.8303099 12.163
52.634392 -88.184715 9.092864 13.149
52.767139 -84.986748 8.9676924 12.65975
52.505062 -84.041992 8.9978151 13.1635
52.608482 -83.805763 9.1562252 15.103
52.54044 -83.413643 9.1598787 12.502
52.63805 -82.390671 9.1467476 13.171
52.543915 -81.674088 8.9229431 15.0995
52.61039 -81.481544 9.1744289 12.1755
52.456345 -80.496902 8.940506 11.173
52.524303 -79.792068 8.8944483 13.9662
52.646408 -79.467255 9.0187836 13.882428
52.533092 -79.039917 8.9124756 14.169001
52.574009 -78.684814 9.0613194 11.858375
52.551571 -77.789116 9.1179218 15
52.620037 -77.418213 9.0860767 12.841334
52.67506 -77.020363 8.8692894 12.6685
52.601303 -76.561264 8.9943924 14.270599
52.582672 -76.18483 8.9680672 12.72666
52.667099 -75.832359 9.0210724 12.7735
52.52034 -88.956261 9.432333 13.15575
52.479652 -88.132149 9.3885746 12.167
52.787003 -87.953804 9.4241123 12.16375
52.667641 -85.033379 9.3304386 14.897375
52.596348 -83.719978 9.2305031 15.148
52.473644 -83.447548 9.3361607 14.655251
52.794254 -82.88269 9.2352142 13.1705
52.468433 -82.700562 9.3883696 12.912374
52.454796 -79.30838 9.3954687 13.839667
52.471394 -78.944267 9.3537731 11.046249
52.434933 -78.662163 9.3615046 13.129
52.561619 -78.245338 9.4951735 12.63375
52.636597 -77.439857 9.5124226 14.479
52.444633 -77.055 9.3446808 12.08975
52.761436 -76.404251 9.2873411 13.0945
52.659904 -76.336327 9.3912964 14.6335
52.533344 -89.931564 9.6518507 13.155
52.45002 -88.088821 9.6642952 13.1635
52.798767 -87.554329 9.9185486 12.17
52.610046 -86.004051 9.6715984 11.163
52.449249 -85.957237 9.6922483 11.16
52.478947 -84.088852 9.8360958 12.834167
52.493626 -83.348236 9.8850212 15.1595
52.645367 -82.875481 9.9827251 14.092
52.434132 -82.237129 9.9342709 15.1635
52.509476 -81.096367 9.9362564 12.6755
52.443127 -80.198914 9.9164066 13.1765
52.629269 -78.594826 9.8324795 13.63525
52.536743 -78.243416 9.7659006 12.634501
52.74107 -87.923592 10.191504 14.157
52.743561 -85.950691 10.268974 13.63525
52.619007 -82.214127 10.056856 12.175
52.637478 -80.213036 10.102196 13.08725
52.606838 -79.88398 10.202358 12.452499
52.578903 -79.433136 10.161487 11.0915
52.453728 -79.084137 10.236751 11.175834
52.733982 -78.169296 10.123069 15.175
52.729736 -81.070213 10.752438 15.1725
52.78548 -80.359917 10.744858 13.094
52.635273 -79.263924 10.474689 14.592501
52.464149 -78.843895 10.771812 12
52.486656 -78.696342 10.767975 12
52.488861 -80.749641 11.171879 13.0935
52.61364 -79.419304 11.044388 12.547501
52.776096 -88.407387 11.402279 15.095
52.701801 -80.626297 11.519073 15.092
52.656658 -79.752235 11.467569 14.046249
52.62368 -79.385605 11.51287 13.479667
52.45277 -79.188751 11.399395 14.094
52.704742 -81.164375 11.799365 12.092
52.564674 -79.820625 11.860836 11.091
52.58551 -79.369133 11.753835 13.361376
52.567303 -82.267776 12.065449 12.1735
52.601498 -80.602646 12.078651 12.17525
52.555538 -79.843071 12.297352 15.0935
52.563908 -79.580246 12.248801 13.092501
52.497353 -89.410576 12.597902 15.0915
52.504219 -79.409622 12.539684 14.132875
52.669563 -87.442558 13.023262 15.16925
52.766102 -87.024506 12.929802 14.6705
52.493973 -82.813782 13.066495 15.1745
52.449196 -82.184349 12.866995 12.179
52.435787 -80.556953 13.030378 13.6685
52.447117 -80.243652 13.196493 14.164
52.645863 -79.8321 13.000156 12.82025
52.739479 -82.263466 13.20402 12
52.601944 -80.538567 13.542235 13.092
52.642769 -79.771767 13.218925 15.094
52.666664 -82.212463 13.81822 13.1735
52.449928 -81.113152 13.600855 12.0005
52.557335 -80.604897 13.835043 14.453167
52.582241 -82.322525 14.315208 14.165
52.464169 -81.205475 14.139122 13.091
52.700031 -80.614555 14.01591 15.0935
52.478127 -82.353302 14.621491 15.093
52.578388 -82.60321 14.809531 14.093
52.454803 -82.361801 14.976936 15.093
52.680222 -81.916054 14.90082 15.16
52.816559 -68.557411 2.3057735 1
52.858803 -68.354561 2.3509185 1
52.862583 -66.981194 2.3439238 1.75
52.843868 -66.737022 2.2781696 1
52.803158 -68.491844 2.6305425 4
52.805141 -68.214035 2.6176121 2.5
52.844391 -67.901161 2.623105 2.5833333
52.827808 -67.430008 2.6440239 2.6666667
52.828899 -66.978493 2.67891 2.75
52.854298 -72.472824 3.0258286 5
52.840584 -67.824547 3.0234003 6
52.810684 -67.53093 3.1111829 5
52.842052 -66.955894 2.9574263 4.25
52.92754 -75.245667 3.5220053 7
53.039734 -74.954697 3.5497675 7
52.987068 -74.578003 3.5041337 7
52.837902 -72.818886 3.3861043 6
52.864677 -72.598015 3.4221182 6.2142859
52.823868 -72.235321 3.4813457 6.5000005
52.81926 -67.311363 3.3416355 7
52.812496 -66.717949 3.4090786 7
52.913406 -64.10096 3.4877367 8.1475
53.030651 -61.968288 3.3480222 8.1359997
52.959007 -75.436348 3.9717321 8.1029997
52.813202 -74.960663 3.6812999 7
53.09565 -73.312546 3.6164439 8.0799999
52.840446 -72.578468 3.7507923 7.3960786
52.83485 -72.184792 3.803324 7.4722223
52.817146 -71.867455 3.7748961 7
52.828266 -71.482964 3.764396 7
52.886448 -71.18705 3.8197143 8.1289997
52.800552 -69.237724 3.6902339 8.1230001
52.917679 -66.781731 3.8375962 9.1569996
52.804417 -64.36525 3.9384234 11.135
52.822174 -79.548698 4.1168451 7
53.065014 -76.937859 4.342845 8.0944996
52.981827 -75.627762 4.100348 8.0955
52.960709 -75.410576 4.083282 8.0950003
52.950104 -75.12693 4.1374707 8.0935001
52.844341 -72.57206 4.1870546 8.9018517
52.845306 -72.172623 4.2497315 8.963294
52.814342 -71.77681 4.2121372 9.166667
52.856876 -70.573257 4.3457875 10
52.839916 -69.67765 4.2814617 10.666667
52.8316 -69.586937 4.2291465 9.3108749
52.839806 -67.291336 4.0933237 10.150249
53.0466 -64.600517 4.2719998 12.1155
52.959286 -61.796497 4.2030406 12.801333
52.826954 -72.855042 4.5638046 9.7445707
52.815636 -72.590111 4.6556811 10.324208
52.83255 -72.139923 4.5710211 9.7790956
52.816841 -71.883575 4.5367093 9.5400553
52.836277 -71.200661 4.6180992 11.629
52.844162 -70.928093 4.6498003 9.4191999
52.817951 -70.13401 4.4293904 8.1669998
52.835457 -69.838242 4.5239081 11.0765
52.852066 -67.406685 4.4507799 11.166
52.973263 -61.768955 4.5722404 12.399063
52.863747 -76.195793 4.9863639 8.0077496
53.151363 -75.759163 5.1549788 8.5030003
52.87429 -72.199478 4.9133925 9.7171001
52.871521 -71.84127 4.8996215 9.4442501
52.852692 -71.508339 4.8470774 9
52.811806 -71.038658 4.8447232 9.8431253
52.976864 -61.751572 5.0078416 12.587679
52.98246 -61.598293 5.0872226 11.1
52.931385 -76.62159 5.4187818 10.095
53.199059 -76.399231 5.5427403 10
52.973873 -67.671509 5.5515423 12.0975
52.950546 -67.540642 5.2949905 9.5939999
52.935444 -61.772499 5.3541422 12.888124
52.927616 -61.45533 5.4050074 11.4025
53.128876 -77.760567 5.7765536 9.0935001
53.053471 -77.412888 5.8271799 9.0747013
52.979313 -77.161491 5.8492417 10.642375
53.123203 -76.567665 5.9951901 10.094
53.146435 -76.206375 5.884068 9.0935001
52.876114 -75.894974 5.8609481 9.0950003
52.889851 -78.467476 6.3437467 13.146
53.132839 -78.163155 6.3443017 11.620375
53.030205 -77.729668 6.2276731 12.392375
53.061283 -77.514542 6.2450118 11.51985
52.917843 -76.899231 6.2759485 12.448166
53.052895 -76.550873 6.2601562 11.315679
53.02441 -76.210876 6.210165 11.133153
52.990314 -75.926109 6.2464919 10.676199
53.023148 -78.243065 6.4572654 13.63725
52.912064 -77.785912 6.471282 13.620625
53.100857 -77.536842 6.6085358 11.115334
52.825859 -76.880516 6.5756674 12.61025
52.935184 -76.671638 6.5732117 11.717875
53.038048 -76.142609 6.6089497 12.382718
53.03059 -75.843773 6.6607871 13.282125
53.012764 -75.351143 6.59657 12.773334
53.073605 -75.161728 6.6828332 10.002
52.961864 -78.221092 7.0343633 12.424335
52.926834 -77.765167 7.0406423 11.120999
52.972115 -77.478935 6.98564 13.780861
52.987263 -76.987976 6.9850783 11.332875
52.915253 -76.51992 7.0206575 12.119083
53.000423 -76.12394 6.926528 12.942095
53.055851 -75.777466 6.9776998 12.535689
52.980202 -75.491219 6.9998317 12.50289
53.038879 -89.813423 7.3809185 9.6665001
53.109871 -78.138641 7.2067246 15.1145
52.848976 -77.937775 7.3630581 12
53.086941 -77.349785 7.3837724 14.101833
52.917328 -76.546425 7.4432111 11.566
52.994026 -76.220222 7.3692484 12.520888
52.981781 -75.796844 7.3948507 12.44938
53.041874 -75.460381 7.4277682 13.066299
52.97966 -75.021133 7.4890699 10.1685
53.006664 -89.384621 7.8623486 11.155833
53.11692 -89.106987 7.8672376 10.168625
53.145573 -80.546043 7.7166934 9.59025
53.185303 -78.916443 7.7887769 15.153
53.189388 -78.470062 7.8934956 11.1785
53.172386 -78.094467 7.9200015 11.179
52.898521 -77.794975 7.8263459 12.1735
53.187561 -77.232643 7.9343944 11.0945
52.961967 -76.541222 7.9229488 11.59425
53.112286 -76.258652 7.8064394 13.665
52.964832 -75.751526 7.6980457 12.479714
52.984711 -75.432678 7.7925644 12.528137
52.909561 -75.097069 7.8752131 12.085
52.828529 -88.850464 8.1625252 11.1645
52.939423 -87.419899 8.1485767 10.171
52.883511 -83.03022 8.361208 14.1015
53.048508 -79.945808 8.2992697 13.167
53.025253 -78.196014 8.125843 13.1695
52.859257 -77.688385 8.3383856 15.158
52.918255 -77.263176 8.3005428 14.166
53.027821 -76.499832 8.2196693 11.318375
52.952469 -76.204132 8.249341 12.4516
53.013523 -75.84687 8.2047844 13.505929
52.976768 -75.335548 8.1974831 14
52.846043 -84.051804 8.5167389 10.1695
52.905025 -83.204094 8.6544399 14.0995
53.042244 -83.043556 8.5319147 14.102751
53.128403 -81.877052 8.4640093 15.1075
53.081741 -81.459236 8.6072645 11.176
53.157223 -81.107803 8.7757444 10.178
53.023693 -79.868698 8.6590786 10.1765
52.896664 -79.249916 8.6778069 14.1655
53.105282 -77.721756 8.6697931 14.66375
52.9655 -77.267326 8.5483294 10.178
53.125271 -76.575775 8.5388746 11.364667
52.965485 -76.168732 8.6003723 13.157655
52.989319 -75.803833 8.5889044 13.727166
53.083675 -75.516464 8.6709862 13.236499
52.819557 -87.96579 9.1903191 13.1545
52.811008 -83.960762 9.1214285 12.172
52.920235 -81.377464 9.0904913 12.17525
52.98838 -80.941734 9.0393333 12.1755
52.951225 -78.991341 8.9463139 13.91875
52.98101 -78.532722 8.9634933 12.427876
53.099697 -78.332191 8.9395456 11.172
53.085209 -77.606743 8.9704905 12.62825
52.972851 -77.43644 9.0087337 13.654958
53.124725 -76.998398 8.985508 11.837833
53.09296 -76.588577 8.942275 11.16825
52.97459 -76.178238 9.0207224 12.374856
52.929443 -75.749443 8.9693918 13.297125
53.073151 -75.473251 9.0189438 13.7525
53.092373 -88.580154 9.3776855 12.166
52.82476 -87.87709 9.4263916 13.1595
52.977016 -84.648293 9.3546333 14.651501
52.922104 -83.416496 9.4054327 10.1795
52.966679 -83.104286 9.4678555 12.5065
53.02132 -82.746574 9.3999252 11.1655
52.8526 -82.182571 9.4001322 15.1525
53.006245 -81.910843 9.4189701 15.153749
53.028343 -81.439217 9.2775402 14.166
53.045807 -80.857613 9.5568419 13.1745
52.882664 -79.513657 9.5307388 11.167
52.937935 -77.743629 9.2979031 12.67075
52.993328 -77.504463 9.4214363 12.1795
52.996304 -77.083099 9.4637222 13.787834
52.964672 -76.673149 9.4538403 12
52.957951 -76.268166 9.4095249 13.773375
53.011963 -75.956596 9.3732386 13.0005
52.856232 -87.633667 9.8496666 14.152
52.847031 -85.522705 9.8946323 12.093
52.813435 -83.658264 9.8542833 15.1565
53.113583 -81.270134 9.801878 13.67325
53.010284 -81.01757 9.6193924 11.166
53.144218 -79.996094 9.8859043 11.0915
52.887371 -79.570671 9.8607597 15.1695
52.810543 -78.51738 9.6519976 13.094
52.839638 -76.327469 9.6018944 15.093
52.979881 -85.332733 10.076029 15.1485
52.963833 -83.724541 10.24896 13.630751
53.009624 -81.619423 10.175436 14.172501
53.049229 -81.072372 10.29865 13.1335
53.057915 -80.066689 10.124597 12
53.191311 -79.983727 10.113705 12
53.025654 -79.409882 10.263586 13.092999
52.991352 -79.031952 10.164363 14.093
52.809158 -89.353836 10.574602 14.158
53.025589 -86.583344 10.762736 13.17025
53.048466 -82.011444 10.672708 12.166
53.117027 -80.948112 10.797272 14.175
53.079376 -79.866478 10.771915 12.0935
53.052738 -78.987434 10.423245 14.593
53.006805 -86.961716 11.055497 15.1605
52.961143 -82.802406 11.080047 11.0945
52.966988 -81.785347 10.813211 12.1585
53.130402 -81.554901 10.878969 12.0935
53.047203 -79.326912 11.128863 11.0945
53.19416 -89.749367 11.55609 15.1555
53.065266 -87.963173 11.267993 15.1595
52.847248 -87.159355 11.327992 14.168
52.99897 -82.016632 11.315725 12.093
53.172626 -81.757301 11.570061 15.092
53.086796 -80.870186 11.382219 13.5935
53.153313 -80.769814 11.20681 13.094
52.980171 -79.675423 11.537332 13
52.981888 -79.443016 11.33641 13.51
52.927475 -79.098274 11.487801 14.178
53.179276 -89.582733 11.63169 15.158
53.136536 -82.97908 11.86657 13.171
53.063614 -82.640564 11.640893 13.0935
53.032486 -80.432709 11.930879 12.09175
52.889584 -79.675819 11.803812 13.0935
53.033627 -83.550674 12.061084 12.0925
52.973923 -83.003304 12.044618 14.1745
53.030098 -86.698624 12.558999 13.162499
52.863403 -83.337051 12.685596 14.174
53.09029 -81.414024 12.486677 13.0935
52.924454 -80.504814 12.712813 15.094
52.973454 -87.179176 12.979204 14.13175
53.167526 -81.96949 13.007388 14.0935
53.12751 -81.727211 13.247584 14.0935
53.028645 -81.19236 13.30609 14.1665
52.907616 -82.222176 13.843334 14.159
53.134998 -81.8274 13.625789 14.0935
53.164864 -81.429039 13.607388 13.0925
52.959507 -80.697929 13.75687 13.592751
53.52253 -75.88813 4.1142106 8.0939999
53.548275 -77.354813 4.6433034 9.0994997
53.212925 -75.78093 4.9720879 8.007
53.257912 -77.442131 5.5308394 9.0942497
53.212841 -76.811974 5.5421667 9
53.343262 -76.761147 5.5402722 9
53.531334 -76.327324 5.4355593 9.5473747
53.425125 -61.505234 5.5486937 13.847
53.286755 -77.727501 5.9133205 9.0924997
53.354813 -77.355293 5.8191047 9.5644999
53.458904 -77.005417 5.8554769 10.671959
53.432884 -76.628906 5.8588786 10.100083
53.411808 -61.800735 5.6396837 12.099501
53.393082 -77.775101 6.2005472 11.10225
53.288876 -77.319931 6.2457452 12.456249
53.394882 -77.108818 6.1805153 12.248062
53.29063 -76.606346 6.2477126 11.571501
53.233631 -76.094688 6.0702105 10.178
53.413227 -75.709457 6.1546545 9.0915003
53.368595 -75.473877 6.2226405 9.2678337
53.381794 -75.147064 6.1959577 9.1684999
53.246052 -78.06604 6.400239 13.1505
53.401791 -77.531563 6.7229428 13.488334
53.441654 -76.988884 6.5859594 12.80125
53.287804 -76.173134 6.5630298 12.47684
53.372353 -75.802788 6.6237569 12.696546
53.463688 -75.465576 6.6446466 12.432666
53.252525 -89.736488 7.191041 9.1695004
53.232517 -79.026352 6.9392905 14.1455
53.413574 -78.550537 6.9789042 11.074542
53.409042 -78.353569 6.9860067 11.223888
53.382961 -77.999931 7.1234655 14.105
53.355347 -77.005333 6.9926076 12.664499
53.32299 -76.63604 6.9684925 12.0952
53.34407 -76.078354 6.9619842 12.4936
53.394653 -75.804092 6.9790378 12.734436
53.418045 -75.445908 6.9840798 12.873946
53.358124 -89.828918 7.2220302 10.1625
53.472412 -82.302071 7.3976488 9
53.52758 -81.764671 7.4273548 13.103
53.520481 -81.588478 7.5900497 13.101
53.299904 -78.268578 7.5313935 11.503667
53.467545 -77.758621 7.3957534 14.139832
53.5028 -77.263565 7.4277368 12.171
53.353733 -76.989693 7.4741206 11.9005
53.436329 -76.604721 7.4873252 10.393167
53.428234 -76.072868 7.3471985 13.0795
53.378597 -75.783722 7.2935367 12.935641
53.453178 -75.511238 7.3224916 13.624187
53.263985 -80.766083 7.693737 12.166
53.353088 -78.47258 7.8369932 10.5015
53.344646 -78.213585 7.7357106 10.162
53.409977 -77.781052 7.8149028 12.470666
53.501831 -77.044579 7.779243 13.6265
53.481411 -76.614082 7.815743 12.476
53.248432 -75.816574 7.7903824 10.547501
53.246044 -87.33503 8.3387032 12.1555
53.321308 -87.010139 8.187583 11.1675
53.540207 -83.574966 8.1168909 9.0115004
53.492661 -81.571121 8.3644629 13.1625
53.294754 -80.059525 8.1659708 12.174
53.306637 -79.900101 8.2884941 11.1775
53.464348 -78.480988 8.1466618 10.1715
53.467846 -78.340675 8.2726374 11.179
53.383869 -77.580505 8.257659 10.1735
53.458145 -77.053101 8.2305536 12.761666
53.389252 -76.626244 8.249506 13.1185
53.540058 -76.171631 8.110425 12.094875
53.415161 -75.924065 8.2858076 14.59575
53.283958 -75.228691 8.1369581 14.08275
53.472019 -87.379036 8.5934248 11.664749
53.515396 -86.883553 8.5378771 11.665251
53.308167 -82.970695 8.6212149 14.6055
53.281403 -81.235214 8.594532 13.1675
53.396721 -80.568565 8.5514383 15.1535
53.207413 -80.366196 8.5316296 14.1555
53.564991 -78.167427 8.4316263 11.179
53.46476 -77.022469 8.6391687 11.9615
53.40073 -76.629822 8.64186 12.4185
53.325138 -76.277878 8.5412703 12.243584
53.260189 -75.756088 8.5544167 12.172
53.235332 -75.484589 8.6795959 14.065375
53.278019 -83.252693 9.1341372 13.169
53.51516 -82.534805 9.1285019 11.1745
53.456795 -79.956978 8.8544207 15.1545
53.237103 -78.901535 8.9629793 14.1685
53.329979 -78.588196 9.1559982 14.6675
53.48875 -77.797798 9.168355 13.16325
53.470501 -77.252892 9.0688639 14.0935
53.357189 -77.067055 8.8883257 13.054084
53.349693 -76.640633 9.0463734 12.820999
53.271645 -76.114456 8.9702311 13.083875
53.266041 -75.792145 8.9964752 14.115167
53.224579 -88.094887 9.5042305 12.091
53.562248 -86.844597 9.4481163 14.1455
53.203716 -82.939995 9.27425 13.16725
53.395592 -82.542946 9.303916 13.166333
53.43013 -82.104744 9.5587769 11.163
53.238491 -81.773354 9.3519888 12.662001
53.217434 -81.426796 9.5024137 12.176
53.419933 -80.479553 9.3339367 11.1595
53.290237 -80.300423 9.255435 11.1615
53.290813 -77.73349 9.299674 12.1795
53.460777 -77.231445 9.5127029 13.095
53.449524 -77.034233 9.3909178 13.511198
53.466686 -76.65123 9.3768091 12.8887
53.227409 -76.052841 9.4420567 15.1725
53.397713 -75.951302 9.2933235 14.178
53.384609 -89.177277 9.9975309 13.163
53.386444 -85.389183 9.9484148 15.147
53.513943 -82.030937 9.9157209 13.173
53.393921 -79.752457 9.6848879 12.1775
53.49086 -77.038643 9.7739563 13.4245
53.415802 -89.122551 10.078904 12.16825
53.359692 -81.25251 10.013941 11.092
53.372379 -79.818604 10.16351 12.384375
53.546043 -79.441139 10.203662 11.633249
53.348259 -89.390724 10.619357 15.143
53.528114 -82.696785 10.539527 13.1745
53.330631 -79.459671 10.634049 12.111124
53.541943 -80.884674 11.162731 11.095
53.560905 -79.643051 11.119758 14.0945
53.464172 -79.517067 10.916669 13.094
53.30405 -87.123192 11.316998 13.63125
53.447693 -81.91143 11.289465 11.095
53.468235 -80.976692 11.399639 13.093126
53.201588 -80.723846 11.38037 14.094
53.275555 -79.703568 11.556342 13
53.36734 -79.511307 11.359753 13.0935
53.584721 -83.635811 11.854656 11.0935
53.465881 -83.477325 11.826917 13.1725
53.307335 -79.709167 11.736353 15.0935
53.513294 -83.602875 12.379945 11.092
53.484386 -82.171227 12.09492 13.59225
53.409534 -87.08622 12.784619 15.169
53.245075 -81.422089 12.602699 13.0935
53.456528 -84.001747 12.810989 11.091
53.236202 -81.30542 13.088542 12.094
53.384449 -81.689491 13.306459 13.093
53.437431 -81.497978 13.409383 15.0945
53.746132 -63.199295 2.3780129 3
53.814003 -80.301285 4.6418104 8.1545
53.639523 -75.859276 4.4394765 9.1190004
53.68269 -78.688683 5.0721064 8.0124998
53.94717 -76.599251 5.5077577 10.095751
53.646172 -77.24691 5.9478612 9
53.667343 -77.026505 5.739696 9.0306664
53.894192 -76.6549 5.6696916 10.5975
53.713818 -77.739601 6.3366957 11.62175
53.651134 -77.21032 6.0235276 9.0944996
53.663071 -77.086082 6.1319294 9.3955002
53.7057 -75.640244 6.3499284 11
53.754826 -75.374672 6.3577037 11
53.814564 -78.421967 6.6630802 9.1730003
53.925114 -77.749763 6.4514284 11.095
53.802719 -76.94442 6.4993596 11.914299
53.71677 -76.445442 6.6081939 11.094
53.774101 -76.322945 6.6531463 12.604
53.683224 -75.792259 6.5515642 11.333
53.668148 -75.523705 6.7642937 15.134
53.77784 -78.215126 7.0875583 14.139376
53.964455 -77.434196 6.8213983 9.177
53.634388 -77.031761 7.1705308 15.153
53.691116 -76.075989 6.972517 10.320875
53.773125 -75.764694 6.9650545 11.249928
53.772995 -75.395477 7.0370884 12.835428
53.653877 -81.841194 7.3877954 13.1055
53.610229 -78.796707 7.2951341 11.094
53.709427 -77.960777 7.5337772 10
53.750443 -77.446724 7.383574 13.159
53.756176 -76.967163 7.369628 13.106167
53.799503 -76.617363 7.4757271 10.820625
53.604347 -76.230164 7.5092716 14.0985
53.646542 -75.682449 7.3967495 12.431
53.861599 -61.800598 7.4362392 8.0214996
53.978802 -84.042137 7.8451333 12.096
53.919868 -81.337479 7.645689 14.113
53.999664 -81.071259 7.8205166 15.123
53.880215 -79.534431 7.9185052 10.165
53.627201 -78.580986 7.7276201 10.172
53.742184 -78.394089 7.7867198 10.163
53.62883 -77.652809 7.722198 13.1615
53.740551 -76.972092 7.7634935 11.787999
53.867355 -76.741936 7.7463131 11.761666
53.696602 -76.256386 7.9860983 10.094
53.864681 -75.953918 7.9524794 10.0955
53.749847 -87.114388 8.1351452 10.1715
53.630402 -81.629272 8.2083044 11.175
53.774853 -79.846725 8.2226286 13.165
53.979401 -77.621376 8.34093 13.094
53.865459 -77.462502 8.21278 12.846249
53.948822 -77.0065 8.2612734 12.094833
53.802364 -76.625259 8.2466431 13.822249
53.835705 -87.315956 8.6883125 12.094
53.932884 -87.14756 8.6353178 13.1015
53.720596 -82.47271 8.7240267 14.151
53.701527 -79.742813 8.4092073 13.1675
53.731213 -77.411728 8.6649561 12.179
53.931923 -76.834 8.6461716 12.0945
53.812729 -76.691185 8.5495596 12.845374
53.727543 -76.148674 8.5707302 14.0945
53.924419 -87.060692 9.1725245 11.1715
53.735603 -82.58606 9.1562643 11.6735
53.784752 -82.180519 8.8138828 11.1755
53.789852 -79.788101 8.9127798 15.155
53.625439 -77.595505 9.094552 11
53.732464 -76.972359 8.9170609 11.786166
53.721767 -76.660141 9.0006971 13.106833
53.759274 -89.972153 9.4012175 12.490833
53.87273 -89.458496 9.5304089 13.151
53.718697 -82.616463 9.3588352 14.656
53.609932 -80.146904 9.3265867 14.169
53.846367 -76.97171 9.3990936 12.451333
53.717403 -76.680511 9.2707634 13.364833
53.907394 -89.296669 9.9555902 12.1675
53.788189 -87.995247 9.6298742 14.145
53.842327 -82.611778 9.8170147 12.674
53.698235 -81.952667 9.9658766 15.162
53.743694 -79.923424 9.9629478 11.0925
53.703804 -77.195938 9.6617985 15.094
53.697994 -83.11393 10.150621 15.1605
53.710659 -82.494354 10.00213 14.17
53.645821 -80.074371 10.188072 12.843666
53.651325 -79.761086 10.197285 12.759999
53.649506 -80.32325 10.598203 15.1725
53.736233 -79.63369 10.639818 14.094
53.806629 -79.500145 10.603066 11.844625
53.67382 -88.772675 11.038167 15.147
53.900475 -79.788025 10.904179 12.59425
53.798683 -79.427025 10.912582 14.59375
53.76088 -81.092377 11.312213 11.093
53.727898 -80.796501 11.519759 13.094
53.794346 -81.030205 11.816524 13.426333
53.677143 -82.613045 12.158528 14.175
53.871281 -81.688911 12.754029 15.094
53.806183 -86.657768 12.901654 13.664249
53.677441 -83.595413 13.107015 12.092
53.65099 -83.623299 13.324723 15.0935
54.358173 -69.177643 2.7216411 4
54.234467 -64.64167 2.593895 4
54.035477 -76.695953 5.3839822 9.0950003
54.290165 -86.132957 5.6934767 8.0255003
54.015938 -76.888367 6.3405466 13.11
54.171227 -76.797523 6.3858118 14.1295
54.20005 -76.616188 6.5659485 12.121
54.139622 -77.383003 6.9041901 9.0010004
54.186275 -76.949692 6.9438477 13.1605
54.102905 -76.588318 7.073884 15.114
54.356701 -84.000824 7.224824 9.1774998
54.235958 -83.831612 7.2277784 9.1794996
54.077332 -78.110878 7.3340788 15.1165
54.249588 -76.885834 7.518374 10.760167
54.054573 -76.566055 7.2563438 11.594999
54.091694 -81.351204 7.8975477 12.094
54.290508 -80.707527 7.7364292 11.1745
54.233795 -77.446198 7.8549094 11.865625
54.195034 -76.96817 7.7888141 12.597
54.158127 -76.59388 7.8839369 11.380142
54.244225 -87.220284 8.196064 11.092
54.176811 -77.743874 8.0578518 15.1585
54.183689 -77.358444 8.1042042 14.0975
54.24688 -76.602715 8.1834545 14.2976
54.006832 -81.520805 8.4180861 12.1725
54.301792 -77.361275 8.505168 15.099
54.148819 -77.040771 8.6697874 12.594749
54.285583 -76.615395 8.6538229 14.5965
54.216564 -86.954308 8.8268604 13.1
54.389294 -80.345055 9.0165329 12.176
54.050728 -77.342384 8.9189291 12.0955
54.013802 -87.818871 9.5798836 12.168
54.13221 -87.480537 9.3885555 12.1675
54.058418 -87.640282 9.7613935 12.169
54.003536 -87.375732 10.363647 13.1675
54.092365 -79.317398 10.511213 11.094
54.197514 -80.756371 11.599245 14.095
54.310936 -88.591774 11.656322 14.1665
54.342377 -86.488945 11.715025 12.1625
54.14381 -80.935371 11.698441 13.59325
54.277184 -87.102905 12.000753 13.1715
54.103752 -82.525993 12.347116 12.0925
54.13245 -81.853966 12.16758 14.59425
54.094067 -82.438896 12.483423 13.094
54.007133 -83.688713 13.018803 14.0945
54.707279 -64.72995 2.300667 3
54.65081 -69.016129 2.6390519 4
54.70525 -69.506302 2.9457121 5
54.593079 -80.075668 4.3582273 8.0944996
54.483505 -86.047859 5.6613193 8.0200005
54.790569 -85.591805 5.7734356 8.0185003
54.600761 -82.784714 5.9265838 9.0944996
54.740318 -82.689247 6.231029 9.0939999
54.654018 -85.260994 6.4227238 9.0939999
54.519596 -82.700737 6.6337395 11.0985
54.530724 -77.920662 6.7740068 9.0854998
54.623554 -85.272758 7.1843696 9.1712494
54.486916 -83.564949 7.0585666 10.0945
54.514973 -81.410255 7.1655045 12.099
54.63237 -77.189659 6.8698835 9.1780005
54.598179 -85.245316 7.2356858 9.1735001
54.744556 -84.96386 7.290483 9.177
54.696571 -84.742142 7.3330431 9.1789999
54.414459 -77.246666 7.4680882 10.094
54.48299 -84.224602 7.6172738 11.093
54.444237 -81.305244 7.9766059 15.1395
54.690113 -81.094467 7.6682863 14.1145
54.526508 -77.333885 7.8670306 13.096
54.774029 -85.232643 8.3356714 10.1565
54.695679 -84.533058 8.2261219 11.1285
54.697815 -83.648346 8.0642738 12.1605
54.701096 -77.368782 8.1827593 10.095
54.527679 -76.969025 8.082571 10.0955
54.669247 -80.75663 8.7194319 10.173
54.689445 -80.671074 9.0574446 11.635
54.594994 -80.811211 9.2985373 15.154
54.664703 -80.719429 9.2295618 15.0995
54.413456 -89.630203 9.9134598 13.1565
54.680809 -89.652008 11.495259 13.168
54.555676 -86.542381 11.645945 13.172
54.453876 -82.773857 11.757279 12.0935
55.016502 -64.636826 2.7385943 6
54.820671 -85.406792 5.4331217 8.0095005
54.884716 -86.693909 5.8560305 8.0235004
54.8391 -85.51738 5.7731571 8.0010004
54.851772 -82.213478 6.0439506 9.0950003
55.039825 -81.498093 6.2164426 10.094999
55.190884 -82.830162 6.5653133 9.0930004
54.878124 -82.737694 6.4430823 9.0930004
55.198132 -82.261467 6.6957932 10.094
55.175903 -83.083382 7.1510692 10.0955
55.088116 -82.680328 6.8097334 10.0945
55.05344 -79.501427 7.1615038 9.0007496
55.013714 -79.119881 7.093358 9.0015001
55.013077 -85.809624 7.3372087 9.1766996
55.015095 -85.431709 7.4502358 9.1780005
54.959423 -84.91848 7.3087034 9.1789999
54.843143 -84.445702 7.3626595 9.1789999
55.178558 -82.452026 7.325604 9.1794996
55.080551 -82.075676 7.4634399 13.1105
54.816563 -81.219276 7.7349005 10.0945
54.930798 -80.98172 7.668292 14.115
55.186939 -80.063599 7.9895997 10.171
55.191563 -79.8386 7.7224565 9.0684996
55.096069 -79.081963 7.7917008 10.176001
54.855564 -84.614929 8.3539219 11.15925
55.034512 -84.228722 8.1863003 12.16
55.114826 -80.418037 8.3012991 11.1765
55.125629 -80.307747 8.2849674 11.675
55.090672 -79.346619 8.2369413 11.38675
55.144459 -79.105583 8.0949783 11.16975
55.141479 -80.844215 8.7952127 10.1745
55.091003 -80.079567 8.7924461 11.1775
54.946278 -79.807198 8.5331497 10.0935
54.96146 -79.413704 8.6130505 12.66725
54.888268 -80.823463 8.8107405 15.154
54.934761 -80.550095 8.9107952 14.822499
55.050594 -80.139877 8.9854374 14.117167
55.055908 -79.824303 8.9954185 12.874071
54.921131 -79.424171 9.0343218 12.6755
55.194153 -80.520721 9.3486776 12.096
54.927559 -79.7024 9.3730259 11.09425
55.078144 -79.491615 9.2728271 13.63025
54.856838 -89.976715 9.8745794 13.154
54.934204 -80.829216 9.8691902 11.0935
54.989624 -80.611107 9.910243 11.594
55.079041 -80.270119 9.9111891 12.09525
54.831776 -79.668762 9.6336536 13.095
55.119682 -82.159744 10.042636 15.1555
54.882679 -86.918663 11.276625 12.1685
55.463799 -69.083412 2.6533489 5
55.335789 -65.570236 2.4939439 4
55.48737 -85.480194 5.6477203 8.0019999
55.227562 -85.186226 6.0564704 9.0944996
55.211475 -83.22805 6.3300786 9.0930004
55.499039 -81.99118 6.0397587 9.0955
55.505386 -82.678474 6.7124853 10.0945
55.374203 -82.111992 6.56177 10.597
55.399666 -83.895073 6.9053998 9.0915003
55.422218 -83.249657 7.0709386 10.095
55.327431 -82.120995 7.1807818 10.095
55.447552 -79.424355 7.0973172 9.0015001
55.483547 -81.738655 7.3785062 11.299251
55.396675 -80.891556 7.9197059 11.0955
55.449848 -80.553963 7.8710904 10.636499
55.458393 -80.384659 7.9700532 10.1735
55.247608 -79.618576 7.9694395 10.0935
55.599815 -79.553337 7.9592085 11.0965
55.246845 -79.15274 7.9797902 10.165501
55.240314 -85.943962 8.3759642 10.157
55.376186 -85.489159 8.3601522 10.16625
55.468971 -82.954086 8.1492395 10.1475
55.419231 -82.454239 8.1987133 11.827
55.523872 -82.325623 8.2659912 11.475667
55.380936 -81.002731 8.0779762 10.094
55.373333 -79.872208 8.2632799 10.90425
55.500874 -79.402145 8.2662868 12.542334
55.289196 -79.031204 8.1523848 11.664749
55.367687 -85.604225 8.4811735 10.167
55.358028 -85.452438 8.5184679 10.161625
55.335857 -85.027771 8.4656286 10.160999
55.415451 -80.664848 8.4097404 10.093
55.207504 -80.311104 8.7507906 11.095
55.409298 -79.793015 8.5956097 11.315
55.382214 -79.542061 8.483593 12.63525
55.506237 -79.14801 8.4959602 13.1665
55.204166 -85.635132 9.0812674 13.1515
55.580814 -80.981804 9.0402412 10.0925
55.320152 -80.161659 9.1240005 12.62775
55.36256 -79.832291 8.9201727 12.785126
55.389416 -79.427345 8.9616184 12.650375
55.483837 -79.187767 9.1126165 12.0965
55.338764 -82.267693 9.546978 15.1525
55.215363 -81.613045 9.3277102 11.174
55.485733 -80.298615 9.5492611 11.1645
55.38166 -79.909332 9.4302378 13.625999
55.367603 -89.545425 9.7871094 13.152
55.37627 -81.899971 9.6580925 13.15675
55.437149 -80.572441 9.8312149 12.094749
55.420868 -80.385712 9.7237263 12.59525
55.531139 -82.612625 10.335621 11.0925
55.287949 -80.437431 10.080317 13.594999
55.437943 -89.510201 10.553097 10.093
55.455036 -82.162025 10.631594 12.59525
55.565456 -81.22197 10.53406 13.096
55.413082 -88.659943 10.87472 14.158
55.583427 -89.032036 12.087783 11.0955
55.56601 -88.846054 12.641412 11.094
55.425774 -88.552414 12.524563 11.095
55.256207 -89.657814 12.80162 11.0925
55.366104 -89.760712 13.407685 11.091
55.542221 -89.476135 13.58409 12.0925
55.529289 -89.610245 13.725833 12.092
55.752361 -81.446968 4.9231067 9.1064997
55.825077 -81.260872 6.3078499 11.1045
55.631828 -83.087204 6.5363436 9.09375
55.613003 -82.045982 6.5607452 9.092
55.793591 -81.796356 6.4448662 9.5939999
55.711006 -81.388344 6.7683554 12.112
55.978962 -81.150673 6.5172086 10.095
55.624298 -82.143616 7.0546341 10.096
55.821114 -81.815224 7.1445394 10.765167
55.842007 -81.296265 6.9936209 12.1045
55.969849 -81.032379 7.0025606 10.456333
55.733261 -79.347687 7.0686817 9.0009995
55.697266 -79.126221 7.118022 9.0015001
55.79818 -84.474236 7.4811244 9.6370001
55.630077 -83.456963 7.3955164 9.1789999
55.64679 -82.155266 7.2330275 11.09525
55.823971 -81.790596 7.4265709 11.347875
55.921272 -81.075432 7.4872766 13.116168
55.843029 -84.533257 7.6176195 11.0945
55.707062 -82.56234 7.7698259 10.095
55.850513 -82.272202 7.8481045 12.271333
55.970325 -81.727119 7.7016869 12.098
55.794113 -80.924995 7.9508944 10.134001
55.688187 -80.633438 7.8511624 11.679286
55.881615 -79.747406 7.8854814 10.121333
55.900608 -79.553452 7.9649625 12.0955
55.962894 -78.96846 7.9951506 10.1615
55.696911 -84.233345 8.1022911 11.094
55.744766 -83.195274 8.281065 11.173
55.923271 -82.58194 8.3515015 10.163
55.632217 -82.2752 8.3802309 11.096
55.842152 -81.279053 8.2538919 12.138
55.807156 -81.082077 8.212266 10.141334
55.811783 -80.734009 8.0669746 13.0995
55.784168 -79.75354 8.159771 10.39775
55.800652 -79.411919 8.2098455 12.0045
55.907192 -79.17128 8.1067429 11.636499
55.72897 -82.745026 8.5228415 15.1345
55.712158 -82.294327 8.4441662 15.14
55.635712 -81.242485 8.5245743 12.625
55.76635 -81.002838 8.5189619 12.667
55.74868 -79.816216 8.7147322 12.430333
55.716324 -79.373344 8.5932665 12.765208
55.788136 -79.145531 8.6145515 12.042
55.830727 -84.311226 8.9334688 15.133
55.791649 -83.235229 8.9209957 11.175
55.791431 -82.94606 8.8463097 12.1715
55.801517 -82.737724 8.9614563 11.1755
55.851501 -81.283249 9.0533113 13.165
55.880089 -80.363976 9.1193905 15.156
55.804016 -79.910713 9.1769876 13.627001
55.783504 -79.368828 8.9409342 12.847624
55.816334 -78.995544 8.9591379 13.129799
55.743031 -84.086258 9.4989204 13.095
55.854191 -83.179535 9.3258448 12.173
55.743816 -81.313843 9.3644648 12.807332
55.822777 -80.002739 9.4223366 14.0965
55.736618 -82.369041 9.6784315 11.63175
55.789223 -81.319649 9.8549089 11.811001
55.712715 -82.367195 10.217422 11.0935
55.908867 -81.465996 10.135174 11.09375
55.792446 -82.191025 10.57193 15.1295
55.788074 -81.421394 10.492546 14.095833
55.85276 -81.092438 10.709116 14.096251
55.997345 -81.473358 10.881791 15.0955
55.799587 -88.037537 11.546608 14.1665
55.741142 -89.938408 11.923737 11.0925
55.615623 -89.698891 12.101921 11.095
55.854862 -87.659668 12.192617 12.0945
55.621876 -87.371788 12.150049 11.0955
55.626167 -89.186333 12.406963 11.0955
55.683121 -87.556076 12.472839 12.094
55.714729 -89.133263 13.252495 11.592751
55.962112 -88.409828 13.285516 12.0925
55.771454 -88.175499 13.2609 12.59375
55.873547 -87.984505 13.546963 13.0945
55.954712 -88.22686 13.882767 13.0945
55.962151 -88.433266 14.223759 13.0945
56.301529 -83.265427 4.4772997 8.099
56.135078 -84.66188 5.7508392 8.0004997
56.132278 -82.069183 6.3686228 9.0944996
56.327671 -85.421219 6.5440912 9.0959997
56.332443 -82.190735 6.6280103 11.101
56.09903 -81.102028 7.1926589 11.0955
56.145695 -79.825157 7.0531211 9.1765003
56.223507 -85.222023 7.4387813 11.097
56.092827 -84.906929 7.2847009 10.0955
56.083969 -82.078072 7.2391825 11.09575
56.041233 -81.400764 7.3549075 10.096
56.346909 -81.15522 7.3689499 11.601749
56.028217 -84.377373 7.9825702 9.0035
56.262474 -81.675339 7.8111391 14.1415
56.072193 -81.495094 7.7362847 12.608
56.232643 -81.01091 7.7413545 11.431
56.127079 -79.754402 7.9322701 9.5784998
56.046379 -79.445015 7.9415517 10.0935
56.338848 -84.037552 8.1245623 9.0094995
56.283539 -81.657776 8.1755314 12.603001
56.196728 -81.330971 8.2442665 12.132
56.268452 -81.082161 8.0844851 14.11
56.298218 -79.831276 8.03578 11.097
56.119869 -79.407318 8.2975101 11.095833
56.17458 -78.969887 8.3780994 11.1785
56.091442 -84.251038 8.6501398 10.168
56.19606 -82.548248 8.7125082 10.1705
56.21669 -81.692436 8.5587358 11.1755
56.343807 -80.871025 8.6542559 11
56.294788 -80.091019 8.5850697 10.094
56.271503 -79.877312 8.4087 15.111
56.267876 -79.381439 8.4864016 10.762334
56.200672 -79.18129 8.5680285 13.5985
56.291111 -84.437561 9.0493641 10.1725
56.240025 -84.317635 9.059329 12.653749
56.045807 -81.755508 8.9852514 10.0945
56.202522 -79.772057 9.1643915 14.158
56.213509 -79.257004 9.0700788 11.887125
56.020237 -79.087715 8.9225502 13.171
56.351067 -86.660728 9.5978699 11.1725
56.062672 -84.399734 9.5216026 11.174
56.106075 -83.797142 9.5837545 11.174
56.156712 -82.564514 9.3862734 15.152
56.10009 -81.459969 9.429471 11.63225
56.082623 -81.157639 9.4731493 14.1615
56.226913 -80.235039 9.461833 12.596001
56.336918 -79.812874 9.2407227 11.0955
56.354343 -79.34581 9.3239794 14.098375
56.008717 -84.578949 9.6246204 11.095
56.284306 -84.39016 9.9686861 12.1735
56.039967 -81.400826 9.7549686 11.3605
56.18697 -79.700294 9.7127094 13.763833
56.334377 -79.481018 9.7509384 13.096166
56.04126 -82.455299 10.14356 11.093
56.363712 -81.902336 10.193023 11.0935
56.207615 -81.338226 10.151878 12.730334
56.211761 -81.336441 10.591632 13.262501
56.345375 -80.950096 10.781516 14.59575
56.223331 -87.878601 10.925639 13.65925
56.083111 -81.695122 10.977985 14.095
56.28545 -81.358902 11.070949 12.596001
56.136478 -81.063736 10.975864 14.5955
56.123013 -88.672585 11.412809 11.093
56.344006 -87.888962 11.270448 10.0835
56.20013 -87.374039 11.881091 11.762
56.228519 -89.718933 12.08376 12.0945
56.17754 -89.33947 12.24586 12.0945
56.112434 -87.705582 12.385221 12.0945
56.035759 -87.293198 12.202291 13.0955
56.34576 -86.890739 12.374779 14.094
56.111202 -86.755386 12.38664 13.0955
56.281624 -86.561745 12.49281 15.168
56.226318 -89.662277 13.410304 11.093
56.053104 -89.217995 13.250898 13.0945
56.242306 -88.989769 13.302085 12.59425
56.342285 -88.537628 13.39086 11.092
56.126884 -88.204659 13.469188 13.59325
56.381229 -87.488022 13.497944 14.0955
56.202892 -87.78083 13.729551 14.6325
56.056213 -87.516029 13.811526 14.0955
56.162777 -88.15966 14.212407 14.11375
56.67234 -82.5187 6.5229077 10.09925
56.585938 -82.079926 6.6537046 10.598499
56.653179 -81.815582 6.694582 10.4305
56.534302 -81.334663 6.7326922 9.092
56.661114 -81.150917 6.6540537 9.0935001
56.726231 -82.769081 7.1670051 12.107
56.421444 -82.380783 6.831418 11.0995
56.468689 -81.947182 6.937048 11.0985
56.606731 -84.209709 7.5866709 10.0955
56.660645 -82.306053 7.229517 12.105
56.530346 -81.06131 7.3964615 10.54775
56.430962 -81.383263 7.7276163 10.0955
56.663342 -81.079445 7.6948447 12.106874
56.489243 -84.01046 8.1267195 9.0105
56.609756 -83.997498 8.2390318 9.0015001
56.410728 -81.697334 8.0895462 12.0965
56.574883 -81.344086 8.0918322 12.34875
56.469635 -80.943451 8.237731 13.10075
56.770729 -80.386871 8.3845835 10.0935
56.58482 -79.746284 8.2511177 11.197287
56.620975 -79.556938 8.083869 10.1715
56.69791 -83.78746 8.5665636 10.1665
56.735466 -82.012268 8.4794245 11.175
56.581841 -80.962639 8.6971941 11.548
56.79504 -80.422173 8.4593973 10.0945
56.628872 -79.760773 8.4614744 13.271291
56.680298 -79.249184 8.7705936 10.0955
56.743423 -83.364922 9.0957527 15.144
56.635189 -81.077431 8.9957638 13.7505
56.614693 -80.049042 9.0639467 12.097
56.572666 -79.710823 9.0292253 12.779785
56.729378 -79.307709 9.0708036 11.428833
56.788696 -79.187172 8.8344707 14
56.686737 -86.6409 9.5123453 13.15
56.732452 -86.345749 9.4971075 13.156
56.65321 -85.969215 9.503005 15.1225
56.408524 -84.447357 9.5827169 13.165
56.68832 -83.867058 9.4226503 12.13375
56.620144 -83.491249 9.477458 11.0955
56.463085 -81.12368 9.2511902 15.155
56.4478 -80.308609 9.251977 15.1565
56.597851 -79.846931 9.314003 13.049376
56.568165 -79.375488 9.4581089 13.130857
56.485851 -79.179161 9.2694178 12.1775
56.606812 -87.413948 9.9100065 13.146749
56.440243 -86.671982 9.6629686 11.1725
56.527775 -83.871765 9.8647623 12.664749
56.604496 -82.043228 9.6973658 10.092
56.402596 -80.219635 9.625123 14.0965
56.588486 -79.757896 9.8045254 13.822375
56.521748 -79.416878 9.8193083 13.381583
56.586494 -79.151184 9.7874765 14.169
56.556709 -88.17926 10.219853 12.1695
56.736935 -83.95591 10.230832 15.1515
56.643894 -82.685272 10.209941 12.429334
56.548969 -82.163368 10.243674 13.0965
56.637478 -81.916992 10.262372 11.093
56.544197 -81.454384 10.148517 12
56.619102 -80.60611 10.168461 12.762666
56.584988 -80.181084 10.294683 13.077301
56.795044 -79.535599 10.041536 13.097
56.722843 -87.645401 10.57052 14.149
56.785656 -82.614616 10.434687 13.096
56.536163 -81.824654 10.56433 15.0975
56.483089 -81.456001 10.609771 12.095
56.647469 -81.050201 10.600122 14.63
56.407364 -80.429176 10.478494 15.097
56.649311 -80.262108 10.517919 15.097
56.792614 -87.81929 11.115144 15.1475
56.537754 -81.450783 10.953309 11.09525
56.615376 -81.106621 10.849972 13.097
56.515224 -88.104698 11.369388 13.1695
56.663475 -87.779091 11.279577 13.6595
56.461723 -87.097748 11.512326 11.093
56.44733 -81.167946 11.253993 14.096
56.581272 -87.738716 11.882732 13.095
56.752838 -87.247719 11.983576 11.096
56.604778 -86.937454 11.739751 11.344875
56.443378 -86.775566 11.766799 12.63225
56.631985 -87.008774 12.071362 12.095
56.461929 -88.97686 13.02987 12.094
56.488113 -88.71344 13.193208 13.095
56.794861 -88.045891 12.981301 13.171
56.594044 -87.744141 13.119334 11.759666
56.434437 -87.265511 13.192613 14.095
56.515533 -87.074661 12.903197 13.095166
56.75462 -86.262131 12.878148 11.0925
56.454483 -88.716896 13.218141 14.0945
56.454952 -88.314934 13.362459 11.0915
56.726265 -87.775398 13.329691 15.094
56.609646 -87.286072 13.426311 13.095
56.74078 -87.084396 13.449458 13.803
56.727276 -86.027084 13.464155 15.0945
56.647064 -88.239067 14.104192 13.5935
56.4459 -88.96035 14.531455 15.17
56.488567 -88.402443 14.592631 15.0945
56.968204 -83.279335 4.3882422 8.1070004
56.990509 -83.247604 4.4206309 8.1049995
56.996902 -82.029449 6.3762302 10.097
57.049675 -81.792435 6.2718816 9.3963327
56.979858 -82.243736 6.4365964 10.096
56.943501 -81.847137 6.5085025 9.0939999
57.013718 -82.56736 7.153163 12.1075
56.94331 -81.697418 6.9985309 11.772166
56.9832 -81.499611 7.103056 10.699
57.029465 -82.404518 7.4393826 11.096
56.877754 -81.711624 7.2213445 11.097
57.125862 -81.383064 7.7052474 12.105
56.975403 -80.94355 7.8906517 11.597
57.187012 -80.652466 7.974515 14.148
56.943901 -81.758949 8.1464729 10.094
56.925587 -81.383965 8.1354113 12.374071
57.157776 -80.875145 8.0962534 12.576375
56.913246 -80.442444 8.0285139 10.1755
56.800129 -80.318359 8.0737381 9.0600004
57.064919 -79.825165 8.1602831 13.222
57.070068 -79.488213 8.2274303 14.057876
56.862347 -84.974068 8.6421299 10.1615
57.060928 -82.168449 8.7581367 12.1715
57.192127 -80.820198 8.4507885 13
56.830887 -80.658791 8.6192789 13.126125
57.199814 -80.390297 8.4040871 11.1765
56.887821 -79.780411 8.5874386 12.34775
56.968433 -79.371262 8.5608587 10.496401
57.090488 -79.164055 8.6881714 12.627251
56.816589 -83.428917 8.8076839 10.17
57.030613 -82.088264 8.8764334 11.096
57.085258 -81.913597 9.0118046 12.1285
56.821583 -81.051201 8.9521751 13.1645
57.089867 -80.622902 8.9666424 14
56.974232 -80.293182 9.0527143 12.433
57.076351 -79.861496 8.8056612 10.095
56.967846 -79.384621 9.0143814 12.662222
57.017082 -79.139 8.8759708 13.4194
57.19833 -86.40081 9.5667143 13.152
57.095734 -83.505127 9.2429972 15.116
