# .PCD v0.7 - Point Cloud Data file format
VERSION 0.7
FIELDS x y z intensity
SIZE 4 4 4 4
TYPE F F F F
COUNT 1 1 1 1
WIDTH 56
HEIGHT 1
VIEWPOINT 0 0 0 1 0 0 0
POINTS 56
DATA ascii
30.178049 182.79485 -2.4905119 9.0790005
30.223343 182.89774 -2.5570841 8.7218332
30.188929 182.68828 -2.3863328 9.0474997
30.073957 183.03911 -2.3329425 9.0375004
30.263891 183.36172 -2.2541277 9.0319996
30.117615 183.77081 -2.3531213 9.0480003
30.13546 183.57259 -1.2818855 10.079
30.773031 183.06013 -2.51175 9.0749998
30.542469 183.31502 -2.7526889 8.0427494
30.564409 183.22432 -2.2539999 9.0365
30.614563 193.39517 -1.9102709 9.04
30.518946 194.91901 -1.8678951 9.0404997
30.549519 183.80006 -1.3772665 10.039749
30.897835 180.14458 -2.7377064 8.0270004
31.188494 182.70686 -2.7343965 8.0284996
30.965612 194.26794 -2.1451085 9.0830002
31.347054 183.4285 -2.6433976 8.0232506
31.329155 183.60309 -2.5816257 9.0675001
31.211279 191.33478 -2.2768035 9.0780001
31.250277 192.4184 -2.0450139 9.0495005
31.407616 193.33485 -2.0077732 9.0404997
31.372231 193.68433 -1.8813677 9.0395002
31.970058 192.2907 -2.7257264 8.0325003
31.793921 183.22833 -2.3292201 9.0459995
32.055752 191.51991 -2.8787084 8.0594997
32.296207 183.388 -2.5747824 9.0664997
32.447437 192.72334 -1.9953712 9.0395002
33.122307 192.8828 -2.6835396 8.0319996
32.949032 192.78606 -2.3616893 9.0670004
34.403561 193.60991 -2.3250887 9.066
35.800068 192.91373 -2.7721589 8.0220003
42.160301 188.01123 -2.804168 8.0880003
50.155804 180.54013 -1.9154156 8.0159998
50.284618 181.07089 -1.9789113 8.0565004
57.783783 180.54988 -0.25074941 10.070499
58.330616 180.00682 -0.33655021 10.068
58.713867 180.2603 -1.2479348 9.0270004
58.453262 180.19028 1.1485376 11.0655
58.601494 180.23311 1.3629149 11.068
58.618446 180.36082 1.7249559 11.072
58.855701 180.31026 -0.72578788 9.0869999
58.947857 180.64726 -0.13272324 10.07075
58.855396 180.95155 -0.11057069 10.072
59.107731 180.86681 1.272668 11.0645
58.829632 180.96315 1.9824498 11.073
58.968533 181.28883 2.9980493 12.0655
59.226383 180.19029 -0.45041886 9.0869999
59.366085 180.24033 -0.2244142 10.035
59.49498 180.47374 -0.2660636 10.0675
59.584644 182.50566 0.35900444 10.028
59.347641 182.82408 0.18302906 9.0144997
59.333862 182.64893 0.52240503 10.0765
59.301929 180.06525 1.1931492 11.065
59.289326 180.00755 3.1028483 12
59.61734 180.56752 -0.22043134 10.065
59.888813 181.04619 2.6087863 12.045
