# .PCD v0.7 - Point Cloud Data file format
VERSION 0.7
FIELDS x y z intensity
SIZE 4 4 4 4
TYPE F F F F
COUNT 1 1 1 1
WIDTH 1233
HEIGHT 1
VIEWPOINT 0 0 0 1 0 0 0
POINTS 1233
DATA ascii
53.378704 -4.461483 2.1702774 10.4681
53.474937 -4.2417936 2.1899531 10.228309
53.580872 -3.9970095 2.351295 11
53.317036 -5.269515 2.7473576 13.114124
53.22401 -5.0829482 2.6954989 11.103
53.517174 -4.4794722 2.7293067 11.5159
53.453159 -4.221189 2.6701658 12.069066
53.425213 -3.831455 2.633275 11.4472
53.428307 -3.4817791 2.652313 12
53.51886 -2.3028619 2.5300984 11.62875
53.596436 -0.49272466 2.5484927 10
53.462833 -6.716691 3.086647 8.0094995
53.428902 -5.3510633 3.047852 12.280737
53.385544 -5.0082521 3.017482 12.970341
53.426571 -4.5901814 3.0062106 12.869061
53.441982 -4.2308536 2.9472592 13.40693
53.408737 -3.7523279 2.9913321 13.273852
53.465252 -3.4430757 3.029227 12.634441
53.566998 -3.1946495 2.9874065 15.1255
53.393772 -11.214219 3.5890744 14.11
53.308243 -10.86822 3.5983622 9.1730003
53.491051 -5.3384709 3.3875189 12.713388
53.413605 -4.9899297 3.3958962 12.984822
53.361877 -4.639369 3.3869951 13.5295
53.468876 -4.276505 3.3095722 15.127563
53.410976 -3.7182913 3.355135 14.203591
53.421474 -3.4691441 3.395714 12.418365
53.422943 -2.9039519 3.4600525 13.094999
53.514206 -2.6702123 3.5187936 12.8977
53.418278 -11.312684 3.8404033 14.158
53.422054 -10.979953 3.8234127 12.602927
53.488461 -10.643183 3.8632281 13.625687
53.373524 -10.163253 3.813576 13.109
53.298435 -9.8678923 3.7944825 12.95635
53.525185 -5.2353063 3.712708 12.774667
53.408279 -4.944757 3.7807817 13.118714
53.357071 -4.7242789 3.7680914 12.872917
53.364605 -4.2287908 3.8350554 13.09585
53.33979 -3.803632 3.7602947 13.372286
53.340771 -3.4434114 3.7660363 13.615385
53.540421 -2.8931925 3.967346 14.1625
53.450821 -2.6674981 3.8219225 13.6141
53.537651 -11.672552 4.3110476 12.092251
53.421711 -11.364005 4.1558146 14.119187
53.370163 -11.045462 4.1311269 12.994901
53.341839 -10.595586 4.1651983 13.008249
53.363091 -10.242106 4.1705794 12.361917
53.45311 -9.6767426 4.0429168 13.126332
53.406479 -9.3957386 4.1989698 13.416249
53.340939 -9.0990095 4.2666206 13.483999
53.534161 -6.1007237 4.329134 14.661875
53.245388 -5.7717724 4.2032599 13.165
53.383385 -4.85676 4.0474749 13.1015
53.442989 -4.5011458 4.1674266 11.801399
53.452503 -4.1698899 4.205327 13.185159
53.459816 -3.6098909 4.3027835 13
53.395191 -3.4830041 4.1986313 13.6
53.412815 -2.8877988 4.1969757 13.390465
53.463905 -2.6587443 4.1155634 13.105499
53.473217 -11.630591 4.6166902 13.1135
53.383633 -11.349955 4.6788039 13.148
53.308552 -11.085077 4.6255398 11.835876
53.320778 -10.544682 4.6165175 11.779667
53.290504 -10.008522 4.4770236 14
53.216557 -9.8180399 4.6190867 11.0965
53.378761 -9.0088129 4.6511555 13.3245
53.374783 -5.7483764 4.5988731 14.352201
53.211517 -5.3625169 4.6397929 15.1635
53.456669 -4.5261984 4.4930878 12.66675
53.297264 -4.1713724 4.6071916 9.3581667
53.445793 -3.7439151 4.5944257 12.62925
53.451038 -3.4622405 4.5222726 13.023499
53.351448 -3.0023508 4.4697895 14.604
53.467308 -2.6210458 4.5001884 13.542
53.26915 -2.352948 4.5372667 13.087
53.473221 -11.677094 5.012641 13.66625
53.327888 -11.383322 4.9898429 12.502666
53.274456 -11.104893 5.047121 11.447
53.308598 -10.427217 4.8068175 13.1675
53.53965 -10.046081 5.0206347 9.0059996
53.517269 -9.3152666 4.9421883 14.60475
53.45805 -8.9935789 5.1026425 13.091249
53.220448 -8.5999708 5.1526737 12.076
53.403507 -5.6182346 4.8994226 15.16375
53.206566 -4.5337234 5.014874 14.166
53.417305 -4.2605271 4.9158196 12.633
53.432362 -3.7474501 5.0473504 11.7015
53.516228 -3.4321556 5.0058384 9.3336668
53.466106 -2.9711561 5.1605768 15.1655
53.415146 -2.5604811 4.9833264 13.694333
53.460682 -11.361899 5.2533646 13.168375
53.349667 -10.906893 5.3553414 11.781001
53.598118 -10.59447 5.5094647 14.167
53.378223 -10.060477 5.4675207 14.13375
53.433853 -9.6500254 5.363555 12.58625
53.205067 -9.5974989 5.5705881 14.1
53.325336 -8.9624128 5.4361496 14.1005
53.505192 -5.088419 5.4455132 15.1015
53.348499 -4.1660161 5.2345037 10.004167
53.301098 -3.6049716 5.4833269 13.0725
53.376434 -3.4590626 5.4700122 11.043625
53.579292 -11.194076 5.6686583 15.1645
53.458981 -10.614632 5.8011537 13.015812
53.514633 -9.8790197 5.6277375 14.1675
53.446953 -8.8418436 5.8706074 10.0185
53.319481 -8.6591053 5.7568274 10.0112
53.394009 -4.4124269 5.8102508 13
53.407711 -4.1525364 5.7597818 13
53.315243 -3.8803318 5.9255562 11.007
53.419495 -3.4012954 5.7977619 12.7705
53.375538 -2.9568167 5.7935333 11.039249
53.284309 -11.32434 6.3201618 13
53.357845 -10.959914 6.2004108 10.005
53.27483 -10.670821 6.0746541 13.335901
53.351292 -9.8409204 6.2341275 13.62675
53.482304 -9.4606848 6.3822322 10.0065
53.239967 -4.1156583 6.2932405 10.678
53.316837 -3.7248683 6.2574511 10.668834
53.444813 -3.3684092 6.2421703 11
53.469143 -3.0214436 6.0757265 12.008699
53.303883 -10.708498 6.6406827 11.115666
53.340874 -9.8577929 6.597878 11.782001
53.300297 -8.1271982 6.7397032 11
53.282295 -4.0892987 6.5893407 10.7745
53.322956 -3.8596478 6.6585808 11.565333
53.454422 -3.4279323 6.5788469 11.285625
53.214214 -10.888549 6.9442096 14.1715
53.326912 -10.644011 6.9002099 12.38
53.204437 -10.348067 7.1911922 9.0015001
53.335728 -8.590168 7.1420798 11.013
53.365257 -8.2614527 6.8980703 11.0037
53.344627 -5.1711435 7.0621824 13.08875
53.31369 -4.4622583 7.1290665 11.02
53.599125 -4.2562571 7.17349 11.0205
53.417114 -3.8255687 6.9404917 11.453611
53.387806 -3.3634858 7.0440702 13.8458
53.493656 -5.0071859 7.2938552 12.108
53.255924 -4.0342875 7.4776978 12
53.418472 -3.7357633 7.3235497 11.333333
53.337364 -3.431643 7.3822222 12.768126
53.411282 -3.0313506 7.2775822 12.770874
53.374542 -4.1784148 7.8111334 11.523
53.570206 -3.4302418 7.7504954 13.062
53.470901 -2.9801931 7.9195185 13.019751
53.495937 -2.7837229 7.8229475 13.0345
53.576931 -10.230762 8.1962309 11.006
53.200951 -4.571137 8.336401 13.0285
53.48159 -4.1063557 8.2115221 12.0175
53.43718 -9.4636164 8.5153227 12.018499
53.358326 -4.8749628 8.4775505 13.0385
53.592564 -3.8098786 8.4639482 12
53.448776 -3.3125658 8.5197401 13
53.372467 -9.5341902 9.456398 13.032
53.94511 -0.41199273 -0.83314127 6
53.910999 -0.044013649 -0.92832476 6
53.644741 -3.2165406 -0.54196435 6
53.911438 -0.41141096 -0.76793653 6
53.967659 -0.039173823 -0.76601684 5
53.648708 -3.4940789 -0.26313776 4
53.910149 -1.4701611 -0.38264856 7
53.644924 -0.89727163 -0.15954322 5
53.734055 -0.45941082 -0.061165005 6.5
53.640373 -0.13318376 -0.12091617 6.1999998
53.649696 -5.4295053 0.27654958 6
53.877655 -3.9713831 0.052071501 5
53.734425 -3.4008753 0.23819768 5.5
53.720173 -2.9080195 0.30363527 7
53.808048 -1.7107978 0.030223321 7
53.657787 -1.3149513 0.25118744 6
53.66856 -0.74242193 0.099850856 6.1111112
53.690533 -0.15126771 0.12216254 7
53.858952 -6.6691132 0.41234568 6
53.729866 -3.7622261 0.7493242 7
53.807858 -3.4079604 0.6378907 7
53.666126 -2.9044256 0.66295284 7
53.850056 -2.6564727 0.65284771 7.5510001
53.995903 -2.1720684 0.62742835 7
53.817081 -1.6351478 0.68752688 7.5514998
53.785358 -1.4821973 0.73076743 7.55375
53.729599 -1.0089227 0.66689914 7.4389
53.808872 -0.54251987 0.77128953 8.1126671
53.681087 -0.14039239 0.72490078 8
53.81057 -6.4760842 0.80996686 7
53.638836 -6.1521931 0.93883586 8.1104164
53.61166 -5.7428865 0.94091552 8.1160002
53.706638 -4.4876366 1.1352488 8.1555004
53.69109 -3.8704154 0.90332645 8
53.766338 -2.98827 0.93608278 8.0974998
53.841702 -2.0983768 1.0366611 8.4469175
53.875282 -1.7750194 0.89582694 8.2742863
53.699192 -1.4249488 1.0301262 8.34725
53.785957 -1.0119787 0.90841395 8.0978889
53.984493 -0.76503539 0.8847326 8.0749998
53.635658 -0.18061666 1.0000769 8.5405006
53.658901 -6.2320848 1.3149933 9.1151247
53.631062 -4.4694972 1.4900413 9.1560001
53.61068 -4.2973838 1.569333 10
53.973038 -3.2052314 1.5329155 10.119
53.970219 -3.0957003 1.5088884 9.116333
53.783932 -2.1774549 1.3509102 9.1012497
53.774086 -1.8291359 1.3717686 9.3540583
53.825771 -1.0870818 1.2112542 9.1238337
53.65974 -0.11011555 1.3126638 9
53.741215 -6.0421104 1.8016378 9.0874996
53.749577 -5.9876513 1.9404856 9.0815001
53.664867 -4.4551773 1.8428777 10.813167
53.744358 -4.0803251 1.8107382 9.4111538
53.715172 -3.9578071 1.9105006 9.8000002
53.635143 -3.3544629 1.8746587 9.073
53.93224 -3.1689517 1.7762649 9.6345005
53.70882 -0.48993099 1.7409445 9.0830002
53.839756 -0.31327677 1.7858516 9.9141436
53.651848 -6.1080494 2.0734737 11.11875
53.668102 -5.3344207 2.2934155 9.1079998
53.730999 -5.0409427 2.120151 8.0465002
53.700787 -4.4148989 2.083292 12.137
53.700619 -4.1417918 2.196239 10.849167
53.772114 -3.9375453 2.274168 10.333333
53.767826 -3.2807527 2.182039 11.784165
53.798271 -3.1543746 2.16043 10.097
53.847225 -2.1917574 2.2622702 11.556277
53.791 -1.9931893 2.2067397 10.092
53.850632 -0.23163879 2.2441742 10.996999
53.672382 -4.1225691 2.5878429 11.393833
53.785675 -3.9414427 2.5742865 10.4
53.611523 -3.5188763 2.7701149 12.1095
53.601887 -1.942796 2.5201347 10.0765
53.782448 -0.15448783 2.6040232 12.376
53.813911 -6.1924376 3.0878243 8.0124998
53.700397 -5.2643561 3.0813012 9.1739998
53.755997 -4.9348555 2.9173522 10.7415
53.766098 -4.589684 2.9478049 12.231945
53.746601 -4.1138935 2.9550996 12.575084
53.692497 -3.8264947 2.9836931 10.8079
53.93486 -2.0410058 2.8673966 8.0170002
53.660221 -11.101905 3.4257498 10.0755
53.756599 -7.059442 3.4536664 8.0380001
53.994061 -6.3391342 3.3965521 8.0384998
53.741383 -5.9867854 3.576705 9.0395002
53.691429 -5.2680712 3.3028436 13.823001
53.630135 -5.0887103 3.5160987 14.1115
53.692348 -4.5402408 3.472235 9.1739998
53.641411 -3.5221245 3.5228939 8.0354996
53.754795 -2.8301692 3.4961002 13.442
53.782772 -2.6647966 3.4461372 11.880214
53.612453 -10.362201 3.9081213 14.4565
53.740723 -5.2129922 3.6257682 15.154
53.606464 -5.0374503 3.8553913 15.157
53.671146 -4.5944133 3.6994305 11.075
53.71286 -4.1335492 3.940737 10.0455
53.974426 -3.4304698 3.7223153 15.115
53.852146 -2.9569716 3.8293641 12.664708
53.821922 -2.6909142 3.8002563 13.528125
53.625584 -11.199428 4.3510966 9.0105
53.829784 -10.209698 4.1389794 10.173
53.824673 -9.8762655 4.1480255 11.761167
53.688744 -9.2625132 4.1792645 11.08
53.790146 -6.1974726 4.2683997 14.457667
53.84927 -5.5258379 4.3038049 12.083
53.724831 -4.5260639 4.1919403 13.164917
53.823807 -4.2114253 4.1610403 11.619722
53.701008 -3.8704 4.1768446 12.797501
53.99918 -3.3215606 4.0985751 15.112
53.810146 -2.9607205 4.2220125 13.007409
53.785332 -2.6990495 4.2168784 13.0194
53.679657 -10.325324 4.5889215 9.0015001
53.825657 -6.1136155 4.6048913 15.1615
53.73616 -5.9339423 4.5937619 14.66275
53.726948 -4.5253954 4.5666094 14.829417
53.754429 -4.169466 4.5685282 10.939055
53.663326 -3.6815941 4.4885535 9
53.744129 -3.3942263 4.6135187 12.320875
53.83786 -2.9823523 4.4945445 13.834063
53.761608 -2.3401427 4.7729931 14
53.742397 -11.135978 5.014379 10.1725
53.770508 -5.9746394 4.8329864 14.164
53.825581 -5.0906019 4.8529806 15.1065
53.853626 -4.1199059 4.8875136 14.6025
53.745232 -3.7458131 5.042573 11.447214
53.820629 -3.4300437 5.0371385 10.217401
53.964481 -3.1289747 5.158391 9.0054998
53.759171 -2.529757 4.9437685 14.263223
53.780022 -10.578367 5.3829489 11.634001
53.609192 -10.041744 5.5218883 14.1015
53.765759 -4.1504192 5.3052669 11.5525
53.733273 -3.9763494 5.5385389 14.0905
53.769581 -3.4175298 5.5030112 12.047166
53.845631 -2.953263 5.2688651 12.688
53.727654 -8.8542109 5.7757907 10.0111
53.642956 -8.7736807 5.7283807 10
53.959904 -6.1343837 5.7625504 10.0085
53.817947 -4.4152331 5.9709597 9.0045004
53.701725 -4.0621738 5.7496986 14.760333
53.873802 -3.6894526 5.7706046 14
53.816113 -3.3828592 5.8092685 11.22785
53.814659 -3.0103962 5.8010945 13.193125
53.743702 -2.6395259 5.8824534 11.04225
53.622772 -9.1392107 6.35882 11.0555
53.974464 -5.5575213 6.056602 10.1765
53.742073 -3.9109492 6.0554819 9.0024996
53.690483 -3.4016774 6.3022771 11.00525
53.870583 -2.9444122 6.0920305 13.018201
53.678738 -2.7118618 6.0634651 11.0205
53.741032 -9.7526445 6.5888309 12.907801
53.697681 -9.4086151 6.5817428 14.091
53.865074 -4.028892 6.6769037 10.006
53.83041 -3.8563333 6.6106858 12.039249
53.968845 -3.5527685 6.6600499 14
53.938328 -3.120157 6.6883016 12.0625
53.61504 -10.219915 6.9747353 15.097
53.625484 -8.5967207 6.9158235 11.02775
53.947178 -8.3231354 6.869803 11.028
53.844536 -4.5159192 7.1058125 11.56475
53.859528 -4.2041721 6.9709697 10.50225
53.845669 -3.8133748 6.975976 11.006667
53.849583 -3.5278723 7.0065098 11.614901
53.81694 -3.0290608 6.9567075 13.519751
53.658943 -9.119483 7.5435567 12.0555
53.873837 -3.8591495 7.2879047 9.3361664
53.842758 -3.4304414 7.3558879 11.2535
53.751415 -3.1472783 7.2264514 12.01025
53.885162 -3.7863441 7.7737522 11.507999
53.737057 -3.0313475 7.8562374 13.014834
53.835205 -2.7778087 7.8536305 13
53.789791 -2.1680808 7.807332 13.03
53.78373 -9.4657917 8.3215618 12.032333
53.723549 -4.4218554 8.23699 13.034
53.8601 -3.8096213 8.1878672 11.6025
53.695488 -9.6996279 8.7169333 12.0115
53.786804 -9.4136066 8.4795437 12.02075
53.848278 -3.7212901 8.4591732 12
53.743435 -3.1876674 8.5355654 13
53.614326 -4.1070399 9.0786009 13.0705
54.202213 -0.69603544 -0.81582642 6
54.014717 -0.24534397 -0.722763 6
54.145855 -3.341423 -0.21609339 6
54.236652 -0.093475044 -0.09702456 5.8333335
54.052242 -3.4667037 0.0082750032 5
54.214554 -3.1059427 0.18954679 5.5
54.274426 -1.4817373 0.0073937317 7
54.393822 -0.63267165 0.26273644 7
54.234577 -0.07355158 0.28982908 7
54.260284 -2.9704485 0.77684832 8.1000004
54.104332 -1.5727042 0.71225852 7
54.359669 -1.0054328 0.73277414 8.1019993
54.258953 -0.61123741 0.73973072 8.1023331
54.226665 -0.28668776 0.7523253 8.0881662
54.239132 -6.1455846 1.0115467 8.0979996
54.24398 -3.3691902 0.83980864 8.1016665
54.205837 -3.0044749 0.89489514 8.0848999
54.180912 -2.5139577 1.0841014 8.7017851
54.148914 -2.1966722 0.91243905 8.1358004
54.162655 -1.6649723 0.87127376 8.1294994
54.189041 -1.4119772 0.95939749 8.1224279
54.362675 -0.89236617 0.91857398 8.1475
54.157001 -0.5218637 0.93382978 8.2574377
54.264484 -0.24958439 1.0058043 8.5527229
54.082893 -5.8113875 1.3391789 9.1149998
54.054829 -3.0498636 1.4114296 9.2939005
54.068176 -2.5841417 1.4138377 9.2740831
54.141457 -2.3378808 1.3097655 9.269125
54.258167 -1.9683121 1.2871965 9.1226006
54.09016 -1.1520981 1.2370522 9.1120005
54.24614 -0.52540857 1.3482549 8.4048338
54.381336 -0.37585095 1.2321701 9.1120005
54.061462 -4.0993624 1.6541929 9
54.065411 -3.0494328 1.7295674 9.4965
54.091324 -2.7770443 1.777534 9.0764999
54.219799 -2.2195823 1.9085008 9.5841665
54.143085 -0.29384038 1.8011297 7
54.185253 -4.5100136 2.0851836 8.0074997
54.391212 -4.3836942 2.2537608 8.0030003
54.169674 -2.2457852 2.085386 11.115
54.340336 -0.14951919 2.398164 8.0570002
54.289165 -4.9765739 2.4405196 8.0227499
54.326775 -4.5475664 2.6961608 11.099167
54.270462 -4.3390274 2.5946152 8.0015001
54.07753 -3.8616304 2.4066818 10
54.342693 -6.025198 3.1853385 8.0200005
54.177792 -4.5114493 2.9739861 9.7352695
54.295692 -4.3256083 3.0949934 10.835751
54.090584 -3.365027 2.9327428 8.0258751
54.311527 -29.410151 3.5321496 9.0740004
54.245239 -4.5553308 3.363898 11.497917
54.181381 -4.1950936 3.420105 10.828909
54.086376 -2.9089613 3.5059702 11.758499
54.211689 -5.9381666 3.8001032 12.164
54.140312 -4.1266341 3.9088185 12.046286
54.216496 -3.3373926 3.8397582 11.467999
54.177036 -2.948925 3.7922399 13.2285
54.201683 -5.7034192 4.185905 13.815499
54.131935 -5.3880105 4.3800159 14.792167
54.142155 -4.6632118 4.246027 10.141
54.183548 -4.1785407 4.1333919 10.726334
54.161572 -3.9801912 4.0948129 13
54.115276 -2.921284 4.182549 13.839624
54.031651 -2.7750318 4.1956644 13
54.247147 -11.121704 4.6954703 9.0187502
54.016289 -9.8589516 4.4590287 12.0955
54.104465 -5.7480936 4.4415283 14.1625
54.2491 -5.4703927 4.7169514 15.108749
54.232166 -4.6560097 4.4325013 9.0080004
54.073647 -4.1459603 4.5986667 11.023499
54.235596 -3.6990407 4.6473584 10.374333
54.153347 -3.2784989 4.6604052 14.094101
54.24641 -3.0774198 4.6368732 13.074301
54.041386 -4.9555073 4.8494048 12.0725
54.032631 -3.636646 5.07829 10
54.167706 -3.5254159 5.0316854 10.3132
54.034138 -2.6733663 4.8770795 14
54.02869 -4.3371906 5.3742623 10.071
54.24419 -3.1234806 5.5836124 12.0215
54.211025 -2.4428349 5.4851522 12
54.332638 -9.3355274 5.813549 10.014
54.065151 -8.914485 5.8367481 10.0285
54.018513 -8.7085476 5.7329822 10
54.390923 -6.0134358 5.6014428 13.082
54.264908 -5.8164315 5.7351503 13.1685
54.261517 -4.7371321 5.6395226 15.101
54.084198 -4.2883492 5.8330874 11.062
54.060623 -3.6343076 5.8517146 11.0005
54.176876 -3.3366117 5.7925715 12.54375
54.203003 -2.9301445 5.8133092 12.548833
54.232731 -2.6377752 5.7774959 12.381833
54.192165 -9.3390064 6.0184546 10.0375
54.105999 -8.8253784 6.3300676 11.056
54.139187 -4.2306499 6.2456198 10.007
54.349182 -3.6765749 6.053637 9.0015001
54.240517 -2.860321 6.0177565 11
54.277313 -2.6890509 6.0901909 11.0105
54.069206 -5.2465706 6.5957227 10.0065
54.079865 -4.9452105 6.5774145 10.51375
54.166698 -4.2359829 6.5819063 11.012751
54.246799 -3.855217 6.5937219 11.5005
54.337219 -9.4289236 7.0220189 11.021
54.198586 -8.5012074 6.8514071 11.033
54.047985 -4.4099979 6.9260283 11
54.108124 -4.2335424 6.9445877 11.004
54.174198 -3.7445862 7.0042725 10.339833
54.07148 -3.4350672 6.9285064 12.024834
54.111233 -2.9108825 6.99259 15.039
54.172543 -3.7191224 7.4444923 10.2059
54.173344 -3.5537243 7.3043418 11.5
54.252552 -3.0720844 7.2430272 12
54.363323 -2.740555 7.2763729 12.017
54.308571 -3.7049448 7.7292576 10.50625
54.297195 -3.5084708 7.8595691 13.0625
54.203629 -2.7292397 7.8622909 13.014999
54.289162 -4.206604 8.266758 12.519
54.06625 -3.7489564 8.2753572 12.504
54.119205 -3.3325348 8.2852106 12.3355
54.383965 -3.1360228 8.3728304 13
54.014023 -2.6996038 8.0103168 13.04
54.299011 -9.4038219 8.5691118 12.019
54.227596 -3.798542 8.4952011 12
54.009884 -3.396426 8.468154 13.0185
54.135124 -3.1436901 8.5540113 13.0135
54.13187 -3.2944984 8.9983406 14.0445
54.231632 -3.125351 9.0280504 14.035
54.170971 -9.9453316 9.6183481 13.0325
54.401615 -1.5419524 -0.75511247 6
54.644665 -1.1031653 -0.68489361 6
54.664017 -0.7713744 -0.74122226 5
54.530926 -0.34250209 -0.68550712 6
54.463043 -0.65513456 -0.055269986 7
54.58696 -3.6539302 0.31108224 6
54.546764 -3.3706613 0.32948244 6
54.797764 -0.41300663 0.19692357 7
54.495499 -0.096143812 0.25575784 7
54.720226 -1.0865228 0.66594917 7
54.530518 -0.15316172 0.74079317 8.0582228
54.630577 -2.1688836 0.87728935 8.1271667
54.598656 -1.7889334 1.1824389 9.1280003
54.657269 -1.1668612 0.8515175 7
54.585438 -0.52685094 0.98769748 8.4374437
54.54945 -0.14782135 0.92502797 7.8970003
54.77346 -2.806082 1.5013233 9.1549997
54.556477 -2.6232691 1.3935114 9.1079998
54.53503 -2.1700399 1.3732716 9.1069279
54.695141 -1.485772 1.2953248 9.1148329
54.526569 -0.9088254 1.3352128 7
54.563625 -0.49681106 1.3257493 8.5924377
54.617088 -0.21555643 1.2781502 8.6856766
54.542065 -4.0219483 1.9674141 7
54.468266 -2.4188828 1.6099342 7
54.521835 -2.189486 1.812158 10.402643
54.525448 -1.9019227 1.9661611 9.066
54.586075 -0.1212227 1.8197865 7
54.650204 -4.6097264 2.1080577 8.0187502
54.491215 -3.9995542 2.2018423 7
54.770874 -2.0093248 2.0098002 10.1015
54.410297 -0.17756683 2.22053 8.0614996
54.50079 -5.9148908 2.7792096 9.1094999
54.497269 -4.5007071 2.7015908 11.609751
54.488976 -4.2904491 2.7321427 11.440666
54.633617 -0.71018279 2.5020127 8.0725002
54.468903 -0.05925598 2.684134 8.0369997
54.51701 -6.065186 3.1703625 8.0244999
54.665909 -5.8266063 3.1056907 8.5692501
54.661018 -5.5925641 3.1143289 8.0345001
54.488853 -4.5713897 3.0738902 10.9055
54.500542 -4.2757568 2.9499953 11.28861
54.696655 -3.9204128 3.0315852 8.0209999
54.701481 -3.3376644 3.1461515 12.093833
54.681717 -3.179404 3.0842931 11.766624
54.531921 -1.7905164 2.9388185 8.0434999
54.457905 -0.073755629 2.8751957 8
54.690403 -28.605898 3.4263761 9.0775003
54.467148 -6.090239 3.3840554 8.0389996
54.446991 -4.549233 3.2960696 12.4935
54.43758 -4.3046803 3.3896039 12.1035
54.660297 -3.8613791 3.4695845 10.534357
54.698448 -3.3890753 3.4420953 12.978891
54.67889 -3.0330226 3.4163039 13.237347
54.501289 -6.1189475 3.8896599 15.115
54.664429 -5.7869506 3.8305833 14.020027
54.576439 -5.5487957 3.7538519 12.161501
54.575867 -4.0923939 3.7690022 10.089334
54.609871 -3.8541389 3.8539596 10.724188
54.610325 -3.3054922 3.7099903 13.486362
54.636219 -3.0257864 3.8394711 13.441545
54.602325 -5.7589531 4.1471963 13.962667
54.68536 -5.5410643 4.2464271 12.129749
54.431351 -4.8480287 4.2680125 9.0279999
54.736847 -4.4591131 4.3109317 14.793167
54.515026 -4.1507368 4.1853533 12.122625
54.594307 -3.8291564 4.1539798 10.691936
54.591045 -3.4303157 4.2246222 9.5331249
54.66077 -2.9659271 4.2237678 14.2674
54.705437 -2.6492548 4.2566581 14.068667
54.559551 -11.243081 4.6358128 9.0205002
54.487289 -5.5634832 4.4621387 15.111
54.599216 -5.0091429 4.5116229 12.590625
54.605042 -4.5959468 4.5068898 11.669199
54.704563 -4.123322 4.6518369 12.098125
54.556324 -3.7053578 4.56498 13.088666
54.637386 -3.4779761 4.6155806 12.549907
54.507206 -2.9220982 4.5715685 13.842951
54.62912 -2.730587 4.551878 13.822101
54.666191 -5.2665486 5.1194925 8.0019999
54.433842 -4.6465755 4.929162 13.091
54.677998 -3.7541358 4.9812598 11.0375
54.624825 -3.4183736 5.1246738 10.010167
54.546253 -3.048702 4.9774485 10.028501
54.520706 -10.707363 5.4198956 10.0555
54.424911 -5.3722415 5.4497714 12.084249
54.48793 -5.1995358 5.3478556 9.0054998
54.421452 -4.6919045 5.3723812 14.092
54.470798 -4.1817307 5.243084 14.097
54.425686 -3.6613686 5.5385079 14.0915
54.709198 -3.4513149 5.4555941 13.05675
54.439194 -9.2716274 5.7885575 10
54.464245 -9.1781254 5.7755132 10.033
54.449409 -4.9911466 5.6991878 9.5900002
54.585178 -4.5480828 5.7336135 10.533751
54.65263 -4.1676717 5.9687514 9.5060005
54.514942 -3.7415025 5.6942606 13.057667
54.596073 -3.4522281 5.7150345 14.33925
54.66465 -2.9750469 5.7956243 11.51525
54.474529 -2.7069736 5.8225493 12.542
54.622009 -5.4840817 6.2894969 13.17
54.532986 -4.579926 6.3480415 10.1775
54.494564 -3.7498975 6.2952094 9.0027504
54.449257 -3.5202086 6.1533847 12.5
54.487698 -2.8547673 6.0301447 11
54.452015 -2.7781663 6.1154642 11.02025
54.604336 -5.0035443 6.7874393 10.006
54.589981 -4.6077805 6.6075478 11.065999
54.643539 -4.2493329 6.7699175 11.0095
54.590454 -3.8168507 6.5208311 11.8393
54.637005 -3.4913774 6.7145886 10.006
54.418522 -2.8295119 6.5483088 12.055
54.675587 -4.7224698 6.9631743 11.173
54.634735 -4.1125588 7.0245032 11.00825
54.553989 -3.7855229 7.1154814 12.024834
54.502087 -3.4772515 6.8407011 15.0835
54.662392 -3.1243625 7.1182294 12.023666
54.439732 -9.8719978 7.3303304 11.0375
54.543728 -3.6872194 7.3075104 11.669167
54.525436 -3.4016767 7.3976235 11.50375
54.634926 -2.9192452 7.3755579 12.014
54.594913 -2.7796311 7.2990355 12
54.541763 -4.5081573 7.6725802 12.015
54.464699 -3.9872499 7.684628 12.011
54.43959 -3.5109217 7.9751039 11.007
54.60854 -2.8166413 7.9352889 13.0355
54.422199 -2.3481352 7.9077921 13.0305
54.404648 -9.7559185 8.3285456 12
54.509708 -4.0138631 8.390707 12.008
54.507778 -3.3315396 8.2769775 13
54.596584 -2.9711719 8.2454176 13.02025
54.52187 -2.9117188 8.4521198 13
54.59053 -2.7944608 8.4293556 13
54.680935 -3.2368209 9.0506029 14.045
54.659145 -3.144635 8.8045397 14.05
55.070347 -1.7027781 -0.63630903 6
54.966118 -1.0690315 -0.63412797 5.5
55.13855 -3.8623407 -0.047103845 5
54.81485 -0.31139454 -0.29914516 6
54.931408 -3.3782978 0.28683054 6
54.921707 -4.7466836 0.64677954 7
54.894733 -0.93471617 0.76162386 8.0900002
55.041401 -0.71442384 0.77099508 8.1075001
54.892368 -0.18057799 0.75642633 8.1117496
55.068077 -4.9462504 0.95769405 8.1110001
55.097328 -3.3098602 0.98601526 8.1359997
55.039875 -2.4859767 0.96804291 8.1385002
54.93837 -2.1592591 1.0172791 8.1486664
54.986782 -1.0084926 0.90986919 8.1246252
55.00872 -0.58158898 0.89800209 7.7720714
55.060246 -0.33712977 0.86734933 8.0769997
55.021999 -2.5862842 1.4246579 9.1376667
54.895882 -2.1722462 1.3549337 8.0557499
54.985207 -1.7624618 1.326749 9.1131668
55.114819 -0.22532964 1.3947887 7
54.966656 -2.6950014 1.616137 10.1235
54.996605 -2.076864 1.9068133 10.61275
55.126198 -1.9286455 1.8451241 10.123166
55.037048 -0.049948838 1.7813237 7
54.810638 -2.4132602 2.1164064 7
54.826588 -2.0732749 2.0598571 11.118126
54.974377 -4.4412012 2.5503483 8.0135002
55.066216 -3.2956936 2.6345484 8.0555
54.965874 -2.2774534 2.6898186 8.0509996
54.915325 -0.86890316 2.4281511 8.0675001
54.836689 -0.56393707 2.5560029 8.052
55.058891 -3.341923 3.1676996 11
54.914368 -3.1016159 3.1285682 11
54.90406 -2.6464205 2.8946719 8.0335007
54.978703 -1.8136125 2.8393757 8.0315008
54.901566 -3.8173299 3.4527671 12.9555
54.835297 -3.3476465 3.4604986 11.6394
54.885063 -3.0110264 3.5268903 11.54925
55.192505 -2.5919621 3.5651093 9.0559998
54.856285 -5.6960206 3.7598393 12.318084
54.913368 -5.4346533 3.8810601 10.968
55.137478 -4.4723387 3.8246038 11.889125
55.176323 -4.2100229 3.8193715 12.638375
54.890312 -3.8220427 3.8395898 11.762333
54.869255 -2.9420285 3.9030023 12.527625
54.953049 -6.526885 4.1249533 9.0200005
54.85252 -5.6759329 4.1080804 13.112125
54.988865 -5.4016333 4.3438215 11.590124
55.067814 -4.9977541 4.1361771 13.636499
55.078297 -4.5787821 4.2096119 13.352526
55.018986 -4.17594 4.166429 13.660625
54.977154 -3.7805178 4.2481985 12.5122
55.050484 -3.300864 4.1539917 12.63875
54.907402 -2.9625418 4.1134133 13.094833
54.828091 -2.4926958 4.1206598 12.0845
55.188766 -5.4348989 4.7076626 14.107
55.025581 -4.6359606 4.4450178 15.1575
55.060596 -3.8925099 4.677423 10.7095
54.931751 -3.4901845 4.4698343 13.2743
55.133457 -5.2547517 4.8304019 14.1055
55.197445 -4.9171729 4.9788632 11.1715
55.141773 -4.5706229 5.0874891 10.1735
54.952126 -4.2301226 5.0860357 9.0882502
54.959599 -3.8162117 4.8938785 11.569
54.834023 -3.4129553 5.1887002 10
54.899937 -5.8366308 5.517024 10.015
54.910118 -4.8540373 5.5691538 10.17325
55.1936 -4.6119475 5.5008554 8.0030003
54.896526 -4.2385745 5.4156723 11.049
55.039356 -3.773257 5.2942214 13.6573
54.921131 -3.5635099 5.235466 10.0115
54.988979 -3.1609054 5.4929209 13.582624
55.172791 -5.5018878 5.8537855 11.0585
54.928577 -4.1762056 5.9396162 9.0025005
55.081512 -3.945123 5.7677236 9.0015001
54.979591 -3.3847914 5.8777761 14.084
55.104736 -2.9863286 5.8920717 11.042333
54.864185 -2.523818 5.7890849 14.0845
55.10582 -4.9189806 6.0426702 9.0050001
54.87965 -4.4571123 6.1572113 10.0075
54.965229 -4.1344934 6.1657038 9.6726665
55.096882 -3.0478318 6.1213455 11.033501
55.061394 -4.8137617 6.5620031 11.017
54.94976 -4.2423449 6.6052938 12.54375
55.027382 -3.8683972 6.5675883 11.697833
55.112923 -4.5377364 6.9746962 12.1725
54.972507 -3.7343996 7.0179071 10.685666
54.916664 -3.4540682 6.8455462 10.006
55.187866 -4.4886222 7.3706279 10.006
55.194935 -3.4170907 7.2524037 12.026
54.839008 -2.7684584 7.2190928 12.0215
54.838364 -3.4963961 7.9281144 13.063
55.163986 -2.8072255 7.9877534 13.036
54.926041 -3.6528845 8.0207577 13.0655
55.111069 -2.6307232 8.0770864 13.036
55.160286 -3.4752953 8.5170183 13.0215
54.876289 -3.2865324 9.1442175 14.0355
55.543926 -1.2448968 -0.57114166 5
55.486679 -1.0857995 -0.64371514 5
55.468613 -4.1212754 0.28451535 6
55.525066 -3.8085363 0.33690685 7
55.229626 -2.3968501 0.29099384 6
55.561752 -0.3764399 0.2737222 7
55.409431 -5.1845393 0.61031997 7
55.366486 -4.064384 0.59065837 7
55.278358 -0.5732584 0.69427544 7
55.258018 -0.13032527 0.76267308 8.1064997
55.509048 -5.3107872 0.97181863 8.1227493
55.354748 -4.6019073 1.0122769 8.1080008
55.504944 -4.2217045 0.90800965 8.1092491
55.2118 -3.5661805 0.97135502 8.1429996
55.290421 -2.62042 1.0572408 8.1520004
55.52644 -2.2441156 1.1169969 8.1549997
55.306301 -1.2261119 0.97322452 7
55.471722 -0.85964799 0.80763459 8.1145
55.243801 -0.69206852 0.81673616 8.1184998
55.306686 -0.22354262 0.83246279 8.1110001
55.38279 -4.6112146 1.3301406 8.8097496
55.465717 -4.3622451 1.3453865 9.1199999
55.525784 -2.1390302 1.2482078 9.1274996
55.493359 -1.8054913 1.3400148 9.1131668
55.455917 -1.456916 1.5044929 9.1007996
55.215839 -1.8358034 1.6685327 9.0854998
55.57449 -4.6047688 2.4210932 8.0205002
55.325722 -2.1471725 2.7998238 10.073
55.387718 -1.9110953 2.7457697 10.422
55.315418 -0.51970434 2.488785 8.0550003
55.252277 -0.26009983 2.7326264 8.0300007
55.384018 -3.9459529 3.0939107 10.1665
55.373417 -3.410584 3.1155086 11.443417
55.408195 -2.9872973 3.1176493 11.619249
55.578419 -2.7118127 3.1940081 12
55.432743 -2.1310275 2.9847345 10.479001
55.504215 -1.9491203 2.956074 11.09575
55.23048 -4.2142148 3.5750327 11.165751
55.398457 -3.7634456 3.3554845 12.5075
55.517773 -3.5338898 3.3401976 11.277417
55.543182 -3.051666 3.2601812 10.63975
55.497246 -2.169205 3.2126455 12.469083
55.250278 -5.4347491 3.9007418 11.076
55.254742 -4.2453361 3.836324 12.891
55.493416 -3.682421 3.6623108 13.1105
55.271362 -2.8473392 3.8007476 11.0725
55.487988 -2.511694 3.803586 12.398834
55.514862 -2.2534487 3.7841592 13.081875
55.2104 -5.4599319 4.0685825 13.107
55.369526 -4.9094577 4.2329702 11.16825
55.212116 -4.5524335 4.0300012 14.63675
55.494331 -4.3570023 4.1870918 9.0214996
55.590546 -2.9319954 4.0301566 11.069
55.385735 -2.6040821 4.1415558 12.812625
55.221714 -5.3295665 4.7629647 15.111
55.401749 -5.0120025 4.4122987 9.0024996
55.462399 -4.7885528 4.4596925 9.1794996
55.309933 -4.201612 4.6630807 9.0045004
55.501575 -2.9568727 4.6362543 12.075
55.472908 -2.1284559 4.5015059 12.0755
55.399815 -4.9421401 4.8878837 10.1735
55.359871 -4.206275 5.0276041 12.058167
55.293755 -3.7096906 5.0463705 14.434834
55.598431 -3.3084722 5.1587782 14.6035
55.313789 -5.0440726 5.5927639 10.1725
55.43808 -4.638597 5.484745 9.0059996
55.488598 -3.5921705 5.2333317 10.041
55.336975 -4.9470706 5.8344178 11.671499
55.430351 -4.6052489 5.796309 10.089251
55.301517 -3.6691031 5.857975 13.072
55.343731 -3.3392701 5.8593965 13.1355
55.347012 -3.1501842 5.7170386 12
55.408932 -2.7045133 5.7005787 11.051
55.284626 -4.3581862 6.1091619 11.1735
55.52462 -3.8936784 6.1976452 10.008
55.403206 -3.4478071 6.044064 11
55.44754 -4.542767 6.5430336 11.0165
55.284081 -4.2268205 6.7541099 12.547251
55.339397 -3.7750297 6.4309359 10.0075
55.446354 -3.5041864 6.6450834 10.007
55.22345 -4.0078635 6.9996285 12.0655
55.451729 -3.6354787 7.1187634 12.0455
55.548824 -3.4683149 7.1115484 12
55.493103 -4.8828449 7.2241812 11.0085
55.347134 -4.5426898 7.34129 10.006
55.538696 -3.5464265 7.259645 12.036
55.359802 -2.7904906 7.9717345 13
55.453121 -2.8825498 8.0247774 13
55.83004 -1.8755896 -0.75678402 6
55.936802 -4.9480023 -0.23167327 6
55.968586 -4.2183161 0.262766 6
55.78017 -3.6923029 0.28244528 6
55.883263 -0.44367817 0.20574233 7
55.780235 -4.9636211 0.55704015 7
55.626221 -2.0389671 0.676588 7
55.640125 -0.97721666 0.71889633 6
55.821381 -0.39472979 0.74208999 8.0915003
55.936798 -5.3799319 0.95170361 8.1079998
55.956322 -4.8513503 1.0449926 8.1315002
55.854233 -4.6513758 1.0503123 8.1432495
55.699055 -4.2886972 1.0156944 8.1424999
55.647285 -3.8710878 1.0339022 8.1452503
55.672985 -1.1856651 1.1104823 6
55.798656 -0.62765068 0.87175912 8.0960007
55.830273 -4.8885779 1.3634026 8.8135004
55.859795 -4.3915548 1.3582789 9.1365004
55.727245 -1.8222939 1.3194741 9.1169996
55.670498 -1.5253935 1.4609501 9.0979996
55.91959 -1.1308932 1.3996974 8.0692501
55.73534 -0.25739583 1.4075369 8.0649996
55.952827 -1.8353903 1.6429271 10.1285
55.658539 -0.13888548 2.2110863 8.0625
55.839001 -1.758204 2.7294521 12.11725
55.70837 -0.20782046 2.6787524 8.0380001
55.714638 -2.9137409 3.1030514 11.221458
55.758232 -2.6525018 3.1655195 11.426167
55.821392 -2.1085753 2.9687705 11.826864
55.83659 -1.8859503 2.9337809 12.112306
55.712875 -3.7029996 3.5092692 10.6675
55.769527 -3.4302783 3.5039501 12.82175
55.765278 -2.9088836 3.3691263 13.502173
55.88612 -2.6560211 3.3433566 11.559751
55.823711 -2.1577454 3.3250659 12.86375
55.817417 -1.7983801 3.5197618 10.1695
55.957142 -4.4955506 3.9435456 11.0745
55.719841 -3.7683773 3.7036772 12.797
55.828785 -3.4573386 3.6955433 12.334287
55.862259 -2.9465792 3.7741737 13.124125
55.753746 -2.6076574 3.8118598 9.4221249
55.759411 -2.2099335 3.8592477 12.50475
55.843094 -1.8821692 3.7934687 13.6991
55.715519 -5.5118961 4.3713336 9.0264997
55.865543 -2.9447551 4.0943718 12.065084
55.809772 -2.6233189 4.1845613 12.824639
55.837128 -2.3770525 4.1362205 13
55.833305 -1.572572 4.3514709 14.108
55.672878 -4.965353 4.4475355 9.0100002
55.655418 -4.0634069 4.7472401 13.096
55.799183 -3.6234944 4.6895084 13.05625
55.953022 -3.345238 4.6293373 11.334875
55.873623 -2.9661753 4.4520249 11.5865
55.83548 -2.7190068 4.5951757 12.64325
55.943501 -1.7805375 4.6257877 14.1045
55.660072 -4.0135269 4.8198538 12.0745
55.82848 -3.3653662 5.0186558 13.580625
55.619598 -3.0179856 4.9939752 10.021
55.740852 -2.587534 4.8512435 14.051001
55.901772 -5.1306996 5.4670844 10.0175
55.896481 -3.4795191 5.3034673 13.13875
55.958992 -3.1317105 5.2077203 14
55.904789 -2.7223265 5.5700512 13.0755
55.728645 -4.3937302 5.689332 13.077
55.699184 -3.326128 5.787674 14.089
55.952351 -2.9158156 5.7816253 13
55.766815 -3.2251167 6.0753155 11.021
55.660976 -3.0918579 6.0002413 11
55.789112 -4.1691265 6.5688 11.012
55.731361 -4.9770794 7.1948419 11.009
55.785904 -4.648962 7.0016603 11.03475
55.839397 -3.3649395 7.1075873 12
55.632053 -3.2444134 7.3719282 12.022
55.752323 -3.1738663 8.133667 13
56.390572 -18.496716 -0.42488736 3.6666667
56.351856 -18.150955 -0.42491195 3
56.330364 -17.893509 -0.46525535 3
56.306248 -2.6489856 -0.54396242 6
56.393616 -19.385841 -0.25768152 4
56.379429 -19.040844 -0.14292894 4
56.354462 -18.580078 -0.10783182 4
56.358189 -18.292349 -0.18301833 3.7142856
56.328846 -17.823591 -0.19815707 4
56.389297 -19.31279 0.34359935 5
56.380581 -19.001539 0.24259216 4.8333335
56.367081 -18.612015 0.22929275 4.9000001
56.342686 -18.22102 0.24944048 4.875
56.320873 -17.852345 0.21828528 4.5714288
56.030594 -4.5182543 0.28258821 6
56.181168 -3.954983 0.27586949 6
56.381794 -19.00412 0.48126599 5.3333335
56.365585 -18.589857 0.46983796 5.4000001
56.342766 -18.15579 0.45128745 5.25
56.324371 -17.864637 0.45692915 5.5999999
56.156132 -5.4505596 0.61086416 7
56.374146 -4.8232775 0.63774264 7
56.390076 -4.1151648 0.63341641 7
56.106884 -0.44198185 0.74312574 8.0977497
56.168125 -0.25333849 0.73736656 8.092
56.159229 -0.87000906 0.93651968 8.0679998
56.147121 -0.61182147 0.87563688 8.0905828
56.118801 -0.3274065 0.80300444 8.1145
56.106209 -4.4540882 1.3846003 9.1204996
56.058929 -1.6512852 1.4586797 9.1005001
56.031105 -1.239161 1.3637862 9.1087494
56.091969 -1.1615424 1.371002 9.1040001
56.126595 -0.45833343 1.2981668 9.1151667
56.210617 -5.5635514 1.6945238 8.1555004
56.132519 -3.24828 1.9830065 9.7661667
56.21632 -3.0554011 1.8085756 8.854125
56.279587 -2.7335746 1.9678942 9.0725002
56.123981 -1.6786147 1.6379752 9.1240005
56.113152 -3.2792935 2.0987055 9.0665007
56.284546 -3.0536091 2.151792 10.082464
56.049892 -2.1274896 2.1483769 8.0100002
56.200756 -0.0092551233 2.1992671 8.0629997
56.368729 -4.1381502 2.6942503 8.0559998
56.19915 -3.7881954 2.5460532 8.0129995
56.352184 -2.9339545 2.4837341 11.05625
56.247154 -1.5023353 2.7037189 12.119499
56.250229 -3.0335772 3.0962095 12.3045
56.151283 -2.6138003 3.0399916 12.060125
56.015858 -2.0281496 3.0690491 11.766334
56.182461 -1.7966677 2.9772713 12.038501
56.278107 -1.5491306 3.0938671 12.11075
56.189453 -3.6252079 3.3782692 11.660625
56.171829 -3.3551514 3.4826357 11.734501
56.233387 -2.9928315 3.4414845 12.110464
56.116558 -2.6629748 3.3917072 12.365638
56.173824 -2.1497619 3.3694787 13.586925
56.268196 -1.8757187 3.2904811 12.645774
56.32745 -4.1026249 3.8622413 11.639999
56.09343 -3.6493888 3.7940989 12.162
56.187004 -3.3157928 3.7679896 13.837049
56.228771 -3.0005827 3.7753401 12.390311
56.212231 -2.5845733 3.8588016 10.9172
56.203091 -2.1242034 3.8405461 13.102792
56.112122 -1.7657247 3.6582251 13.56975
56.368958 -3.2164183 4.3694825 9.0039997
56.288097 -3.0252337 4.2118578 10.503167
56.195717 -2.574651 4.1537695 12.553635
56.127914 -2.3508983 4.038136 15.12
56.050369 -1.4230332 4.3181982 13
56.092289 -3.8329337 4.6902275 11.110375
56.171608 -3.3855083 4.6770258 12.47585
56.212631 -3.0052793 4.5734272 11.961045
56.147369 -2.6700757 4.6308293 13.8668
56.240936 -2.2009623 4.5417256 14.287298
56.056385 -1.8129525 4.4198961 12.1645
56.243412 -1.5520235 4.4453111 14.779666
56.02454 -4.0003991 5.1899724 10.071
56.256683 -3.8401468 4.8522334 13.1455
56.180874 -3.4467928 5.0153174 10.681849
56.043613 -3.1518011 4.99791 11.821875
56.182167 -2.4885743 4.9779668 13.056874
56.272594 -3.6732738 5.4254942 9.0065002
56.262527 -3.3710344 5.3695974 14.432334
56.170567 -3.1531293 5.2216682 12.009251
56.20779 -2.6321228 5.414979 10.67175
56.201626 -2.272229 5.3761449 14.629749
56.272758 -1.7226989 5.4239669 13.0765
56.123608 -4.2067018 5.843297 11.1095
56.25774 -2.82812 5.8219271 11
56.249924 -4.6193895 6.5294032 11.022
56.167927 -4.2820439 6.9676552 12.0555
56.045124 -3.508801 6.9235969 12.051
56.494244 -17.160252 -0.82627374 2
56.525665 -16.101439 -0.93201649 2
56.773491 -14.971737 -0.97899407 2
56.658417 -12.011239 -1.1514615 3
56.724941 -25.734352 -0.5725646 5
56.718735 -24.716412 -0.41511273 3
56.577995 -23.128433 -0.48707348 4
56.541866 -21.516495 -0.67025435 2
56.494991 -21.072182 -0.5000934 3.5
56.465034 -20.740654 -0.4799459 4
56.406471 -19.387285 -0.46767163 3
56.406551 -19.038921 -0.57574111 2.6666667
56.629887 -17.708031 -0.45999363 3
56.529728 -2.6962979 -0.52345353 6
56.775402 -27.125296 -0.15359607 3
56.763538 -26.499706 -0.068949334 3.5
56.749069 -26.220167 -0.18405402 4
56.729946 -25.759794 -0.17938079 3.3333333
56.724689 -25.4757 -0.059228636 4
56.700603 -25.035509 -0.18287772 4
56.682465 -24.598124 -0.19499905 3.75
56.657005 -24.20385 -0.15552151 4
56.645618 -23.881639 -0.20052584 3.6666667
56.617592 -23.418499 -0.11355507 4
56.595879 -23.102377 -0.17107633 3.8
56.575588 -22.543602 -0.25870177 3.5714285
56.571823 -22.19684 -0.17370531 4.1999998
56.538673 -21.825306 -0.25155532 3.5
56.524601 -21.421139 -0.25575557 3.8333333
56.498947 -21.031343 -0.14114168 3.8571429
56.47768 -20.583555 -0.18563499 4.1666665
56.451111 -20.224529 -0.12138254 4
56.429291 -19.761042 -0.13225271 4.181818
56.424023 -19.471989 -0.23445216 3.5
56.407242 -18.909166 -0.0097657684 4
56.428844 -18.395966 -0.36640406 3
56.531181 -17.646902 -0.12138934 4.5
56.795971 -27.267902 0.31507027 4
56.778988 -27.04941 0.32565767 4.5
56.756943 -26.63884 0.22682045 4.5
56.749889 -26.16506 0.20230456 4
56.735836 -25.877684 0.23969164 4.6666665
56.712894 -25.394169 0.14987445 4.2222223
56.701874 -25.025318 0.16006993 4.1666665
56.678516 -24.663715 0.14204492 4.4444447
56.653767 -24.196465 0.16914171 4.3571429
56.636246 -23.798975 0.18812795 4.6666665
56.610378 -23.374029 0.16684072 4.375
56.592827 -22.976879 0.21252307 4.5999999
56.573788 -22.585438 0.14850515 4.4545455
56.554123 -22.271435 0.12638867 4.4000001
56.530052 -21.803762 0.17104022 4.5999999
56.514004 -21.400229 0.20466505 4.7142859
56.50037 -21.062325 0.16571392 4.5833335
56.47591 -20.610613 0.18368164 4.6363635
56.453804 -20.187603 0.18921733 4.9230771
56.427242 -19.80858 0.20752008 4.6666665
56.40818 -19.418566 0.12633738 4.5
56.404575 -19.150156 0.19732621 4.5
56.415855 -18.681297 0.088037953 6
56.517395 -17.66374 0.2898598 5
56.789558 -0.46272036 0.033226505 7
56.79681 -27.905416 0.50273705 5.3333335
56.778622 -27.339931 0.59498531 5.1428571
56.774887 -27.055693 0.62742084 5.3571429
56.754784 -26.594305 0.64254326 5.3333335
56.748734 -26.227737 0.60266221 5.0999999
56.725796 -25.800018 0.63725311 5.4000001
56.701015 -25.398254 0.58955282 5.2307692
56.686928 -25.047598 0.5646686 5.25
56.667301 -24.631168 0.61319846 5.4666667
56.647221 -24.234783 0.5572325 5.4375
56.617817 -23.800219 0.56669271 5.3333335
56.616623 -23.381327 0.58811301 5.4375
56.592529 -23.024906 0.54500568 5.25
56.577557 -22.602222 0.56965625 5.4166665
56.563034 -22.187408 0.54113477 5.5
56.526405 -21.790476 0.50875682 5.3076925
56.512047 -21.39599 0.50028503 5.2222223
56.502151 -20.999229 0.51092899 5.2222223
56.486668 -20.499498 0.49638104 5.2857141
56.486553 -20.255098 0.51546806 5.4444447
56.486687 -19.800983 0.48352286 5.5384617
56.511051 -19.472269 0.50413889 5.5
56.580753 -19.110428 0.528593 6
56.534298 -18.56287 0.58645189 6
56.470932 -18.224743 0.57720405 6
56.627285 -17.891567 0.53078687 6
56.580666 -4.0749893 0.61908758 7
56.522923 -0.86954319 0.75555927 8.1075001
56.64328 -0.53094274 0.74630857 8.1072502
56.770527 -26.974529 0.84601986 6
56.750538 -26.475307 0.85313815 6
56.714943 -26.196222 0.88611364 6
56.704544 -25.497681 0.84423 6
56.697643 -24.789484 0.84615314 6
56.500607 -2.3774014 1.0880812 8.151
56.52652 -1.8318702 0.88002807 8.1105003
56.658833 -0.48235065 0.83195496 8.0967503
56.604698 -0.39347768 0.81462622 8.1149998
56.56562 -2.4975789 1.382441 8.8158331
56.464119 -0.64013946 1.3392115 9.1134996
56.66008 -3.744082 1.8140314 10.1345
56.6418 -3.4221494 1.8672791 9.1213751
56.746349 -3.1979423 1.9404026 9.0760002
56.507042 -2.5323722 1.883553 9.9144173
56.550892 -2.3660214 1.7383158 9.0865002
56.681896 -1.6506532 1.9366142 8.0279999
56.686268 -1.5222486 1.9781138 9.0340004
56.741837 -3.8633673 2.2275143 10.3403
56.595131 -3.358773 2.1601214 10.87475
56.501583 -2.8958399 2.2018626 10.651286
56.510353 -2.6448855 2.161962 10.338438
56.611782 -2.1315715 2.1264203 11.1355
56.691914 -1.6338829 2.0170939 9
56.435913 -4.3217726 2.4952075 9.1094999
56.630535 -3.6414063 2.6557617 8.0565004
56.648472 -3.3422556 2.5781996 11.800583
56.548725 -2.9414921 2.6187747 11.430541
56.655834 -2.6647313 2.6212151 11.30325
56.788265 -2.0078673 2.621933 11.111
56.617443 -1.8249521 2.6294258 11.61275
56.543858 -1.4862503 2.5851409 11.101299
56.731304 -0.52208269 2.5045121 8.0664997
56.695015 -3.274833 2.957531 11.078834
56.613781 -2.900887 2.8305991 11.791
56.72303 -2.6645665 3.0481002 12
56.600483 -1.8653396 2.9454331 10.381557
56.553825 -1.5293518 2.804986 12.1185
56.590248 -4.1095152 3.5281854 10.167
56.457474 -3.6258574 3.4552879 9.1730003
56.472855 -3.4867077 3.4793108 13.13525
56.642605 -2.1442828 3.460371 13.452001
56.549408 -1.8597102 3.4382424 12.063951
56.665333 -4.9496994 3.6310191 14.1215
56.625885 -4.5886645 3.750248 12.9353
56.558235 -4.1873908 3.8112614 11.541201
56.54044 -3.7377634 3.8784406 13.405499
56.514652 -3.4082775 3.7464774 11.165334
56.518784 -2.9391055 3.8493648 14.261071
56.598576 -2.58711 3.839581 13.482606
56.598515 -2.2382727 3.7878451 13.96075
56.691208 -1.8615167 3.8484123 13.504
56.694115 -1.5077499 3.9503469 13.107
56.689423 -15.868592 4.0900774 10.073
56.681431 -4.1487384 4.0019612 11.165
56.709003 -3.8318551 4.1516151 13.641999
56.641632 -3.4140053 4.1959701 13.1123
56.51807 -2.9961109 4.2839885 11.16725
56.594826 -2.5797446 4.1626377 12.643188
56.569771 -2.2003222 4.3179412 12.866417
56.759579 -1.868772 4.2367129 13.093625
56.675797 -1.3957025 4.2188249 13.799429
56.733597 -1.151071 4.2984042 13.096001
56.705067 -4.0422626 4.6999545 12.164
56.666626 -3.7701218 4.5795031 12.66275
56.516579 -3.4051762 4.559761 10.999445
56.580276 -2.9695098 4.7436056 11.806376
56.57922 -2.5485058 4.5477581 13.344625
56.595242 -2.1988962 4.561636 13.239393
56.685986 -1.5528435 4.4010611 13.099
56.53614 -3.8856003 5.0451503 14.1045
56.574409 -3.4046197 5.0043526 10.233285
56.411785 -3.1270127 5.0085001 13.596251
56.653019 -2.5786088 5.0712833 13.209188
56.656265 -2.2856786 4.9805646 13.422501
56.743229 -1.8720361 5.0083685 12.213201
56.731701 -3.6700282 5.4398694 10.172
56.586559 -3.3919778 5.3717294 12.455227
56.56496 -2.9729347 5.5286112 10.138833
56.693489 -2.5340006 5.3369474 15.108
56.567215 -2.2171493 5.2567482 13.5675
56.56221 -1.7249571 5.3919644 15.105249
56.557854 -1.4445941 5.3195348 14.093166
56.793873 -4.1996264 5.8014398 10.6015
56.79747 -3.5173697 5.6340542 13.0785
56.618252 -2.9164116 5.8253193 13.09343
56.635303 -2.6670935 5.8192315 12.084625
56.761753 -3.1523395 6.5994606 10.0075
56.686954 -3.3564761 6.9270625 11.01025
56.72501 -2.9130855 6.9984126 12
57.033119 -3.651674 -1.2344923 5
56.947948 -14.764692 -0.98002976 2
57.046124 -14.08305 -1.0130165 2.5
56.990936 -17.55714 -0.62761295 3
57.049042 -16.47308 -0.40143055 4
57.096592 -3.2038803 -0.64591551 6
56.935432 -29.890879 -0.14057536 2.5
56.895271 -29.041264 -0.041281462 3
56.846924 -28.438145 -0.22211832 3
56.847378 -28.307423 -0.12027591 2.6666667
56.824734 -27.816624 -0.13371994 3.3333333
56.808739 -27.446705 -0.13803051 3
56.817131 -27.002884 -0.23786335 3
56.800995 -26.1696 -0.17949843 3
57.10083 -16.901123 -0.18277018 4
57.061821 -16.645779 -0.18624182 4
57.096992 -16.193151 -0.20476902 4
56.916546 -29.782091 0.24134092 4.375
56.903355 -29.405098 0.1641065 3.7
56.886326 -29.064678 0.2005008 4.1999998
56.855461 -28.619015 0.20923725 4
56.838741 -28.213125 0.28605062 4.25
56.829147 -27.793535 0.2668919 4.625
56.814926 -27.51152 0.25900552 4
56.812065 -27.014242 0.20006908 4.6666665
56.805897 -26.181122 0.31285453 5
57.069584 -17.632877 0.20559923 5
56.978653 -0.10774969 0.048873737 7
56.904861 -29.705898 0.56275463 4.5
56.886536 -29.377073 0.58512563 4.818182
56.881245 -29.010242 0.58326828 4.7692308
56.856361 -28.566238 0.56841165 4.7692308
56.834743 -28.191372 0.62668824 4.8333335
56.823177 -27.746252 0.6126315 5
56.819084 -27.451546 0.58079326 5
56.812122 -26.998394 0.54336792 5
56.836483 -26.745937 0.66504031 6
56.852097 -22.322233 0.75844806 6
56.847122 -21.871836 0.75632095 6
56.817978 -20.821167 0.69476163 6
56.827278 -17.73727 0.5268454 6
56.985939 -4.3490672 0.53072226 7
56.930378 -29.784565 0.89549708 5.3846154
56.885422 -29.385248 0.88534927 5.4444447
56.879772 -28.993402 0.89990389 5.5833335
56.90958 -28.602398 0.87956649 5.6999998
56.843071 -28.234617 0.87587726 5.6666665
56.808445 -27.816664 0.87566507 5.75
56.835125 -27.432753 0.90396678 6
56.949051 -27.037611 0.90459555 6
57.070263 -26.513084 0.89556867 6
56.951679 -24.396603 0.83894652 6
57.134762 -2.9249599 1.0145484 8.1350002
57.122189 -1.1340579 0.8041752 7
57.126537 -3.2843266 1.3029016 8
57.122292 -2.9609363 1.5349617 9.1212502
57.175198 -2.7954521 1.3675697 9.1309996
57.093773 -2.9814446 1.7655209 9.8114996
57.053986 -1.6968478 1.9972759 9.0710001
57.120274 -1.5980414 1.880955 10.119
56.815086 -3.7255163 2.0612192 10.1505
56.807983 -3.5390925 2.220515 11.135
57.027153 -2.9750009 2.1559558 9.4625626
57.139057 -2.6497328 2.1374469 10.050667
57.144192 -2.3923397 2.1209512 10
57.028538 -1.6916282 2.2025464 9.53475
57.004547 -1.3882318 2.1526172 10.102962
56.929474 -4.0353165 2.4951882 11.1165
56.998569 -3.7432897 2.4401953 9.066
56.875614 -3.5660663 2.6320755 11.273084
57.111279 -2.6401923 2.6152482 10.7345
56.974998 -2.1165068 2.6654201 11.783668
56.947559 -1.7965908 2.637816 11.652165
56.960342 -1.45892 2.5996222 11.046928
56.96748 -0.2689769 2.4705904 8.0564995
57.037964 -3.3268921 3.0202477 11.622625
57.117558 -2.9534609 3.0941429 12.451417
57.13633 -2.7090065 2.8891661 11.372917
56.986252 -1.7220935 3.0384746 11.708461
57.027496 -1.5028881 3.0311146 11.682135
56.834736 -1.106421 2.8059213 8.0359993
57.067661 -2.8955438 3.4497154 12.471334
57.107903 -2.6298623 3.4679499 14.129
57.041363 -1.7384509 3.4173772 12.395926
57.018711 -1.5192615 3.3054156 12
57.056225 -4.8212099 3.8970306 15.1385
56.950607 -4.5569754 3.8961177 13.717643
57.020107 -4.2561636 3.8825707 11.005785
56.959496 -3.7932992 3.8413439 10.83225
56.921925 -3.4523919 3.7692482 11.687464
57.093529 -3.0009737 3.86129 11.730834
56.970989 -2.6566813 3.9190671 13.7297
56.998318 -2.1820076 3.8910673 12.509715
56.981812 -1.8532147 3.8024385 12.6979
57.068844 -1.3919913 3.869787 14.025187
57.058464 -1.1281855 3.8070321 14.124625
57.045765 -16.355862 4.3621249 10.068
56.935398 -15.757174 4.3412576 10.066
57.034245 -15.45005 4.1128426 10.072001
57.177498 -15.077329 4.2192702 11.63075
57.089447 -4.5331736 4.1269584 13.58293
57.020157 -4.1503401 4.1263084 13.526468
56.94873 -3.7996655 4.2115135 12.772955
56.805992 -3.5664449 4.2788305 14.155
56.962231 -3.0320139 4.2042651 12.114
57.022633 -2.5923193 4.1002445 12.091
