# .PCD v0.7 - Point Cloud Data file format
VERSION 0.7
FIELDS x y z intensity
SIZE 4 4 4 4
TYPE F F F F
COUNT 1 1 1 1
WIDTH 47
HEIGHT 1
VIEWPOINT 0 0 0 1 0 0 0
POINTS 47
DATA ascii
60.086487 184.34346 -1.7705576 8.0100002
60.24826 181.62367 1.5562721 11.0675
60.484367 181.27238 1.9572486 11.027
83.344276 196.10616 -0.57231832 8.0150003
83.695595 192.84109 -1.1505971 9.066
84.325768 191.43709 -1.1385646 9.0655003
85.484352 187.02286 -1.232704 9.0839996
85.560806 190.88509 -1.103804 9.0649996
85.468781 191.68282 -0.54206765 9.0764999
85.317764 191.60976 -0.20324787 9.0795002
85.431938 191.55959 0.01515775 9.0790005
85.730827 188.21902 -1.2123284 9.0620003
85.942947 190.79135 -1.200178 9.0625
85.804848 187.00916 -1.1085024 9.0640001
85.865097 187.77223 -1.1017153 9.0614996
85.619087 186.70059 -0.56592411 9.0815001
86.354408 185.97951 -1.8186133 8.0745001
86.035065 186.72322 -1.204957 9.0614996
86.07988 186.16539 -1.0942456 9.0609999
86.009727 186.39973 -0.21726935 9.0784998
86.735725 185.54951 -0.55385321 9.0810003
86.523392 186.09698 -0.29732752 9.0784998
86.812752 185.14752 -1.0668973 9.0605001
87.16433 185.20958 -0.18808736 9.0780001
87.035835 185.67986 -0.37424189 9.0784998
87.011047 192.5237 0.21969953 9.0760002
87.527382 184.98119 -0.47086731 9.0749998
87.494286 184.71109 -0.2748954 9.0780001
87.320587 191.72566 -0.1425485 9.0790005
87.420525 185.64749 0.011680313 9.0769997
88.143074 184.8638 -0.53003579 9.0804996
88.111015 184.45932 -0.35056078 9.0780001
88.200844 185.02139 -0.032503143 9.0944996
88.702057 181.91484 -0.98957312 9.059
88.659019 184.42644 -0.4120709 9.0745001
88.588776 184.50467 -0.1500113 9.0799284
88.409508 185.23567 -0.19355057 9.0784998
88.721008 184.64488 0.037330676 9.0772495
88.883118 180.44283 -0.97798824 9.0585003
88.931648 184.11139 -0.42130521 9.0745001
89.170135 184.35556 -0.22355388 9.0775003
88.835541 184.42589 0.083168104 9.0769997
88.85231 185.24089 0.23707351 9.0745001
89.279709 181.52031 -0.91378397 9.0580006
89.29821 181.16765 -0.53428322 9.0795002
89.662621 183.98434 -0.30736238 9.0775003
89.693924 184.40111 0.023713795 9.0734997
