# .PCD v0.7 - Point Cloud Data file format
VERSION 0.7
FIELDS x y z intensity
SIZE 4 4 4 4
TYPE F F F F
COUNT 1 1 1 1
WIDTH 1262
HEIGHT 1
VIEWPOINT 0 0 0 1 0 0 0
POINTS 1262
DATA ascii
64.878372 -40.663929 4.025599 10.063084
64.856514 -40.127327 4.0244231 10.031125
64.858177 -39.896011 4.111764 9.83325
64.81971 -39.564003 4.0060973 10.124
64.812263 -38.956692 4.0060482 10.041
65.18087 -36.062572 4.0825496 9
65.043861 -34.834862 4.0644383 9
64.922585 -32.517487 4.1065102 9
65.193283 -55.409595 4.6486101 9
65.137238 -54.03371 4.747551 9
65.185493 -53.780464 4.7629418 10.1535
65.193741 -53.294662 4.7230887 10
65.186958 -53.103992 4.6537328 10
65.080345 -51.857162 4.4178939 10
65.127243 -50.913082 4.5888419 10
65.070747 -50.528515 4.5769558 10.020036
65.057739 -50.228519 4.5539393 10
65.0224 -49.792088 4.5538707 9.9540787
65.069069 -49.530277 4.500792 10.02585
65.037956 -48.540642 4.7209854 10.038333
65.008575 -48.278481 4.529335 9.9093132
65.051758 -47.276756 4.5557623 10.071667
64.940422 -47.022232 4.5520253 9.8746662
64.897118 -46.589878 4.5505772 10.009812
64.876068 -46.223953 4.5042758 10.02575
64.859245 -45.748848 4.4875188 10.01825
64.833748 -45.379501 4.491663 10.014045
64.928833 -45.012848 4.4870358 10.025
65.035904 -44.673981 4.4172597 10.14
64.972221 -43.675957 4.5098066 9.7174997
64.932465 -43.51162 4.620029 10.0075
65.018852 -42.867447 4.7460732 11
65.012398 -42.500298 4.7237654 11
64.81929 -42.383427 4.5220561 9
64.881561 -41.037292 4.674252 11
64.924004 -40.450283 4.6422877 11
64.862656 -40.060966 4.5624099 10.4305
64.906929 -39.82634 4.6331611 10.6159
64.860405 -39.249313 4.5697026 11
64.817574 -38.853127 4.544445 11
65.193497 -54.810764 4.9231238 9.0074997
65.198952 -54.766026 5.0553279 10
65.188904 -53.823368 5.1487684 9.0012503
65.170959 -53.373398 5.1069007 9.8266001
65.155533 -53.179428 5.1445274 9
65.160896 -52.154568 5.0489216 10.037333
65.057899 -51.843452 5.0322151 11
65.126823 -50.844326 5.0867991 10
65.089989 -50.541058 5.0854459 10.423067
65.049385 -50.165245 5.0313964 10.478923
65.042244 -49.808514 5.054924 10.646722
65.052826 -49.48032 5.1282463 10.888889
65.087044 -48.509075 4.8601685 10
65.047272 -48.226009 5.058116 10.780251
64.905609 -46.930859 5.0504632 11.009536
64.87085 -46.569527 5.0327387 11
64.853912 -46.187103 4.9973211 11.020658
64.832573 -45.776001 5.0089507 11.00875
64.813576 -45.387543 5.0167875 11.009767
64.85128 -44.995182 5.0382061 11.03175
65.009926 -44.643238 4.9382663 11.02755
65.141365 -44.364418 4.9743767 11
64.938141 -43.688004 5.0608387 11
64.965424 -43.490116 4.8921318 11.042
64.932945 -42.327477 5.092 11.096001
64.908432 -41.284405 4.8882861 11.023
64.860321 -40.049919 4.8887486 11.1175
64.804527 -38.834347 5.1704741 12
64.802757 -36.395615 4.8988628 11
65.139381 -34.236069 5.1339898 12.1385
65.068687 -32.261871 5.120214 12.14225
65.070869 -31.912123 5.1239038 12.14275
65.048088 -31.445337 5.1201215 12.1375
64.996216 -30.857389 5.0845046 12.14275
64.99411 -30.556337 5.1180234 12.14425
65.152573 -54.881851 5.4470468 10
65.134918 -54.59771 5.4484591 10
65.143532 -54.276485 5.3911805 10
65.120544 -53.894768 5.4002514 10
65.169418 -53.382519 5.3717804 10.833333
65.161789 -53.109863 5.3524466 10.8261
65.128799 -51.91193 5.3744226 10.561625
65.114189 -50.822723 5.2760777 11
65.069763 -50.55069 5.3565745 10.681334
65.022629 -50.193306 5.3852749 10.828682
64.980598 -49.827026 5.399291 10.7
65.07 -49.485748 5.3969817 10.75
64.924919 -48.527466 5.5455699 11.0575
65.015503 -48.212578 5.3997483 10.666667
64.9851 -47.290554 5.3968763 11.037125
64.9282 -47.010948 5.5153894 11.014125
64.903519 -46.626225 5.3630805 10.906055
64.856705 -46.200821 5.4684005 11.344924
64.847237 -45.712173 5.3828249 11.158
64.821625 -45.351379 5.2957754 11.038125
64.935013 -44.955948 5.269052 11
65.008888 -44.651585 5.5141816 12.0425
64.971176 -43.71154 5.2896872 11
64.941513 -43.424072 5.4367771 11.2815
64.897667 -42.338932 5.3437176 12.043667
64.8722 -41.26424 5.5251975 12
64.85804 -41.025749 5.3395367 12
64.805222 -40.047741 5.4395294 12
64.880234 -39.8871 5.3004484 12
64.83535 -35.953896 5.4939237 12.148
64.823029 -35.559605 5.5066018 12.1485
64.82296 -35.151138 5.5226808 12.149
65.178795 -55.253132 5.7464128 10
65.176788 -54.965988 5.7777257 10
65.160034 -54.604553 5.7774305 10
65.133759 -54.205784 5.7252302 10
65.136436 -53.793724 5.7499466 10.4
65.122993 -53.372272 5.7749758 10.621042
65.129112 -53.119244 5.8362212 11
65.127953 -52.108131 5.8456612 11
65.061447 -51.916882 5.7367501 10.002001
65.117882 -50.866753 5.8806181 11.556499
65.044693 -50.56649 5.8261781 11.592249
65.031036 -50.206169 5.7955556 11.602264
65.0019 -49.793411 5.7918148 11.075033
65.004013 -49.495564 5.7953062 11.761458
65.060745 -48.484356 5.765132 11.191501
64.944954 -48.288296 5.7605596 10.571389
64.993004 -47.279499 5.9649367 12.1505
64.924324 -46.992432 5.7405376 10.967196
64.85331 -46.480869 5.6868176 11.6
64.82502 -46.180004 5.7317462 12.015
64.820282 -45.799595 5.7983227 12.044833
64.805504 -45.492062 5.739994 12
65.008492 -44.855541 5.9447432 12
64.899193 -44.698402 5.7024331 12
64.911209 -43.651176 5.8185992 12
64.921463 -43.456223 5.6768794 11.53425
65.140892 -43.093288 5.8377457 12.128166
64.866127 -42.28867 5.8079333 11.190583
64.906708 -41.43047 5.6556163 10.014
64.834961 -40.92585 5.9182782 12.666667
64.942108 -40.589302 5.8477607 12.59325
64.850754 -40.189434 5.9108181 11.422833
64.907288 -39.819328 5.7164454 11.059
64.821022 -39.405022 5.9747128 13.136083
64.830589 -38.781246 5.975853 13
64.913445 -34.901237 5.9161296 10
65.070107 -34.779163 5.9079952 10
65.185234 -54.896191 6.303719 11
65.18071 -54.546696 6.3222184 11
65.176826 -54.169182 6.2569275 11.334916
65.161423 -53.805252 6.2766929 11.51375
65.160172 -53.371868 6.2546601 11.363834
65.140533 -53.1091 6.2691636 11.303214
65.148827 -52.088791 6.2215166 11
65.13591 -51.84066 6.3222375 11.5
65.078102 -50.566288 6.1874595 11.659563
65.026642 -50.219727 6.2332931 10.897688
65.008408 -49.805889 6.1411233 11.121208
64.965881 -49.526672 6.1614451 12.041643
65.006218 -48.730873 6.2770357 8.0092506
64.91777 -48.209404 6.1786165 12.431
65.172737 -47.683872 6.2666297 12.116
65.048927 -47.453789 6.218792 12
64.861679 -46.985455 6.29251 12.444445
64.840927 -46.553005 6.2458019 12.454545
64.832527 -46.225349 6.2267399 12.583333
64.81617 -45.729027 6.1538763 12.285714
64.806702 -45.254707 6.1141763 12
64.925186 -44.950966 6.1248946 11.2015
65.00502 -44.676311 6.1652236 13.1275
65.047348 -44.194321 6.1155667 13.13
64.981842 -43.748608 6.1175389 12.56625
64.94384 -43.409386 6.1283798 11.365334
64.939262 -42.832607 6.0334935 13
64.953011 -42.57608 6.0221028 13
64.891953 -42.269928 6.1370788 13
64.845665 -40.998199 6.0872178 13
65.165596 -36.007057 6.0376763 10
64.95211 -34.805763 6.008409 10
65.143806 -34.759155 6.0084248 10
64.827835 -32.488579 6.0030508 10
65.178513 -55.260876 6.6157107 11
65.179276 -54.975037 6.6549997 11.2
65.1605 -54.554817 6.5973516 11.25
65.155128 -54.203465 6.6080995 11.666667
65.159851 -53.822174 6.6192398 12.011499
65.121597 -53.339088 6.5637088 11.351945
65.110916 -53.064121 6.5420556 11.833333
65.09964 -51.808891 6.5888901 11
65.027931 -50.469296 6.6237326 12.165615
64.985359 -50.196426 6.5203438 11.935577
64.928299 -49.801281 6.5401044 11.25
64.988708 -49.484776 6.642663 11.730286
64.983177 -48.48386 6.5630479 11.752501
64.990936 -48.182133 6.6491079 11
64.905128 -47.284382 6.4005442 12
64.95298 -46.923241 6.5515585 11.833333
64.850632 -46.64724 6.5328441 11.5
64.831367 -46.33548 6.5971656 12.5
64.802505 -45.891151 6.6004071 13
64.909157 -44.853718 6.7178063 13
65.021812 -44.61755 6.7190137 12.037583
65.089981 -44.110023 6.7890487 14.132
64.902161 -43.606316 6.6396551 13
65.002403 -43.339645 6.7216301 11.615214
65.029099 -43.018837 6.7493649 14.06875
64.977432 -42.564262 6.7099223 14.064875
64.932365 -42.396919 6.6708436 14
64.843193 -40.998749 6.6320276 13.298407
64.980766 -40.798756 6.6394067 14
64.851212 -40.13781 6.5705724 13.908701
64.891258 -39.838558 6.6327443 12.256167
64.86554 -39.399899 6.5670137 14.135625
64.833305 -38.97646 6.5537777 14.068
65.19577 -55.323723 6.9537129 11
65.18013 -54.954304 6.8786569 11.166667
65.17363 -54.60051 6.9259996 11.454545
65.160492 -54.197422 6.9952126 11.809534
65.157196 -53.776836 6.985353 12.076923
65.135284 -53.355495 6.9505835 11.715
65.1036 -53.084469 6.9138737 11.428572
65.145157 -52.012775 7.1228342 12
65.086075 -51.80978 7.0339622 11.887438
65.051018 -50.557575 7.0644794 12.298136
65.009857 -50.200943 7.0354514 12.911037
64.979996 -49.743587 7.0388393 13.030153
65.019447 -49.479298 6.9925365 12.203907
64.978676 -48.21769 6.9712214 12.07558
64.864571 -47.206463 6.9840636 13
64.896744 -46.956245 7.0018549 12.859305
64.833588 -46.646713 7.0054083 13.420651
64.82309 -46.244061 6.9600344 13.367963
64.823853 -45.822472 7.0061717 12.858028
64.843475 -45.377682 6.9371982 11.403999
64.894371 -44.892784 6.9992504 12.777124
64.97184 -44.599342 6.9768538 13.260479
65.007866 -44.169567 7.1772523 14.143
64.97448 -43.747929 7.02986 13.588833
64.89225 -43.455769 7.0103021 12.565499
64.939766 -42.989788 7.1059327 13.465167
64.866379 -42.220253 6.9953547 12.2281
64.849869 -41.320347 7.010334 11.007
64.874023 -41.04726 7.0200195 12.536916
64.81411 -40.626556 7.0277524 14.13275
64.807198 -40.049438 6.9131536 14.144
64.894226 -39.882378 6.9923615 11.52825
64.800156 -39.137192 6.8821278 13.1135
64.908691 -38.660759 7.0780125 13.153999
64.879959 -36.314842 7.0821214 13.114
65.185799 -54.996098 7.3455777 12.333333
65.17308 -54.582321 7.31142 12.2
65.163483 -54.210987 7.4259233 12.885699
65.159279 -53.80537 7.4451795 12.997102
65.130478 -53.347 7.4253001 12.934461
65.112427 -53.033504 7.409018 12.663022
65.166809 -52.736336 7.3440547 13
65.108894 -52.050613 7.2870831 12
65.099174 -51.760075 7.394526 12.137794
64.934982 -51.599625 7.4044042 13
65.032013 -50.811363 7.5806274 13.113
65.041695 -50.51178 7.4038701 12.944818
65.003838 -50.184895 7.3605981 12.617571
64.942719 -49.790089 7.4266081 12.6525
65.014061 -49.441608 7.4578328 12.355389
64.995453 -48.497166 7.4071536 13.684401
65.023674 -48.192211 7.3809228 12.214311
65.169609 -47.933895 7.3287611 13.556749
65.058464 -47.419758 7.2972159 13.561
64.855736 -46.937332 7.4365535 13.69985
64.830544 -46.650562 7.4725213 14.431616
64.825836 -46.259689 7.4562569 13.871818
64.808807 -45.705135 7.391499 13.444799
64.813011 -45.465141 7.395844 12.108
64.904831 -44.840904 7.5225453 11
64.960564 -44.628387 7.4032636 13.090138
64.974167 -44.202415 7.2453532 14.121
65.04628 -43.622982 7.3712287 11.05025
64.914406 -43.455338 7.4147573 12.241972
64.877953 -42.264114 7.3726506 14.0581
64.896133 -41.046249 7.3313122 13.395852
64.812859 -39.828312 7.4025126 14.62425
64.87941 -38.801464 7.2095394 15
64.95887 -38.714081 7.3499231 14.07825
65.008904 -36.281902 7.492198 13.557751
65.040291 -35.827682 7.2914472 11.01
65.182724 -54.954479 7.7952995 12.394625
65.17305 -54.604202 7.8462749 12.5925
65.164909 -54.205051 7.8195848 13.069705
65.163292 -53.787426 7.7937684 13.83949
65.132034 -53.384476 7.8373628 13.187
65.129471 -53.054443 7.7726512 13.108749
65.072464 -52.032436 7.7643919 13.537125
65.099655 -51.780098 7.8166208 12.807667
65.049706 -50.538265 7.8235283 13.963556
65.000977 -50.219467 7.7836924 14.180973
64.963722 -49.758629 7.8026042 14.011827
64.973625 -49.471394 7.7789583 13.735474
64.958351 -48.429451 7.729672 13
64.979324 -48.204086 7.8137054 13.189767
64.945786 -47.302704 7.8524408 14
64.90554 -46.938622 7.7573977 14.291016
64.832497 -46.625622 7.7462506 14.181063
64.812859 -46.265461 7.743259 14.413797
64.832397 -45.837666 7.7909074 13.391583
64.819374 -45.566528 7.611917 12.6085
64.878372 -44.885521 7.8081088 12.168667
65.004929 -44.662167 7.7678547 12.787499
64.905777 -43.606449 7.8861403 14
64.886078 -43.434158 7.7933264 13.400055
64.873062 -42.601097 7.879323 13.164
64.935379 -42.161682 7.7341347 14.612125
64.966499 -40.949604 7.7966766 13
64.85257 -39.84412 7.7777777 15.1455
65.044434 -38.564148 7.6820493 14.1515
64.870537 -36.227188 7.9259224 13.111
65.053391 -34.730965 7.8984056 11
64.813225 -32.429169 7.9090252 11
65.164551 -56.361012 8.2104282 13
65.182472 -55.220261 8.2349386 14
65.177116 -54.947838 8.2080412 13
65.157356 -54.598808 8.2245388 13.356209
65.170349 -54.185604 8.1812038 13.662681
65.140785 -53.778416 8.2255249 13.635441
65.121735 -53.372738 8.230772 13.585238
65.10289 -53.046288 8.1670008 13.631527
65.075523 -52.044498 8.3929873 13
65.070099 -51.791622 8.210783 12.722571
64.944626 -51.590672 8.2294455 13.5
65.049225 -50.525154 8.168478 13.378695
64.973366 -50.228203 8.1628304 13.588029
64.968582 -49.751179 8.1970472 12.846878
64.987572 -49.453869 8.2062969 12.932791
65.132614 -48.641712 8.2614269 14.820834
64.980385 -48.223572 8.1761608 12.581209
65.022491 -47.785679 8.2037764 14.383834
65.133659 -47.410629 8.3653421 15.13575
64.942955 -46.961922 8.1805849 13.094368
64.839081 -46.653057 8.2303209 13.667251
64.831108 -46.226044 8.1481972 14.057125
64.832474 -45.738937 8.3134823 13.07975
64.823227 -45.25573 8.0956516 13.108
64.945953 -44.560345 8.2576132 13.15387
64.937675 -44.19445 8.1912069 14.4785
64.965897 -43.844002 8.2564268 15.139667
64.881081 -43.354073 8.1888266 12.815045
64.924339 -43.042347 8.1689644 14.631124
64.869736 -42.520523 8.0850382 15.1485
64.857628 -42.152977 8.2307386 13.05
64.895615 -41.355705 8.2024145 12.014
64.812965 -41.01963 8.2124348 14
64.803802 -40.706348 8.1145945 15.118
64.82235 -39.437523 8.0774612 14.112
65.120941 -38.647911 8.3357143 14.1565
65.062073 -36.198471 8.2313309 13.3345
65.17952 -58.107071 8.7936687 11
65.134087 -56.891903 8.6295347 11
65.174477 -54.949009 8.5763311 13.192833
65.170761 -54.578716 8.5854292 13.678562
65.163971 -54.189686 8.6934881 13.3195
65.157257 -53.784222 8.6516895 13.554222
65.128716 -53.372677 8.6551638 13.219313
65.120522 -53.038368 8.6073008 13.3527
65.037247 -52.78231 8.4556007 13
65.021049 -52.040531 8.5736866 14
65.100014 -51.799252 8.5843639 13.011887
64.975105 -51.578964 8.5480633 13
65.04837 -50.502777 8.5287104 13.181
64.99678 -50.190933 8.5758476 13.647345
64.941017 -49.715916 8.5620708 13.327263
64.957436 -49.431187 8.5918751 13.425024
65.092499 -49.19088 8.5570955 12
64.841949 -48.422501 8.6841297 14
64.964752 -48.171551 8.6068659 13.3895
65.158211 -47.847225 8.4653797 14.61575
65.107735 -47.290607 8.4409952 15.1185
64.91761 -46.917 8.6178818 14.640555
64.840225 -46.630207 8.6125965 14.333333
64.829277 -46.28894 8.5495529 14.0655
64.826401 -45.795341 8.4873447 13
64.808113 -45.468124 8.5575199 13.6085
65.015923 -45.054848 8.4838638 9.0094995
64.965462 -44.603699 8.626215 13.576945
64.999352 -44.071507 8.4594994 15.117
65.031494 -43.682514 8.6611385 15.154
64.923042 -43.429199 8.5394955 13.26375
64.971146 -42.071259 8.556778 13.08025
64.913483 -41.038624 8.6655235 14.028749
64.865143 -39.887657 8.5695839 12.778375
65.036278 -38.570953 8.5730038 14.159833
64.922501 -36.155018 8.5146275 14
64.855942 -33.762726 8.6818228 14.65575
65.190277 -56.490814 9.0722837 15
65.171288 -56.324409 9.1585932 14
65.173912 -55.212273 9.1543341 13
65.177086 -54.970928 9.0446291 13.3
65.166306 -54.600101 9.0212288 13.590047
65.163864 -54.1744 8.9930954 13.444407
65.140411 -53.81765 8.9773827 13.633533
65.115311 -53.388664 8.9707537 13.571428
65.097488 -53.045902 8.9963675 13.536795
65.076942 -51.760082 9.0141563 13.25
64.994461 -51.547482 9.0869989 15
65.02655 -50.529682 9.0390358 13.625
65.013412 -50.252377 8.9845428 13.994692
64.928902 -49.759659 8.9842501 13.080767
65.019699 -49.445759 9.0058393 13.512317
64.961037 -48.14999 8.9967461 13.396865
64.900269 -47.972725 8.9171314 14
64.874283 -46.97945 8.9519339 14.604571
64.885735 -46.688137 8.975008 13.6915
64.823395 -46.358665 8.8341179 14.55425
64.962906 -45.662064 9.0474024 13.55875
64.931923 -44.912373 9.03232 13.255375
64.956062 -44.546898 9.0423737 14.317429
65.026588 -44.346447 9.1272783 15
64.91153 -43.498295 9.0066538 12.685666
64.903084 -43.18589 9.0878363 14
64.915588 -41.005253 9.0131721 12.776688
64.807526 -39.185471 8.8686714 13.106
65.041916 -38.579845 9.0001621 15.155001
64.977333 -36.250183 8.9689827 14.61275
64.866928 -35.454796 9.1732597 9.0039997
64.845001 -32.667377 8.9966145 15.11475
65.179039 -54.86525 9.419591 14.55575
65.154305 -54.54285 9.4138012 14.704499
65.156097 -54.213657 9.3440142 14.444214
65.130768 -53.82859 9.3916817 14.268582
65.111084 -53.419758 9.3902311 14.111227
65.092773 -52.994427 9.3734465 14.2
65.096474 -51.760109 9.4359102 13.529411
65.036026 -51.593971 9.4532166 14.333333
64.99662 -50.513641 9.296957 14.071427
64.990875 -50.252174 9.385273 13.79089
64.935982 -49.754314 9.3429232 13.655535
65.002037 -49.381554 9.4282017 13.666667
64.866508 -49.188633 9.4907494 14
64.988472 -48.169044 9.3781691 13.515874
65.101456 -47.980209 9.3932505 14
64.950897 -46.892689 9.3831301 13.469222
64.87516 -46.681915 9.4173641 14.070929
64.871849 -46.2299 9.5072937 14.6085
64.831596 -45.879204 9.2832642 14.108
64.816246 -45.247108 9.2216768 14.108
64.903481 -44.647133 9.4051647 12.6875
64.984756 -44.204964 9.4247866 15.11
64.857803 -43.374493 9.2867708 13.312215
64.907295 -43.198505 9.5847778 13
64.820335 -42.005219 9.2754774 13
64.902893 -41.92572 9.4877586 15
65.168015 -41.065041 9.4848251 15.111
65.055397 -38.673454 9.4407883 15.158
65.00769 -36.221207 9.4241962 15.057
65.180199 -56.490822 9.6715822 14
65.175278 -54.972157 9.7987366 14.389125
65.162056 -54.610004 9.8703527 13.454545
65.163589 -54.195995 9.820837 13.685
65.144547 -53.825607 9.8327999 14.239036
65.098869 -53.367393 9.7874966 13.777778
65.110596 -53.041859 9.8556242 13.819092
65.09211 -51.772545 9.7908039 13.75
65.070526 -51.540241 9.7341661 14.5
65.031235 -50.532463 9.7788124 14.656599
65.059074 -50.268341 9.721714 13.750937
64.950752 -49.787193 9.7692327 13.539269
64.996941 -49.405636 9.7772427 13.722857
65.102203 -49.114777 9.7672167 14.05575
65.019402 -48.182411 9.7365446 13.458333
64.932991 -47.971916 9.8624372 14
65.09761 -47.266323 9.9552546 15.17
64.955994 -46.863182 9.7527122 14.036334
64.88308 -46.571266 9.7545357 14.50125
64.831985 -46.31881 9.7872019 14.738667
64.858093 -45.828087 9.7725859 12.1005
64.925858 -44.460556 9.870676 13.5
65.055969 -44.392658 9.8471632 13
64.882393 -43.286644 9.7015638 13.851666
64.950478 -42.99662 9.8728476 15.1095
64.855194 -42.075958 9.8041821 13
64.98822 -40.946846 9.8641148 15
65.142166 -36.255394 9.6348877 15.113
65.035484 -35.871609 9.9750261 12
65.190697 -56.278271 10.126283 15
65.188377 -55.31118 10.296775 15.1105
65.17498 -54.911823 10.11724 14.25
65.150787 -54.55788 10.167109 13.925916
65.154564 -54.157169 10.172324 14.015501
65.145508 -53.822994 10.138876 13.777385
65.118179 -53.401615 10.150311 13.874
65.108101 -52.964058 10.206843 13.944917
65.072464 -51.73188 10.21523 13.818182
65.078789 -51.468842 10.248166 13.0035
65.065331 -50.493771 10.200994 14.518083
64.990456 -50.222858 10.142526 14.291333
64.946899 -49.823559 10.152611 13.80155
65.021873 -49.427715 10.1747 13.579786
64.943542 -48.145771 10.155002 13.515583
65.001526 -47.902805 10.061616 13.552999
64.937866 -46.650242 10.162807 14.301125
64.852562 -46.116333 10.258638 14.1395
64.987129 -45.647846 10.105669 13.6715
64.810989 -45.569176 10.121557 15.1085
65.025932 -44.88974 10.318784 14.01075
64.910828 -44.613274 10.210402 14.335334
64.88398 -43.310608 10.355143 14.5
64.910667 -43.092747 10.159584 15.08375
65.090332 -41.969818 10.354635 15.166
64.841965 -41.081734 10.17624 13
65.109642 -40.28125 10.179609 9.0039997
64.839813 -39.814365 10.205636 13
64.8228 -36.207386 10.222215 15.111
65.17318 -56.668488 10.634444 12.5
65.177536 -55.008762 10.642909 14.369667
65.15966 -54.516296 10.609855 14.2
65.15728 -54.133495 10.600833 14.01825
65.177551 -53.826477 10.520459 13.52725
65.124687 -53.407131 10.51112 14.017499
65.120216 -53.00861 10.579771 13.3125
65.065445 -52.741917 10.51228 14
65.068108 -51.802601 10.541681 13.181818
65.076492 -51.549374 10.571406 14.666667
65.011467 -50.242241 10.540589 14.259833
64.937943 -49.739536 10.671296 14.789556
64.979385 -49.339497 10.629127 14.053894
64.876953 -49.156616 10.639494 14.5
64.974701 -48.046818 10.60108 13.944445
65.084663 -47.966068 10.544839 13.666667
65.021049 -46.847931 10.607321 14
64.837456 -46.736622 10.61855 14.353583
64.850838 -46.246361 10.526213 14.0585
64.80497 -45.835014 10.401527 15.108
64.8825 -44.503372 10.627077 14.5
64.869194 -43.237656 10.581522 14.5
64.906197 -43.195793 10.661294 14
64.811546 -41.947769 10.694068 14
64.876541 -40.942551 10.509117 13.4
64.863396 -40.718746 10.489367 14
65.171692 -58.102936 11.124427 12
65.176964 -57.798569 11.04819 12
65.188026 -54.956398 11.028435 15.026875
65.166962 -54.573765 11.042479 14.729785
65.14679 -54.163364 11.030334 14.651563
65.12796 -53.818554 10.990221 14.750791
65.113396 -53.434673 11.033772 14.714286
65.112274 -52.952454 10.988379 14.556666
65.176575 -52.716003 10.819125 14
65.059959 -51.663799 10.987466 14
65.149857 -51.555618 11.02603 13.5
65.064819 -50.18951 10.990537 14.444786
64.926414 -49.853798 11.075822 14.252625
64.977615 -49.375969 11.038726 14.000667
65.043007 -49.081875 11.122437 14
64.969208 -48.06929 11.011623 14.4
64.954079 -47.908978 10.98072 14.666667
64.956245 -46.676899 10.995731 14.587428
64.816711 -46.142586 11.023194 15.1075
65.024086 -45.61097 11.188226 15.0055
64.86924 -44.59095 11.030901 13.454545
64.996407 -43.687302 11.159763 14.59725
64.875198 -43.338665 10.924292 13.777778
64.850769 -43.173328 11.014686 14
64.847977 -42.652573 11.016025 14.0165
64.838326 -42.306484 10.973242 14
65.012138 -40.243179 11.046512 14.01375
64.946846 -39.466064 10.994946 14.59075
65.186768 -58.025185 11.518496 12
65.162277 -57.837059 11.51225 12
65.171158 -56.459248 11.56654 13
65.176826 -54.867718 11.420284 14.526375
65.169769 -54.58012 11.348982 14.443857
65.156868 -54.209988 11.311801 14.345167
65.159523 -53.849339 11.413933 14.5106
65.125175 -53.435406 11.399182 14.555555
65.114105 -52.963268 11.373146 14.341299
65.092583 -52.744049 11.397159 15
65.08847 -51.642441 11.339633 13.8
65.083191 -51.510315 11.459734 14.252062
65.161934 -50.973038 11.542461 15.011
65.118347 -50.489811 11.481217 14.402899
64.99955 -50.251778 11.380014 14.8385
64.927109 -49.769814 11.38483 14.625937
64.979134 -49.361259 11.378353 14.555555
65.058167 -48.916626 11.384192 15.0125
65.02652 -48.728233 11.532559 15.013
65.000343 -48.183632 11.400408 14.252125
64.82196 -47.99073 11.595612 15
64.979103 -47.376678 11.581593 15.0135
65.047394 -46.580528 11.30205 15.0065
65.013008 -44.895958 11.536147 15.012
64.879684 -44.615948 11.31302 14.000856
64.955551 -44.371159 11.349274 13.75
64.840332 -43.261539 11.223201 15
64.967758 -42.985165 11.298575 15.1795
64.854553 -36.041965 11.479378 14.01
65.153671 -54.497208 11.829568 14
65.165054 -54.151951 11.825238 13.8
65.179893 -53.811642 11.885453 14
65.110382 -53.414536 11.832647 13.52625
65.097878 -52.950428 11.80266 14
65.083313 -52.707344 11.635529 15
65.191856 -52.3522 11.696193 15.0075
65.122932 -51.71566 11.761162 14.5
65.097618 -51.4921 11.807121 14.5
65.141136 -50.905712 11.844746 15.0085
65.131996 -50.621735 11.646243 15.00525
65.038452 -50.258862 11.746903 14.81385
64.924103 -49.698242 11.778435 14.2775
64.946381 -49.422226 11.792475 14.202637
64.971291 -49.131065 11.83016 14.666667
65.043671 -48.680073 11.805514 14.676084
64.992401 -48.1394 11.759054 13.8
64.935089 -47.93391 11.857894 14.573214
64.962143 -47.000065 11.775213 15.007
64.856056 -46.733467 11.792637 15.0035
64.807915 -45.678276 11.675167 13.55025
65.199471 -44.420856 11.627389 15.0095
64.876488 -44.21595 11.769997 15.014
65.131485 -43.803806 11.735394 15.0125
65.160706 -43.519745 11.777938 15.01
64.980476 -43.006218 11.761972 15.0065
65.106216 -42.688858 11.712689 15.007
64.938843 -35.813698 11.845454 13.50675
64.807693 -34.756672 11.683636 14.0105
65.148857 -55.059319 12.087418 14
65.038071 -54.226524 12.201365 14
65.093498 -53.849186 12.26401 15
65.10862 -53.507824 12.197455 14.701667
65.087944 -52.942661 12.224115 14.333333
65.14856 -52.647678 12.12347 14.333333
65.028641 -51.832817 12.199422 13.666667
65.152596 -51.492496 12.113135 14.402499
65.168327 -50.877132 12.264172 15.1055
64.97818 -50.149933 12.308164 15.106
65.001282 -49.371731 12.163744 13.555555
64.991806 -49.124634 12.15111 14.5
65.030487 -48.623234 12.093314 15.01
64.937637 -48.009972 12.016026 15
64.930649 -47.923378 12.184312 14.5
64.935905 -47.352226 12.236098 15.107
64.94632 -46.964092 12.156019 15.006124
64.862663 -46.658634 12.154661 15
64.801292 -44.111015 12.292617 15
64.808159 -43.956314 12.054953 15.0155
64.899361 -43.525536 12.247745 15.016
64.915314 -43.099075 12.265665 15
64.845818 -41.90889 12.387011 15
65.053085 -40.649055 12.074986 15.008
64.80957 -38.976608 12.029625 15.0015
65.03688 -56.753979 12.573895 13
65.17923 -54.946899 12.795455 15
65.15139 -54.556347 12.581229 14.753813
65.140121 -54.163616 12.617484 14.85075
65.145927 -53.771484 12.660401 14.754
65.114891 -53.477051 12.55398 15.001101
65.097267 -52.965084 12.602071 14.000667
65.151527 -52.731792 12.70549 15.004666
65.141098 -52.117901 12.606861 15
65.073662 -51.710331 12.58905 14
65.058655 -51.489178 12.611131 14.401401
64.999054 -50.457771 12.651932 15
64.948753 -50.356918 12.739069 15.106
64.898979 -49.796764 12.56202 15
64.961029 -49.236504 12.606896 15
65.046066 -49.177086 12.478708 14
64.984131 -48.669456 12.596638 15
64.902588 -47.930534 12.558611 14.5
64.910988 -47.439919 12.700181 15.1065
64.825432 -43.999779 12.545904 15
64.923462 -43.07909 12.574395 15
64.897095 -42.057907 12.761484 15.103
64.861992 -41.909882 12.678956 15
64.82196 -39.469494 12.777767 15
65.156471 -57.853916 12.973624 13
65.132492 -55.035091 12.905305 15
65.147919 -54.607281 12.853518 14.671833
65.188759 -54.211525 13.110811 15
65.143883 -53.765789 13.026456 14.75
65.131599 -53.295662 12.938487 14.666667
65.09214 -52.919525 12.902709 14.5
65.126099 -52.736588 12.966018 14.003301
65.105698 -51.452869 12.975035 14.285714
64.937225 -50.240284 12.992157 15
64.903557 -49.669147 12.934191 15.002666
64.979759 -49.402618 13.020527 14.779125
65.00386 -49.052502 12.932368 14.669499
64.924446 -48.196426 13.105139 14
65.027832 -47.939323 13.17001 15
64.922272 -44.575993 12.968013 14
64.914978 -44.351562 12.935802 15
64.842537 -35.465195 12.922732 10.004
65.170776 -56.61153 13.366814 13
65.19841 -54.816624 13.286803 15.104
65.129646 -54.164024 13.418693 14.6
65.163757 -53.786938 13.324245 14.6032
65.125717 -53.435448 13.394763 14.8025
65.135719 -52.993515 13.328119 14.8
65.12677 -52.676212 13.355087 14.571428
64.91069 -51.904732 13.455417 14
65.084625 -51.569786 13.451163 15
64.983719 -49.435181 13.402637 14
64.989265 -49.188129 13.488362 15
65.016167 -48.265659 13.50971 12.003001
64.923805 -47.935509 13.3884 15
64.83271 -46.673744 13.551482 15.1035
65.153938 -55.099903 13.651429 15
65.195778 -54.562477 13.915605 15.015
65.008537 -54.025345 13.725058 15
65.161415 -53.762703 13.970235 15.0155
65.05043 -52.907738 13.765532 14.753875
65.005875 -51.781231 13.959402 14
64.993233 -51.599808 13.806745 15
64.977058 -49.393608 13.74923 14.033
65.044777 -49.1474 13.770141 15
65.050125 -48.116108 13.813914 14
65.007874 -47.89267 13.853219 15
65.170639 -56.368816 14.298429 15
65.054924 -54.348373 14.153067 14.50775
65.126694 -53.401855 14.33904 15.016
65.10405 -52.970402 14.177306 14.338666
65.154991 -52.782223 14.138766 15
65.015274 -51.723473 14.30128 14.25
65.090889 -51.508083 14.155962 15
65.059158 -49.412285 14.141135 14.33925
65.069901 -49.128429 14.203364 15
65.02877 -47.906796 14.300589 15
64.835724 -45.888382 14.158436 15.017
64.971733 -44.525036 14.324613 15
65.018181 -35.775234 14.0053 14
65.179169 -57.87138 14.750232 14
65.085396 -56.655003 14.581355 14
65.188095 -54.43499 14.471641 15.0155
64.998024 -54.050472 14.432062 15.1045
65.197533 -53.413452 14.523723 15
65.132904 -52.952442 14.563682 14.517417
65.146683 -52.601555 14.519935 15.005501
65.142693 -51.726616 14.6513 14
65.074966 -51.412521 14.572639 15
64.804253 -49.487083 14.691776 15
65.072311 -49.107552 14.622358 15
65.051788 -44.471443 14.43716 15
65.194519 -57.87294 14.959975 14
65.181503 -57.595932 14.959117 14
65.153328 -56.549782 15.11048 14
65.06263 -54.161652 14.931828 14.098
65.105919 -53.528435 15.04604 15.016
65.091301 -52.856819 14.872983 14.5
65.085602 -52.645653 15.001135 14.666667
65.140007 -51.460819 14.860396 15
64.880585 -48.147598 14.894808 15
65.128967 -56.559502 15.456782 14
65.144661 -54.117512 15.446235 15
65.183823 -53.890785 15.509173 15.101
65.180641 -52.821491 15.228619 15
65.177986 -52.674473 15.581923 15
65.04731 -51.451202 15.24122 15
64.94986 -49.34478 15.345363 15
64.96183 -48.097729 15.344084 15
65.110397 -56.309258 15.917676 14
64.875443 -54.278629 15.978882 15
64.980782 -53.053722 15.661716 15
64.954643 -51.716995 15.869399 15
64.924629 -49.350464 15.688102 15.0495
65.026512 -48.108536 15.800048 15
64.916801 -44.748741 15.845337 11.006
65.068428 -52.970135 16.223459 15
64.999969 -51.702076 16.299051 15
65.10778 -49.302807 16.107769 15
65.042038 -44.750252 16.09112 11.006
64.915565 -35.734623 16.059225 15
65.04126 -56.584442 16.617172 15
65.09623 -52.926502 16.631248 15
65.092598 -51.646549 16.717123 15
65.109772 -56.509827 17.197006 15
65.030457 -54.132568 17.042046 15.098
65.139755 -52.709026 17.059834 15
65.174217 -51.711571 16.964882 13.00275
65.144577 -57.728188 17.535904 15
65.045998 -48.276833 17.451365 11.006
65.113327 -56.5793 17.603222 15
65.135818 -56.271645 18.130674 15
65.138405 -51.808079 18.728201 12.0065
65.039375 -48.222736 18.497007 12.0065
64.897789 -44.596237 19.291782 13.0095
65.074348 -44.510864 20.019495 13.0075
65.17141 -51.72274 21.494442 13.0075
65.108154 -51.687038 21.872498 13.0065
65.003113 -48.127148 21.639479 13.0065
64.867744 -44.500519 22.079094 14.0095
65.166306 -59.941963 23.007145 13.0105
65.03199 -44.384972 22.875689 14.0075
65.145874 -51.629971 24.474108 13.0055
65.104843 -47.95644 24.718363 14.0065
65.115341 -59.758888 26.293077 14.0105
65.097702 -59.704971 29.675787 15.0105
65.392822 -58.687054 1.9611791 6
65.45079 -59.059448 2.2512105 6
65.464066 -58.467541 2.3365431 6
65.454315 -58.386238 2.2646766 6
65.476746 -57.769493 2.3949964 7
65.480362 -56.951069 2.378489 7
65.34845 -56.384384 2.2323065 6
65.290329 -55.660835 2.1943958 6
65.26165 -53.59409 2.1811035 6
65.223122 -52.145168 2.2132976 7
65.245995 -51.475403 2.3059747 7
65.320396 -49.519676 2.2619722 7
65.318863 -48.976311 2.2465551 7
65.288483 -48.297443 2.2289219 7
65.270889 -47.786594 2.1801887 7
65.271866 -47.446182 2.2615526 7
65.535492 -59.290821 2.552978 7
65.521408 -59.165703 2.6652615 7
65.427742 -58.64949 2.679379 7
65.471268 -58.087589 2.6986873 7
65.423668 -56.963718 2.4996731 7
65.387833 -56.578239 2.4481025 7
65.390495 -55.784557 2.7451229 7
65.330391 -55.345345 2.7590475 7
65.309212 -55.057346 2.7415066 7
65.243095 -53.397343 2.6997457 7
65.530426 -52.179375 2.7840667 7
65.526688 -51.721073 2.7396281 7
65.489555 -51.47192 2.739784 7
65.45295 -50.963474 2.7217233 7
65.329552 -50.757622 2.6680973 7
65.335258 -49.390663 2.6301773 7
65.37339 -49.020538 2.5685606 7
65.299034 -48.51527 2.5855563 7
65.306549 -48.285439 2.6135085 7
65.295937 -47.809639 2.5388303 7
65.276161 -47.436092 2.5388479 7
65.209526 -44.899628 2.6458647 8.1084995
65.391197 -41.398273 2.7267959 8.1234999
65.270264 -36.507645 2.4602072 8.1154995
65.500755 -59.001034 2.9060163 7
65.466209 -58.653351 2.9089811 7.122611
65.440918 -58.211559 2.889941 7
65.414749 -57.969948 2.8958678 7
65.327782 -56.727467 2.9660385 7
65.328796 -55.415024 2.881736 7
65.374901 -53.24612 3.1758208 8
65.398148 -52.1926 3.1849668 8.0216007
65.300552 -51.926968 3.1543663 8.0386667
65.569054 -51.226467 3.1491878 8.1149998
65.397667 -51.013336 3.1272452 8
65.309464 -49.743244 3.0390325 8.055583
65.299271 -49.519676 3.043298 8
65.275658 -48.50473 3.0529737 8.0977497
65.283691 -48.34837 3.0581558 8
65.277321 -47.767387 3.1445405 8.0666246
65.549606 -59.271103 3.5631816 8.1049995
65.497398 -59.054867 3.5431874 8.0958338
65.473557 -58.596111 3.5107939 8.0688934
65.462158 -58.202545 3.5060344 8.0700502
65.489365 -57.974518 3.4714384 8
65.424278 -56.827354 3.500248 8.1182499
65.54982 -56.769978 3.4663703 8.1184998
65.339516 -55.680408 3.3321745 8
65.316589 -55.384663 3.3888464 8.0588932
65.277718 -55.044163 3.3974364 8
65.284088 -54.736984 3.3022346 8
65.292366 -54.356258 3.579195 8.1715002
65.310936 -53.668976 3.2409093 8.1070004
65.354218 -53.383152 3.2848549 8.0298758
65.487999 -53.151852 3.2306435 8.0908756
65.442001 -52.121941 3.2816498 8.0275555
65.513161 -51.839794 3.2851548 8.0991249
65.524796 -51.433193 3.2709785 8.1008749
65.448502 -51.00946 3.2842927 8.0611782
65.399315 -50.778206 3.3202803 8
65.287857 -49.472717 3.2536418 8
65.337242 -48.981785 3.2856529 8
65.311485 -48.57766 3.2613704 8.0460005
65.298622 -48.120491 3.2572911 8.0679998
65.297562 -47.716312 3.2420654 8.0460005
65.235191 -47.287773 3.2248909 8.0692501
65.487839 -58.900131 3.6108463 8.1422501
65.447624 -58.249466 3.6435459 8
65.33252 -55.67437 3.9734907 9
65.318314 -55.411339 3.9503424 9.0570002
65.298073 -55.081749 3.9706266 9
65.2761 -54.597622 3.9159708 9.0245829
65.257301 -54.167698 3.9640017 9.1387501
65.233444 -53.878685 3.9285464 9.0261002
65.229553 -53.395996 3.9453702 9.1009998
65.268112 -53.127934 3.9890146 9
65.516403 -52.578651 3.8780622 9.0687504
65.426483 -52.183815 3.9091406 9.0707502
65.459702 -51.892071 3.9101827 9.0486002
65.543243 -51.423603 3.9338343 9.0892496
65.399185 -50.941143 3.8900588 9.0228338
65.271675 -49.766968 3.9868968 9
65.304588 -49.44294 3.8732398 9.0121002
65.308693 -48.975334 3.9185498 9
65.310089 -48.565407 3.9031105 9.0543003
65.27459 -48.17585 3.8267021 9
65.253883 -47.727924 3.8262322 9.0331249
65.228699 -47.322285 3.7303891 9.0655003
65.229362 -47.195972 3.8553126 9
65.285004 -34.812836 3.995497 9
65.485458 -59.065937 4.2526822 9.0831671
65.459015 -58.585281 4.1946378 9.036643
65.439285 -58.241154 4.2369995 9.0396156
65.475983 -57.992268 4.3125916 9.1145
65.337158 -56.985767 4.0134354 9.1365004
65.538895 -56.696098 4.257163 9.0592499
65.315643 -55.382286 4.1734972 9.0480757
65.298279 -55.034531 4.1777539 9.0617971
65.280914 -54.545471 4.1302166 9.0725002
65.271767 -54.179272 4.1967082 9.0621815
65.238777 -53.774876 4.0978379 9.0319099
65.301582 -53.41766 4.1832271 9.0252781
65.414894 -53.041313 4.1137443 9.0610495
65.544235 -52.69101 4.0978327 9
65.374535 -52.135067 4.1347923 9.0117226
65.300453 -51.844841 4.2121243 9
65.544807 -51.491173 4.0271988 9.1312504
65.485229 -50.921928 4.0142417 9.0657501
65.331772 -49.712498 4.0790257 9.0354996
65.297043 -49.117584 4.3879805 10.1445
65.353119 -34.814705 4.0667195 9
65.513298 -59.231201 4.7742109 10
65.484077 -58.957645 4.6974354 9.7589998
65.465126 -58.577801 4.6896791 9.8270626
65.461311 -58.196133 4.6363096 9.6890831
65.468155 -57.954113 4.6236014 9.333333
65.44606 -56.886284 4.6071606 9.1057501
65.329391 -56.765091 4.6064491 10.129
65.476555 -55.662228 4.6163859 9.3686666
65.303078 -55.399956 4.6210442 9.8578329
65.309669 -55.001835 4.5643611 9.7172079
65.273605 -54.61652 4.5548673 9.8044996
65.266098 -54.137753 4.6018095 9.8014164
65.223747 -53.810604 4.6397047 10.03591
65.215614 -53.437607 4.6456685 10.018312
65.430923 -53.019318 4.6511979 9.9250622
65.489464 -52.59602 4.5800247 10.034375
65.477478 -52.172356 4.5827322 10.047334
65.428116 -51.823315 4.5908985 10.09575
65.41394 -51.03101 4.4896693 10.084344
65.249672 -50.796188 4.5451536 10.129
65.286964 -49.420254 4.5935173 10
65.299728 -48.937553 4.5556617 10.044917
65.280678 -48.41687 4.5131454 10.138
65.268341 -48.208092 4.4915466 10.021916
65.261063 -47.719631 4.484467 10.045501
65.254105 -47.333691 4.5028439 10.091333
65.32589 -41.00235 4.5180712 9.0834999
65.445335 -58.964523 5.1116853 9.6988754
65.424385 -58.61689 5.0463805 9.7058334
65.399315 -58.163925 5.0391445 9.7116995
65.329575 -57.888226 4.9959764 9.333333
65.471001 -56.657047 5.0254488 9.3734999
65.308655 -55.608574 5.1867962 11
65.334312 -55.340191 5.021348 9.9607344
65.27285 -55.02253 5.0211563 10.164269
65.253227 -54.577297 4.9753561 9.9510765
65.258583 -54.204411 5.089376 10.685093
65.224792 -53.75972 5.0095668 10.1371
65.313683 -53.405273 5.0663719 10.034
65.211777 -53.171486 4.9481111 9.5564995
65.529633 -52.554836 5.1051216 11
65.433128 -52.147114 5.0889354 10.35575
65.427734 -51.916008 5.0306835 10.666667
65.327324 -50.846718 5.1279173 11
65.296623 -49.706112 4.9366345 10
65.313095 -49.386528 5.0720415 10.666667
65.286125 -48.954979 5.1901927 11
65.287338 -48.59584 5.0507126 10.620501
65.210869 -47.666588 5.0587974 11
65.252762 -47.361626 5.0732608 11.0813
65.273178 -42.350437 5.136919 11.1485
65.211189 -34.553272 5.1506286 12.138
65.211296 -34.309803 5.140625 12.14
65.569229 -59.243454 5.3911881 11
65.464508 -58.922047 5.3264594 9.75
65.428757 -58.601337 5.3391166 10.090909
65.434235 -58.215778 5.3201003 10.227454
65.395462 -57.910229 5.3362951 10.182286
65.509445 -56.849312 5.5035791 10.109
65.519913 -56.630283 5.3437929 9.7080002
65.327965 -55.353127 5.3580246 10.391031
65.297951 -55.027981 5.4725294 10.673633
65.268394 -54.591923 5.415379 10.679111
65.259033 -54.194954 5.4058018 10.709116
65.234718 -53.791424 5.3951063 10.834332
65.315369 -53.322636 5.3797922 10.3905
65.375374 -53.05275 5.3679543 10.80639
65.521759 -52.542919 5.286932 11.1315
65.445511 -52.153099 5.2890053 10.64325
65.497559 -51.799286 5.3978729 11.094125
65.594368 -51.239746 5.296814 11.127
65.37532 -51.055695 5.4878864 10.00675
65.277451 -49.38187 5.4243402 10.666667
65.249374 -48.247334 5.3698993 11
65.534637 -40.940941 5.580483 12.124
65.463242 -40.610916 5.4127417 12.1375
65.469299 -40.182774 5.4826231 12.12575
65.464867 -39.826138 5.4744816 12.1255
65.469139 -39.462711 5.3973546 12.131333
65.441116 -39.147705 5.3692284 11.63825
65.428352 -38.74218 5.3414669 11.151751
65.277794 -36.187107 5.340817 12.124
65.257988 -35.758766 5.242661 12.140249
65.274681 -35.482738 5.2694006 12.1415
65.258118 -35.091244 5.247685 12.1255
65.267059 -34.791595 5.2765293 12.1425
65.45388 -59.298016 5.8941402 12.14
65.429359 -58.99165 5.800981 10.4109
65.381615 -58.582775 5.8456273 10.659409
65.391785 -58.185143 5.820097 10.922999
65.42836 -57.904793 5.7840929 10.352417
65.461594 -56.886536 5.6906843 10.052999
65.44857 -56.687511 5.8070908 10.224401
65.424149 -55.680222 5.8208532 12
65.35183 -55.442677 5.7669921 10.469046
65.241364 -55.034603 5.7960453 11.183143
65.229637 -54.612751 5.8150005 11.714917
65.236351 -54.25396 5.849329 11.6855
65.212593 -53.81945 5.7826962 11.666667
65.231491 -53.2995 5.705255 12
65.42437 -53.031975 5.8311901 11
65.458969 -52.6558 5.8054514 11.00375
65.42778 -52.161427 5.908082 11.25
65.383881 -51.896198 5.8040013 10.691917
65.426498 -51.371498 5.8508677 11.068001
65.257133 -51.158985 5.792213 10
65.257431 -50.750351 5.6943297 10
65.303963 -49.650421 5.8988771 11
65.289368 -49.318474 5.8349452 12.067625
65.27121 -48.749485 5.8337083 12.1335
65.230515 -48.185207 5.8091493 12
65.258911 -47.146984 5.6996331 12
65.269409 -44.490379 5.9419746 12.11875
65.240982 -44.100872 5.9367189 12.1185
65.210388 -43.441925 5.8766923 12.132
65.507881 -40.934185 5.7096434 12.121
65.278847 -34.755226 5.9115534 10
65.487015 -58.925945 6.2484961 10
65.389717 -58.594479 6.2292438 10.919455
65.3731 -58.214241 6.2256289 10.366055
65.332512 -57.837822 6.2729235 10.416667
65.580887 -56.937164 6.3837914 11
65.424103 -56.554993 6.3043432 10.692307
65.567047 -56.169777 6.2504473 10.752
65.587845 -55.845211 6.2940102 10.00325
65.334053 -55.330479 6.2607894 11.007206
65.256233 -55.026161 6.2740121 11.394625
65.237198 -54.563179 6.1765752 11.362778
65.233719 -54.24577 6.2411761 11.747951
65.212692 -53.869576 6.1891513 11
65.233047 -53.446777 6.1547709 10.5
65.202789 -53.112408 6.0499015 10
65.489502 -52.533623 6.2134495 12.5
65.370773 -52.03223 6.2728944 11.8543
65.410286 -51.772373 6.2999091 11.4512
65.409042 -51.322193 6.1872902 12.05825
65.398865 -49.694611 6.0191798 11
65.333321 -49.363205 6.0010624 11
65.279274 -48.851212 6.2915359 12.6465
65.227524 -48.268402 6.1178536 12.153
65.439117 -47.682564 6.0867567 12.1195
65.256744 -44.382111 6.0693669 12.117
65.379539 -34.814095 6.0203505 10
65.440689 -58.945415 6.6756959 11.458222
65.394753 -58.630466 6.6449499 11.069375
65.387299 -58.216274 6.6090822 11.426864
65.364365 -57.875706 6.5458903 10.647364
65.593201 -57.309132 6.6236854 11.006
65.462326 -56.990295 6.5625644 11.076375
65.48983 -56.635941 6.6339149 11.4014
65.51577 -56.221104 6.5259557 11.28475
65.537834 -55.74086 6.5146551 12.712625
65.413765 -55.442039 6.5392981 11.4174
65.262589 -54.929924 6.5628061 12.484715
65.249481 -54.501125 6.5822859 11.894643
65.2323 -54.154488 6.5596251 12.375
65.247337 -53.725136 6.5563402 11.666667
65.389473 -53.372887 6.4716525 10.002167
65.42881 -52.959026 6.5449319 11.75
65.431725 -52.540459 6.569438 12.8771
65.449287 -52.14249 6.5769858 13.089168
65.359535 -51.872547 6.6035724 12
65.436989 -51.017406 6.5095716 12.425167
65.283951 -50.679878 6.5717945 12.0735
65.218239 -48.246391 6.6561575 11.670501
65.312012 -40.895485 6.6598606 10.0835
65.584122 -31.178398 6.4058518 9.0550003
65.432236 -58.911575 7.0258722 12.300813
65.372475 -58.586784 7.0272255 12.010071
65.384506 -58.209347 7.049933 11.077423
65.360535 -57.830357 7.0304856 11.181818
65.584633 -56.95488 6.9843407 11.002
65.43663 -56.608727 6.9875698 11.810382
65.55542 -56.169281 6.99332 11.646626
65.549095 -55.754681 6.99224 12.355916
65.351334 -55.399963 6.9481921 12.249578
65.227333 -55.028847 7.0442762 12.558545
65.225159 -54.564384 7.0728483 13.015834
65.234032 -54.164791 7.0336967 13.75
65.228058 -53.63636 7.053823 11
65.403946 -53.050518 6.9956622 10.666667
65.329514 -52.510578 7.0096235 11.0075
65.395607 -52.155964 7.0360241 12.077375
65.326294 -51.873215 7.0788503 11.23015
65.280312 -51.408092 6.987185 11.333333
65.288887 -50.983028 6.9192266 11
65.296555 -50.641361 7.0362754 12.763333
65.276474 -49.386532 7.0466785 12.298312
65.290939 -48.807556 7.1505489 14.136
65.261978 -48.41732 7.0870805 14.131
65.306473 -48.264774 7.1149635 12.920099
65.285271 -47.933327 7.1441689 14.136
65.222717 -47.468632 7.025929 14.133249
65.22506 -47.177326 7.1379132 13.157249
65.484741 -44.492752 7.04845 10.083
65.222626 -43.278435 7.1796236 10.079
65.268814 -32.401009 7.1600084 15.131
65.294556 -32.177876 7.1626959 15.133083
65.256058 -31.953196 7.1230474 15.137
65.332466 -30.947502 7.0957456 15.129001
65.285179 -30.768057 7.1097746 15.137
65.260872 -30.133642 6.9607987 13.651751
65.476166 -59.994476 7.5728526 11
65.456497 -58.882484 7.3471084 11.888889
65.420227 -58.604851 7.3969054 12.006632
65.397972 -58.186577 7.4091496 11.692237
65.396736 -57.823967 7.4541564 11.579107
65.531006 -57.373249 7.2334666 11.333333
65.45005 -56.915665 7.2833357 11.25
65.44191 -56.609852 7.3661842 11.613
65.54155 -56.226955 7.4044185 12.407917
65.540413 -55.809914 7.402185 13.65625
65.404106 -55.330235 7.4356499 12.4243
65.258659 -55.045815 7.4077892 11.739636
65.227486 -54.595699 7.4535689 12.3448
65.234207 -54.227131 7.4169474 12.12
65.236778 -53.870377 7.4076347 11.640929
65.232498 -53.31826 7.3495569 11.6
65.349739 -53.028625 7.4149203 11.902249
65.4198 -52.562531 7.4505577 13.842
65.378784 -52.132938 7.3896642 14.091499
65.367401 -51.764526 7.3538704 12.4946
65.4002 -51.411991 7.3770566 13.7905
65.250992 -50.614986 7.4300747 12.708
65.284798 -49.608128 7.4333034 13
65.324783 -49.389851 7.4540677 12.021
65.246033 -49.054649 7.3805528 13.61825
65.385643 -48.085136 7.3437953 10.54125
65.291847 -47.769165 7.3041892 12.1075
65.235275 -47.207077 7.47016 12.177
65.418282 -46.974525 7.4675698 13.16025
65.359543 -44.734962 7.5546312 13.11
65.411736 -42.173698 7.4598742 14.1485
65.237282 -41.142323 7.4456615 13.111
65.211311 -36.342735 7.5937767 15.122
65.37075 -33.950397 7.3469691 14.646749
65.315941 -32.110302 7.3560405 15.137875
65.365273 -31.0464 7.248805 15.124
65.348007 -30.649849 7.3374867 15.143501
65.30484 -30.233963 7.3815336 14.649
65.41983 -59.993431 7.7711239 11
65.436264 -58.943062 7.7867303 12.651499
65.38623 -58.586811 7.8383684 12.93775
65.377335 -58.18203 7.794826 13.387349
65.398201 -57.845055 7.8221731 12.532384
65.598846 -57.325359 7.7918134 15
65.559929 -56.913574 7.6399288 14.1515
65.406189 -56.617947 7.8146806 12.150805
65.481949 -56.300877 7.6993699 12.746167
65.55941 -55.887775 7.7656436 13.787416
65.323601 -55.354012 7.7742991 13.451443
65.260277 -54.993389 7.7916107 13.90279
65.226257 -54.609234 7.7655149 13.964868
65.21936 -54.239296 7.7722073 13.735885
65.232262 -53.773502 7.7289023 12.052999
65.361176 -53.239864 7.8989096 13
65.353897 -52.955181 7.7691541 12.229722
65.431969 -52.653893 7.8417983 14.377167
65.277382 -52.03788 7.8396077 13.048
65.327873 -51.75803 7.7793841 12.027368
65.415535 -50.838509 7.8435163 15.134
65.263451 -50.650928 7.8321919 13.570625
65.239235 -49.373169 7.8150396 14.091636
65.52829 -48.524372 7.9017849 15.135
65.235458 -48.323223 7.902472 11.670501
65.589226 -47.747482 7.8652582 15.134125
65.536003 -47.337597 7.8436437 15.036499
65.505653 -47.092682 7.8857298 14.155001
65.358749 -44.665203 7.9143877 13.6125
65.202209 -42.255203 7.6790452 14.151
65.243195 -41.072685 7.7318311 13.557
65.256195 -34.683105 7.8353238 11
65.333412 -34.1147 7.6413531 15.14575
65.378044 -32.378849 7.6680379 15.121
65.332611 -31.090935 7.6035662 15.1215
65.431458 -58.89896 8.2058601 13.947571
65.38028 -58.573036 8.205122 13.427689
65.37748 -58.184319 8.2179108 13.136203
65.40123 -57.818352 8.1719141 12.814783
65.428673 -57.484295 8.2379808 12.5
65.38868 -56.822674 8.0991859 12
65.400818 -56.533855 8.2057371 12.720046
65.331245 -55.290157 8.240077 13.555577
65.251732 -55.066669 8.2021389 13.869909
65.219635 -54.621815 8.2399502 14.326285
65.259247 -54.145111 8.2292204 13
65.249878 -53.808395 8.3787699 12
65.241882 -53.263832 8.2062979 12.5
65.349724 -52.988186 8.1737251 12.557077
65.458557 -52.497597 8.2116365 12.504
65.355301 -52.145317 8.1154385 12.004749
65.316643 -51.790981 8.1562824 13.235633
65.281525 -51.383965 8.0497942 12
65.244934 -50.920769 8.0798101 13.575
65.384949 -50.615364 8.2150412 13.576125
65.250565 -49.481312 8.2499475 11.7625
65.204544 -48.746544 8.0117035 12.013
65.277802 -48.258762 8.226696 11.333333
65.56208 -47.237244 8.0271635 15.14575
65.282707 -47.10767 8.1215944 13.17175
65.361893 -44.501099 8.0532351 15.122
65.200348 -42.034836 8.2881355 13.166
65.228539 -41.130386 8.384778 15.1165
65.23584 -36.262779 8.2554026 15.1165
65.444481 -59.935802 8.6972189 12
65.425995 -58.911366 8.6608315 12.939499
65.401596 -58.60062 8.6309652 13.190529
65.38224 -58.156788 8.6293602 13.104779
65.410667 -57.79649 8.5973158 12.781586
65.421906 -57.52206 8.6402044 12.53
65.449837 -56.873894 8.674118 13.060249
65.413994 -56.570374 8.578228 13.614906
65.401711 -56.328419 8.6942606 12.7895
65.376884 -55.283192 8.6379814 13.019563
65.246292 -55.021709 8.6593485 13.382466
65.222984 -54.643291 8.6680765 13.418875
65.207268 -54.271023 8.6212502 13.724751
65.23085 -53.893272 8.7037611 12.368167
65.252861 -53.223614 8.5651722 12.333333
65.320312 -53.01001 8.6501732 12.834094
65.407166 -52.711941 8.653245 14.113
65.380905 -52.17326 8.5395784 14.8895
65.345581 -51.795315 8.5568705 12.024961
65.314384 -51.138096 8.4914026 15.119
65.414116 -50.580002 8.6428347 13.830875
65.319031 -50.379417 8.6007376 14
65.246849 -49.398029 8.6089878 13.556
65.209702 -48.991726 8.4983921 14.61575
65.32235 -48.072033 8.4797134 14.1615
65.358208 -44.725258 8.5732975 14.11
65.233749 -42.199921 8.6406279 15.15225
65.22377 -41.116577 8.523963 14.6125
65.467262 -59.939529 8.9937696 13
65.372147 -58.818024 8.951829 14.05425
65.419418 -58.595375 8.9974089 12.639522
65.389038 -58.205288 9.0018892 12.053821
65.386902 -57.806141 8.9976597 12.71675
65.416969 -57.507244 8.9582329 11.730429
65.370316 -56.571808 9.0319786 13.047563
65.366226 -56.329464 9.1403904 12.666667
65.540993 -55.904572 8.9048529 13.108
65.369034 -55.277195 9.0096922 13.671409
65.327042 -55.082794 9.0217991 13.574599
65.212761 -54.576492 8.9713449 13.276599
65.208519 -54.283684 8.9312077 13.60925
