# .PCD v0.7 - Point Cloud Data file format
VERSION 0.7
FIELDS x y z intensity
SIZE 4 4 4 4
TYPE F F F F
COUNT 1 1 1 1
WIDTH 424
HEIGHT 1
VIEWPOINT 0 0 0 1 0 0 0
POINTS 424
DATA ascii
60.220665 -104.30007 9.165287 10.1455
60.156693 -92.603935 9.0876789 11.096251
60.333519 -105.97035 9.2077179 9.1569996
60.311604 -105.55955 9.4347286 10.1465
60.29818 -104.28523 9.5005817 10.158
60.185345 -106.6955 10.011543 10.158
60.061726 -106.29459 10.074337 10.159
60.026051 -105.76378 10.13604 10.16
60.118004 -105.01582 10.313802 10.157166
60.244865 -104.18349 10.255651 10.162667
60.34185 -92.056 10.224142 12.16
60.117947 -107.09567 10.582246 10.1465
60.141434 -105.14804 10.609074 10.64575
60.225391 -104.39095 10.663627 11.1415
60.317425 -106.34709 10.952723 10.1625
60.383808 -105.72215 11.116922 10.154
60.386253 -104.9398 10.88348 10.1485
60.004566 -106.02159 12.079489 11.1615
60.492764 -110.38484 6.6696754 8.1604996
60.72813 -104.2077 8.397831 9.1479998
60.675842 -103.5853 8.6933184 9.1634998
60.60807 -92.559174 8.5797377 10.167
60.518547 -105.21522 9.1260929 9.1599998
60.454311 -103.27455 8.8508587 9.1639996
60.679928 -103.13499 8.9293604 9.1610003
60.726963 -102.71326 8.8742151 9.1639996
60.500122 -106.60712 9.4410009 9.6499996
60.470329 -105.35388 9.4364042 10.15
60.403576 -103.6773 9.2751999 10.157
60.685265 -92.346886 9.5529833 10.1665
60.648224 -105.65582 9.6870337 10.1575
60.70742 -105.06181 9.8540211 10.159
60.610638 -102.97357 9.6017256 10.16
60.425919 -103.95978 10.296953 10.148
60.668739 -102.73682 10.351489 11.1465
60.513706 -92.883629 10.163334 12.155
60.56736 -104.66148 10.630525 11.1455
60.6917 -103.77604 10.508275 11.146
60.606255 -103.5764 10.650219 11.141
60.775501 -107.80119 11.019473 10.153749
60.700024 -106.86562 10.899647 10.1455
60.461842 -105.45029 11.082339 10.151
60.663265 -104.76141 10.837242 11.1405
60.767216 -107.14626 11.317281 10.1535
60.771557 -92.755272 11.528035 13.1575
60.752213 -102.8941 11.840635 12.1425
60.791786 -107.58365 12.2851 11.16
60.557323 -105.84285 12.329796 12.139999
60.636703 -107.77124 12.997643 11.1535
60.721958 -107.50064 14.106315 13.139
61.0658 -91.607628 7.2805166 10.1005
61.067413 -103.23944 8.4735546 9.1619997
60.986801 -92.40657 8.7414303 10.168
61.186665 -106.9307 9.1725206 9.1625004
61.04126 -104.60581 8.9334707 9.1634998
60.886795 -103.79945 9.1075068 9.6502504
61.173359 -107.53754 9.4426432 9.1534996
61.071911 -103.01116 9.4067574 10.159
61.060715 -107.50351 9.7715616 10.1555
61.032612 -103.69038 9.9030933 10.160999
60.802269 -90.250862 9.7414675 12.0985
61.094284 -103.6994 10.21688 10.15825
61.19582 -102.70655 10.341918 10.159
61.099304 -102.18742 10.243405 10.648001
60.859795 -92.285751 10.059708 11.168
61.01226 -104.07034 10.616826 11.1485
61.056786 -103.3225 10.547133 10.8145
61.039379 -93.037277 10.443637 11.499166
60.816757 -107.84715 11.030354 10.162
60.977097 -104.20863 10.846297 10.149
60.886768 -107.18932 11.275783 10.1565
61.152569 -103.23143 11.857817 12.1465
61.18478 -92.521515 11.619842 13.16
60.88068 -106.10028 12.338608 12.145
61.068741 -104.16679 12.013208 12.146
60.811775 -106.10835 12.503365 12.14
60.917034 -91.636307 12.637962 14.1605
60.980297 -109.39913 13.007621 12.1385
60.887852 -108.87195 12.922176 12.138
60.90699 -107.89248 13.061076 11.162
61.001225 -109.17498 13.259486 11.1615
61.129871 -104.14907 13.457866 13.14
60.805672 -103.98108 13.447606 13.142
61.497723 -91.694168 6.9970961 10.106501
61.479557 -102.72338 8.7070007 9.1645002
61.431744 -101.65836 8.6330175 9.165
61.34565 -101.54126 8.522027 9.165
61.490726 -101.72946 9.0552578 10.1545
61.534252 -101.57117 8.8212461 9.1619997
61.463749 -107.94897 9.4589901 9.1564999
61.309116 -107.39746 9.3348131 9.1622505
61.373032 -104.29214 9.5769978 10.1585
61.220196 -103.10577 9.2211428 10.1515
61.595043 -101.88293 9.5516453 10.161
61.208641 -110.08832 9.9639292 10.146
61.325863 -107.72842 9.7510281 10.1515
61.575325 -106.92679 9.7364674 10.156
61.303497 -104.58699 9.8421803 10.1595
61.594234 -108.85631 10.135003 10.1565
61.548992 -101.94066 10.100983 10.153
61.515968 -92.513184 10.363706 11.1685
61.399796 -102.97049 10.589554 11.147249
61.34156 -102.45099 10.472069 11.151751
61.564182 -101.74231 10.45536 11.1545
61.344776 -92.899132 10.678497 12.0965
61.361671 -108.76445 11.558764 10.153
61.215023 -107.10962 11.33668 10.1505
61.396484 -91.964188 11.569504 13.1605
61.515175 -102.71023 11.853714 12.145
61.387497 -103.50869 12.295068 12.1575
61.507156 -105.9736 12.457393 12.1405
61.477047 -103.56383 12.44788 11.1475
61.2841 -91.697556 12.641122 14.1585
61.395256 -103.44957 13.453859 13.142
61.379505 -107.19978 14.114333 13.1395
61.879082 -91.646988 6.3209295 9.099
61.779476 -91.503235 6.4761353 9.0979996
61.656864 -91.156242 7.7109194 9.1709995
61.878498 -90.433601 7.6358972 9.1540003
61.690834 -101.20589 8.3616486 9.1634998
61.606869 -106.1539 8.4683952 9.1534996
61.853226 -101.12767 8.7158442 9.1654997
61.784447 -102.27341 8.8631897 9.1634998
61.822723 -101.38032 8.9307919 9.7733335
61.858829 -106.7515 9.3093643 9.1615
61.876965 -102.76453 9.4366875 10.1595
61.733673 -101.73658 10.360681 10.721667
61.783562 -102.65479 10.61273 11.152
61.768101 -106.58797 11.181704 10.1615
61.979145 -105.63605 11.176123 10.1575
61.90826 -101.23546 11.510898 11.1635
61.659798 -91.883377 11.486784 12.1685
61.77124 -101.64716 11.713482 12
61.713654 -101.59332 11.847485 12.1525
61.940231 -101.12986 11.814722 11.165
61.726772 -105.17104 12.361134 12.142
61.855766 -102.4465 12.225792 11.149
61.654091 -106.06379 12.59178 12.1405
61.725067 -107.69731 13.22802 11.162
61.891941 -103.78995 13.482904 13.1465
61.678158 -107.37117 14.230508 13.139
62.168915 -100.93285 6.7225442 8.0284996
62.32616 -90.913849 7.4897909 9.1549997
62.374378 -91.479851 7.7394853 9.1534996
62.059742 -107.46954 8.2304888 9.1520004
62.034733 -102.43143 8.3430786 9.1625004
62.096317 -101.14433 8.5899382 9.159833
62.173744 -106.34669 9.0315847 9.1630001
62.152649 -101.35223 9.1083565 10.0795
62.225796 -106.55983 9.5936689 10.148
62.027252 -103.69663 9.9137669 10.161
62.198406 -100.56453 9.8850431 10.164
62.174572 -100.39195 10.091426 10.1655
62.342621 -91.39769 10.303109 11.17
62.03064 -102.20712 10.682725 11.1585
62.266174 -101.46059 10.486069 11.155
62.07605 -91.673134 10.407108 13.106
62.181572 -104.49358 10.942073 11.1415
62.271263 -92.204788 10.940884 12.166
62.29393 -90.754608 11.056946 12.168
62.199463 -102.29541 11.874866 12.15
62.108147 -101.78954 11.778369 12
62.083908 -101.2403 11.766445 12.15275
62.14695 -101.09863 11.818984 12
62.300171 -102.18468 12.188275 11.153
62.187199 -90.353996 12.10519 12.098
62.052303 -103.37135 13.497823 13.143
62.083355 -102.99128 13.348975 13.147
62.227608 -105.26982 15.422591 14.1485
62.654984 -90.33979 7.5748496 9.1545
62.472149 -102.71 7.8350182 9.1584997
62.400333 -90.107292 7.8897462 9.1625004
62.584805 -101.30834 9.1121855 10
62.552822 -110.20265 9.4350052 9.1615
62.444046 -101.33409 9.3166037 10.1605
62.447964 -100.42651 9.2157431 10.161
62.778671 -100.09107 9.9020405 10.1655
62.677364 -100.3764 10.155372 10.166
62.607407 -102.3692 10.512984 10.161
62.475624 -101.39744 10.50376 11
62.476532 -103.99177 10.938712 10.1495
62.627865 -90.460815 11.231439 11.6685
62.596245 -101.02672 11.788287 12.0755
62.652042 -103.73067 12.230597 12.14575
62.762623 -102.70741 13.389065 13.1475
62.688026 -103.61172 15.351501 14.154
62.943893 -91.277863 6.2917056 8.1619997
63.005146 -109.95095 6.8775601 8.1470003
63.163837 -91.640846 7.9983072 9.1674995
62.885201 -91.373215 7.9142594 9.1707497
63.140858 -100.89161 8.7222595 9.1660004
62.859127 -91.354248 8.5078506 11.102
63.009697 -100.98957 8.8155575 9.165
63.023464 -91.764717 8.9642735 10.17
62.951202 -91.565277 8.9974899 10.1705
63.014385 -92.291794 9.5085659 10.667749
62.989071 -91.640854 9.2465286 10.171
62.899517 -107.18443 9.8551559 10.1565
62.823051 -100.09943 9.7079582 10.164
62.858192 -92.198563 9.6666584 10.17
63.145309 -91.236992 9.716135 10.165
62.902157 -100.19318 10.378458 11.156
62.808475 -99.837509 10.07969 10.166
62.994335 -100.23367 10.514122 11.16
62.906799 -93.373962 10.631443 13.1125
63.178661 -92.93705 10.72403 12.1585
63.012917 -92.963341 10.926836 12.1645
62.906124 -101.13224 11.562815 11.1645
62.831215 -109.16811 11.633049 10.159
63.118305 -101.15359 11.63684 11.164
63.113415 -102.17015 13.410242 13.1505
63.259789 -91.461517 7.8958936 9.1654997
63.305088 -90.817169 7.9349756 9.1680002
63.259338 -100.79656 8.6480675 9.1660004
63.482883 -100.17316 8.7493973 9.165
63.204258 -101.04328 8.8791599 9.1599998
63.425556 -100.65162 8.9554443 9.6595001
63.589645 -90.680405 9.1640425 10.1715
63.510715 -110.17342 9.5638123 9.1619997
63.284359 -100.40031 9.5189619 10.1625
63.51255 -107.64266 9.9226761 10.1505
63.395451 -92.220047 9.70823 10.169
63.585133 -101.69664 10.651011 11.1555
63.470501 -92.727585 10.549788 11.169
63.307377 -101.96096 10.969944 11.1605
63.343166 -101.32015 11.159023 11.162
63.259354 -90.482529 11.171913 12.1685
63.569954 -101.63383 12.101415 12.1555
63.749393 -91.552498 8.0560217 9.165
63.686161 -91.076988 8.0337744 9.1590004
63.644051 -100.79661 9.1801767 10.16
63.629112 -100.42469 9.3056307 10.1615
63.701099 -91.170418 9.445878 10.155
63.900951 -90.310455 9.3491287 10.172
63.666325 -92.398651 9.637784 10.1535
63.696274 -91.144279 9.8120852 10.162
63.716503 -101.67771 10.724957 11.1565
63.862751 -100.65446 10.990408 11.162001
63.840332 -91.50576 10.817494 11.171
63.914986 -119.76068 12.021844 10.1555
63.861996 -118.7962 12.019999 10.1565
63.648682 -101.51894 12.082839 12.1535
64.027252 -103.8363 9.1555672 9.1645002
64.060669 -101.97545 9.301671 10.1535
64.077171 -93.210236 9.9576588 11.166
64.271812 -91.003059 11.084376 11.1715
64.0196 -90.103264 10.934836 11.172
64.207993 -102.51411 11.412458 11.096
64.096054 -91.24472 11.327977 11.098
64.211441 -102.07148 12.417794 12.1595
64.778381 -93.900574 10.54279 11.1675
64.577965 -91.459541 11.045702 11.0985
64.526588 -101.73169 11.449253 11.13
64.416153 -90.54821 11.552673 12.0995
64.533875 -90.31945 11.350084 12.169
64.461433 -101.83753 11.74132 12.1
64.589607 -101.54829 12.219784 12.156
64.850616 -110.05786 6.1257191 8.0974998
64.856972 -93.716858 9.5862141 10.17
64.890022 -93.283058 9.7359219 10.1705
65.261871 -103.63497 7.5634971 9.0965004
65.324471 -93.435417 9.3937597 10.17
65.419785 -91.923416 9.3612261 10.0985
65.285889 -93.471169 9.6348724 10.1705
65.535614 -91.593773 10.800234 11.171
65.285194 -90.490234 11.172724 11.172
65.20826 -103.92957 11.231011 11.159
65.355049 -103.01507 11.552377 11.0965
65.27063 -103.07844 11.740632 12.1015
65.419472 -90.215141 12.463835 14.103
65.869164 -102.67151 7.1985307 8.1660004
65.956337 -102.43501 8.3411522 9.1625004
65.975578 -90.756264 9.4344606 12.1095
65.75602 -107.82915 9.6692381 9.1514997
65.84269 -90.591743 9.8787003 10.0965
65.653374 -92.33799 10.094318 10.0985
65.665382 -90.64817 10.062675 11.1005
65.654167 -92.213997 10.735292 12.1005
65.930168 -91.352821 10.52769 11.0995
66.152298 -110.04211 7.0581598 8.158
66.175293 -91.199425 7.263804 10.106
66.025749 -91.300484 9.9802361 10.1655
66.275742 -90.425751 10.176459 12.1025
66.027893 -92.122818 10.492962 11.169
66.634491 -90.768135 7.1755133 10.11
66.545761 -90.28051 7.1458869 10.1205
66.726189 -90.36338 7.7747626 9.1549997
66.425751 -101.78793 8.3082514 9.1630001
66.683853 -91.685905 9.9093084 10.17075
66.539604 -90.620995 9.631444 12.1065
67.059822 -110.15665 6.9069529 8.1470003
67.171051 -90.554245 7.2401395 10.107
66.913315 -101.50257 8.4050694 9.1639996
67.130363 -91.372345 9.4317827 10.099
66.864517 -91.072083 9.5669947 12.11
66.948784 -90.004112 9.6033831 10.1595
67.026436 -103.4497 11.727637 12.1055
66.908974 -103.22222 12.946227 12.16
67.375603 -90.482567 9.0420179 10.1
67.245766 -90.613808 9.5261106 12.1105
67.781006 -110.0453 6.730041 8.1619997
67.743332 -90.224358 7.1114855 10.1255
67.767662 -90.88958 7.2774901 10.115
67.716125 -103.06686 8.5875492 9.1634998
67.680428 -90.217018 9.6650019 11.1025
67.668159 -104.41374 11.748055 11.161
67.850159 -104.6197 14.508046 13.149
68.124336 -103.97123 7.5025077 9.1005001
68.103584 -105.65615 14.85487 13.145
68.703712 -109.72625 6.9891467 8.1540003
68.555298 -103.61094 9.8542013 10.1605
68.571907 -103.58947 10.423287 10.1635
69.184135 -109.76495 6.3911705 8.0979996
69.03804 -91.026451 8.3395586 9.1630001
68.862053 -103.71111 13.277588 12.1605
69.388504 -106.89018 7.8501825 9.0994997
69.35778 -90.527802 9.5468273 10.0975
69.306465 -103.34127 12.600007 11.16525
69.501999 -103.55714 13.903368 12.163
69.532272 -104.85455 14.104561 12.1625
69.202988 -105.22752 14.874121 12.165
69.894653 -103.86838 9.0660372 9.165
69.799477 -104.116 10.453044 10.163
69.806786 -103.89007 10.707213 10.1645
69.858292 -103.90892 10.97906 10.166
69.998238 -103.00457 11.489266 10.1635
69.911919 -103.30882 14.109471 12.164
70.198784 -103.22854 8.8984461 9.1660004
70.086227 -103.08338 8.83815 9.165
70.279022 -104.18184 13.776073 12.162
70.550934 -109.92375 6.7541137 8.1625004
70.711121 -92.088348 10.001155 12.114
70.61528 -104.11028 10.933516 10.099
70.56089 -103.36324 10.810976 10.166
70.68853 -103.02522 10.873592 10.1665
70.449249 -102.34716 12.937116 11.167
70.600967 -101.9161 12.947463 11.1675
70.975479 -101.43864 5.1232891 7
70.885925 -102.244 6.4253082 8.0179996
71.192825 -101.34196 9.1651268 9.1680002
70.906746 -102.66531 10.115606 10.163
71.490135 -109.84786 5.8338652 8.1079998
71.293587 -90.376038 11.098742 11.102
71.352707 -101.1915 11.497352 10.1555
72.763977 -110.06002 7.8839259 9.1105003
72.699295 -109.94021 7.9523215 9.1025
72.593025 -90.608109 8.7717505 11.114
72.727745 -104.45364 9.6795549 9.1665001
73.051384 -90.694595 7.6397209 10.121
72.838371 -104.23145 9.6262236 9.1654997
73.223633 -106.25839 9.2350254 10.105
73.233177 -98.285126 10.263772 10.1675
73.229462 -98.371635 10.629992 10.1685
73.398308 -99.316559 12.543041 11.1685
73.741524 -109.90316 7.9759693 9.1029997
73.960739 -100.09587 9.0689745 9.1689997
73.799248 -104.17607 9.5621662 9.1520004
73.797249 -104.43965 9.7537985 9.1610003
73.883865 -103.90115 10.743711 11.106
74.337166 -91.576904 7.6943111 10.1145
74.822021 -109.42113 7.9965129 9.1140003
75.135864 -99.043373 8.585391 10.1155
75.003342 -99.50518 9.0738564 9.1695004
74.967384 -90.408966 13.759094 13.105
75.40004 -100.19328 7.03195 9.1079998
75.204796 -109.8502 7.7881103 9.1049995
75.288704 -99.355774 8.5415163 10.1115
75.237991 -92.331245 9.1624794 11.1165
75.398598 -91.701141 9.1485672 11.115
75.543907 -92.190445 9.2650681 11.119
75.484703 -107.03522 9.8770123 9.1665001
75.65374 -109.94054 7.7452989 9.1099997
75.770973 -90.482635 10.411514 12.12
76.156059 -99.873177 7.0304213 9.1084995
76.388031 -91.619949 9.1838007 11
76.042625 -90.750481 9.1378775 11.12
76.214516 -91.779594 9.2321444 11.05975
76.484215 -99.470848 7.1089492 9.1254997
76.451096 -99.35482 7.2302613 9.1184998
76.659233 -91.354317 9.3069305 11.1225
76.553375 -92.850838 10.840036 12.115
77.141121 -92.408051 6.6054797 9.1295004
76.885849 -92.281364 6.5054202 9
76.948387 -92.316391 7.9087329 10
77.097862 -100.39493 8.7494574 10.112
77.119858 -90.820663 9.2516851 11.1205
77.268356 -91.942711 6.6951718 9.1225004
77.38517 -109.75681 7.8381753 9.1059999
77.575798 -107.30779 9.7197075 9.1665001
77.773903 -109.46604 7.1068463 8.1610003
78.240738 -101.88767 7.265378 9.1120005
78.061195 -91.371834 9.2181396 11.1345
78.483398 -100.86256 7.1962323 9.1125002
78.627151 -91.762032 7.9772687 10.1185
78.696663 -99.419411 9.2672434 9.1704998
79.053886 -104.35612 7.4807148 9.1114998
78.858215 -100.06044 7.373497 9.1225004
78.878784 -109.77917 7.8425322 9.1114998
78.990967 -109.18066 8.1228857 9.1160002
79.060135 -91.382912 8.1137171 10.127
79.158951 -100.31365 10.551806 11.113
79.336205 -100.58161 7.2050691 9.1129999
79.348511 -90.748169 8.0759783 10.1275
79.230362 -100.31165 9.4812517 9.1700001
79.626144 -104.43424 5.7695589 8.0994997
79.648163 -109.67414 7.8948951 9.1070004
79.697044 -99.253189 9.5293331 9.1704998
79.706604 -99.910225 9.6033936 9.1684999
79.994606 -99.494415 10.459226 11.1155
79.761055 -90.983978 11.501127 12.111
80.354141 -90.445786 7.9866905 10.12
80.370422 -100.47311 8.9457436 10.1135
80.36274 -99.926506 8.8565826 10.1155
80.042908 -98.819138 9.5254593 9.1689997
80.871452 -90.311905 8.1194611 10.1225
80.937912 -99.815407 11.642624 10.1705
81.78936 -108.55286 5.4627223 7
82.501259 -98.588348 7.1787171 9.1169996
82.750725 -97.905609 7.2466822 9.1289997
82.91407 -97.8461 7.389173 9.1219997
85.598846 -103.62117 7.6578608 9.1145
85.758293 -98.886459 9.914443 9.1709995
86.691658 -97.648224 9.834775 9.1684999
87.914307 -109.22086 8.3594141 9.1090002
