# .PCD v0.7 - Point Cloud Data file format
VERSION 0.7
FIELDS x y z intensity
SIZE 4 4 4 4
TYPE F F F F
COUNT 1 1 1 1
WIDTH 1253
HEIGHT 1
VIEWPOINT 0 0 0 1 0 0 0
POINTS 1253
DATA ascii
72.194611 61.654087 6.499548 12.557751
72.280739 62.246986 6.5297818 12.581751
72.157944 62.444492 6.675396 13
72.175919 64.351135 6.5733452 11.0275
72.315872 65.503784 6.6004448 12.527
72.311005 65.718742 6.5592937 13.028
72.071274 66.393433 6.784152 13.0275
72.104858 66.623642 6.5660291 13.534
72.130768 66.839226 6.6906748 14.039
72.26651 61.553139 7.1286712 13.066
72.250389 61.696091 7.0131931 13.547
72.269043 62.345329 7.120965 14.035
72.088036 62.573181 7.1332722 13.046
72.238907 62.942093 7.188427 12.1305
72.261536 65.549431 6.9462519 13.027
72.024788 66.027252 6.8862109 14.033
72.140587 61.519577 7.2049356 14
72.304451 61.87072 7.2990589 14.0455
72.213127 62.319206 7.3237596 14
72.247658 62.548672 7.3125186 14.042333
72.231712 62.892857 7.2759705 13.082251
72.303268 65.729546 7.5554557 10.179
72.347382 65.110741 7.922935 10.1785
72.268562 65.270981 7.8859534 10.1785
72.113976 64.764175 8.3779421 10.178
72.066994 64.99366 8.3713217 10.178
72.079956 65.630836 8.1314659 10.178
72.162498 64.778038 8.4203424 10.178
72.154671 64.98716 8.5744343 10.6785
72.022972 64.56263 9.0812759 11.1785
72.201172 65.400871 9.1243525 11.179
72.036118 63.941883 9.4284277 11.178
72.069527 65.497589 9.2429438 11.179
72.729134 66.545067 -1.3400544 8.1082497
72.467728 61.890686 -1.0813497 8
72.524345 63.283546 -0.94917512 8.1005001
72.707169 61.46508 -0.75276625 8.1210003
72.738129 61.640144 -0.41872823 8.1300001
72.708824 62.22554 -0.52989244 8
72.50946 63.826317 -0.44178247 8.1274996
72.730354 66.588219 -0.57036471 8.0780001
72.689323 67.406044 -0.49033225 8.0754995
72.767227 63.486336 -0.25210819 8.0629997
72.613602 63.857208 -0.22548781 8.0665007
72.519188 64.133484 -0.2826345 8.0634995
72.660194 65.918488 -0.31539416 8.0825996
72.60434 66.650818 -0.20436694 8.0571251
72.778358 66.97612 -0.30537084 8.0684996
72.729324 61.818897 0.23441288 8.036334
72.43544 62.319145 0.36768511 8.033
72.714371 62.445557 0.23631141 8.0354996
72.515991 63.91011 0.047712218 8.0334997
72.422256 63.893959 0.66658592 8.0229998
72.490677 65.378639 0.58232868 8.0264997
72.660271 65.848892 0.69657528 8.0209999
72.59037 66.203796 0.66083568 8.0168333
72.58857 66.770966 0.64937651 8.0270004
72.497704 61.765884 1.1835051 9
72.687447 62.205875 1.1768854 9.0845003
72.743675 63.058235 0.95700336 9.1190004
72.504417 63.459244 0.82673192 8
72.577652 63.805214 0.84924603 8.0107498
72.578201 64.205894 1.1647928 9.0375004
72.76638 64.915955 1.1112351 9.0160007
72.612228 65.365456 1.0238136 8.6855001
72.676971 65.928078 1.054126 8.7028341
72.53759 66.123924 1.0607885 9.0319996
72.686234 66.934151 1.0422583 8.7436666
72.61116 67.504326 1.053964 9.0555
72.478943 61.697891 1.2698951 9
72.728218 62.272068 1.2821219 9.0837498
72.464256 62.558563 1.5017776 9.1379995
72.724594 63.868576 1.3383149 9.1245003
72.451859 64.199989 1.2091695 9.0380001
72.550728 65.793564 1.2583362 9.0292501
72.765816 67.531075 1.2504747 9
72.791115 67.659882 1.2416413 9
72.566742 63.800961 1.6364429 8.0415001
72.61512 65.367241 1.991158 9.0264997
72.680962 67.155853 1.8520638 9
72.783463 61.560081 2.3094876 10
72.452011 62.768448 2.2845397 10.04
72.666283 63.302189 2.2206788 9.0439997
72.679428 63.840378 2.1654639 9.0249996
72.599998 65.060402 2.3671732 10.0635
72.593491 66.233521 2.2224472 9.5162506
72.676865 61.158348 2.5072851 10.0295
72.435135 62.581264 2.4677985 10.01475
72.713043 63.027782 2.7239113 9.0220003
72.431427 63.281372 2.4389145 10.036
72.698639 63.632454 2.6990964 10.028
72.494873 64.068687 2.5116982 9.0229998
72.479431 64.698029 2.5754294 10.039801
72.629112 64.897995 2.6495597 10.066
72.54258 68.095139 2.7769299 9.0170002
72.493942 61.427643 2.9249406 10.0925
72.459373 61.777985 2.9724932 10.0885
72.690643 63.121105 2.9253755 10.077
72.492462 64.450012 3.0065968 10.0265
72.488838 67.392845 3.1937664 9.0105
72.561043 67.848877 3.1637056 10.02825
72.619278 61.539276 3.5013793 11
72.608574 61.646652 3.532213 11
72.599403 62.273159 3.5764222 11
72.696587 65.044334 3.3678825 11.025001
72.767555 65.223282 3.4581811 11
72.488113 67.700241 3.421654 11.033751
72.524078 68.16156 3.4022596 11.036
72.453644 60.300579 3.6944075 11.048
72.488472 64.094254 3.8475296 8.1780005
72.406868 64.578499 3.7772348 10
72.431107 64.870766 3.6730812 11.0295
72.767982 65.935982 3.9022825 8.1789999
72.610611 66.166016 3.9443483 8.1540003
72.458214 66.782265 3.8903868 11.0285
72.599434 67.844086 3.6240258 10.5
72.545341 68.129433 3.7275381 11.014999
72.469719 62.885689 4.0429106 11.065
72.446144 66.564766 4.2817593 10.002611
72.483833 67.028053 4.2500405 10.170462
72.733055 67.380539 4.3519912 12.0435
72.731842 68.298637 4.105063 10.0245
72.471436 60.76516 4.5334463 11.084
72.470062 60.847019 4.6624222 11.699333
72.613792 61.416283 4.6500945 11.54
72.792999 62.526028 4.6682358 12.0375
72.631073 65.947525 4.7042384 12.0356
72.748978 66.172485 4.6255164 12.035501
72.478195 66.527321 4.6054974 12.035832
72.715393 67.146172 4.5952907 11.5
72.751022 67.33551 4.6081886 11
72.700691 68.657257 4.5891018 12.0325
72.62278 65.323235 5.044982 11.360833
72.726181 66.066498 4.9795876 12.029751
72.419266 66.577515 4.9144354 12.03
72.683281 66.968063 5.0971112 10.342167
72.670319 68.6297 5.0535936 9.0404997
72.639717 60.302979 5.3673711 12.063749
72.599854 60.404297 5.3412218 12.0635
72.597298 63.058937 5.3925004 11.1425
72.796799 65.318932 5.2086115 11.025
72.447968 65.998184 5.4290218 11.071
72.694824 66.014374 5.3879604 11.0665
72.723213 67.08284 5.2779412 10.54375
72.674408 67.527847 5.5294728 11
72.75811 60.277409 5.8127146 12.0665
72.739952 60.413509 5.8829012 11.023
72.55024 61.751759 5.9371743 12.869918
72.457794 63.194664 5.9545302 12.068
72.520218 64.273415 5.6464262 13.039
72.730507 64.519287 5.8662534 12.529249
72.670708 65.069298 5.7827973 13.0375
72.759697 66.515862 5.7596912 9.1794996
72.703552 67.057137 5.8084369 12.53225
72.689697 67.654594 5.7800555 13.0335
72.753525 60.068207 6.0198522 11.066
72.716087 61.087852 6.2023702 12.0785
72.620239 61.813709 6.161942 13.036583
72.781357 62.163532 6.0889316 12.069
72.696068 62.500885 6.3171515 12.0825
72.429726 64.264549 6.0623689 12.069
72.594154 65.578392 6.2726283 11.0235
72.629372 66.111221 6.3304639 9.1785002
72.694176 67.006943 6.2717161 9.4922504
72.560616 67.222229 6.2815876 9.1789999
72.535439 61.723595 6.4529757 12.1035
72.539429 62.095676 6.5241361 12.741
72.540833 62.848389 6.4267406 13.063
72.523552 63.396889 6.6542506 13.064
72.705276 63.816189 6.6070676 13.028
72.455002 65.455139 6.4968967 12.026
72.457672 65.602875 6.643755 12.025
72.737755 66.302193 6.4351487 9.1785002
72.766556 66.42778 6.4557061 9.1785002
72.44239 67.158463 6.4610448 9.1789999
72.573196 60.997391 6.9855032 13.382333
72.403511 61.792061 7.1982918 14.0585
72.414955 62.058235 6.8050289 13.0645
72.43985 62.911018 7.0525432 13.06575
72.518135 65.957001 7.1177926 10.1795
72.526909 62.653893 7.3418336 12.147
72.579643 64.006302 7.3542166 12.1275
72.685745 65.470284 7.4895635 10.179
72.444405 65.631042 7.5127611 10.179
72.462219 65.41906 8.4272261 10.178
73.189728 65.556877 -0.96048623 8.0974998
72.871407 66.193634 -0.99223101 7.5469999
72.869911 66.735062 -1.0321127 8.0979996
72.920731 62.082237 -0.5201301 8
72.91378 63.350208 -0.54974014 8.0863333
73.01226 66.752914 -0.44029859 8.0635004
73.196571 61.480747 -0.12382063 8.0670004
73.122383 63.143452 -0.19544053 8.066
73.016174 63.308582 -0.22135243 8.0648127
72.808296 63.619987 -0.17622611 8.0670004
73.190392 65.095253 -0.028454334 8.0434999
72.860168 65.377808 -0.12401167 8.1464996
72.922478 65.801987 -0.23526207 8.0626669
73.059517 66.187469 -0.0746658 8.0445004
72.829002 66.478569 -0.31711382 8.0725002
73.055473 67.041649 -0.30520356 8.0664997
72.949303 67.319794 -0.36493996 8.0679998
72.891342 61.145893 0.30469292 8.0298338
72.87944 61.238785 0.24570218 8.0342503
72.922722 61.664749 0.045030821 8.1099997
73.080437 62.358353 0.20111491 8.0365
73.086662 63.934135 0.28835455 8.0345001
73.16687 65.68383 0.022988439 8.0404997
72.875931 61.852638 0.72595853 9.1070004
72.835281 62.068298 0.42999184 8.0340004
72.947289 66.214127 0.75939983 8.0225
72.844887 66.796852 0.62471431 8.0279999
72.811134 61.755253 1.1952296 9
72.955002 62.011051 0.80377531 9.1035004
72.804123 63.709747 0.87261927 8.026
72.94239 66.221603 1.0868715 9.0391006
73.024216 66.66291 1.0646915 9.0438337
72.979446 66.933495 1.1016922 9.0393753
72.959175 67.492271 1.0258501 9.0377502
72.967094 67.653481 1.1060112 9.04
73.150543 68.399139 1.1014853 9
73.099495 68.678574 1.0386384 9.0419998
73.038017 62.249973 1.322863 9.0685835
72.982277 65.715698 1.4063873 9.0318747
73.014305 66.381012 1.2494863 9.0295
72.930527 66.972221 1.2994224 9.0351248
72.910233 67.540237 1.2048911 9
72.938744 67.799355 1.2132794 9.0299997
72.927727 68.130287 1.3824053 9.073
72.804359 65.305954 1.9259255 9.0235004
72.853905 67.238632 1.8517727 9
72.964798 64.859665 2.2629066 10.016251
73.045006 65.821442 2.1348858 9.0225
73.112831 67.428734 2.3439529 10.037
73.170692 67.972794 2.1617882 10.042999
73.150856 68.020912 2.3320789 10.039
73.186058 62.406788 2.4931576 10.0365
73.106712 66.158157 2.4424 9.0240002
73.107452 67.450325 2.5054936 9.3486662
72.998093 68.162308 2.9822638 9.0129995
73.148224 65.476334 3.4598858 11.03725
73.115852 66.667542 3.4473708 10.01325
73.063316 67.005623 3.3377421 10.666667
73.074783 67.317108 3.365427 11.0304
73.024178 67.757034 3.4751806 10.51325
73.006691 68.05471 3.3719504 10.894857
72.988297 64.526794 3.8934395 8.1785002
73.137558 64.815018 3.879842 8.1785002
73.070168 65.266609 3.6926763 11.035832
72.812004 65.906311 3.8958633 8
73.115387 66.34935 3.9821875 8.1785002
73.132088 68.396805 3.7946746 11
73.177299 65.871681 4.0858393 8.1785002
72.905785 66.126228 4.1042027 8.4523335
72.963089 67.462158 4.3362389 11.517125
72.930847 68.312347 4.1372948 10.018375
73.064148 69.159698 4.3615828 12.0435
73.06662 61.23893 4.6896248 11.096
72.92189 64.98877 4.6721454 12.0375
73.00164 65.50827 4.6125803 12.0385
73.033028 65.777 4.4843392 12.0415
73.067245 66.625641 4.7382665 11.333333
72.945572 66.910034 4.6450419 11.844833
73.006683 67.44619 4.6172266 12.035215
73.114502 67.626099 4.6126666 11.02825
72.954269 68.716545 4.577878 12.028376
73.004196 68.859451 4.5879211 11.535
72.884636 69.261826 4.5003257 12.04
72.873299 65.443703 4.8426685 11.782249
72.914642 66.743286 4.9270658 11.027
72.95488 67.058296 5.0744467 10.513
73.043488 67.361313 4.9709854 11.013875
73.083328 67.681229 4.9734678 12
73.120903 68.788147 5.0577068 12.03
72.836845 60.496803 5.4827714 12.064
73.083115 61.213455 5.3164153 12.02875
72.933929 66.138428 5.3303118 11.546749
72.816757 66.968781 5.291954 11.0685
73.125282 67.567566 5.5612011 11
72.959984 60.700447 5.9520674 12.540751
73.087074 61.113945 5.9039488 12.06675
73.106979 61.834053 5.9286003 12.06675
72.932579 62.356674 5.7604132 12.026
72.914108 62.967369 5.824852 12.0665
72.824013 66.358894 5.7643814 9.1794996
72.82225 66.545998 5.7480059 9.1794996
72.898964 66.927284 5.7926202 12.512917
73.039566 67.458038 5.6969361 12.0535
73.183723 68.008553 5.935595 11.0245
73.029015 60.723701 6.053153 13.0585
72.972458 60.936787 6.1736279 12.846899
72.96907 61.328796 6.2115111 12.392667
72.850456 61.880348 6.3538547 13.0335
72.809845 62.149292 6.297709 13.0615
73.11657 62.740635 6.0113997 13.058
72.922981 62.839947 6.1459098 13.06
72.92527 64.807472 6.0519753 13.036
73.175217 66.428558 6.2042494 12
73.137329 67.597466 6.2942748 13
73.183258 67.839981 6.1769929 12.01225
72.849747 61.56057 6.7059302 13.0635
72.989525 61.811127 6.5255971 13.0625
72.87812 62.088188 6.7740421 12.1185
73.121292 65.198212 6.6798606 13.064
73.109474 66.651566 6.5061188 12.52825
72.951302 62.253822 6.8725438 13.027
73.183556 62.45163 6.9831643 12.121
72.938454 63.13958 6.982811 14.038
73.183327 63.259632 7.1245794 14.037
73.131691 62.706699 7.5449991 13.0255
72.980797 62.940895 7.2854061 12.127
73.026695 63.228252 7.4058442 14.031
73.137917 64.244377 7.3638315 14.0355
73.059196 64.562851 7.4765267 11.719699
72.897324 65.444695 7.5449219 10.179
73.126945 66.0196 7.2315617 10.1795
73.188103 63.345169 7.8738618 14.0285
72.951385 64.71151 7.6041532 10.1785
73.120605 65.004906 7.7311897 10.0905
73.139236 67.65477 7.6852002 10
73.129021 61.667931 8.3391085 12.06
73.046486 62.565567 8.1171007 12.5585
73.080025 62.157394 8.4176216 15.036
73.140038 65.784851 8.5211391 10.1785
73.130501 65.851913 8.8703947 11.1795
73.308037 65.003365 -1.0686584 7
73.447617 61.017696 -0.48037475 8.1107502
73.343246 62.33934 -0.52553952 8
73.53447 63.232018 -0.49570602 8.0804996
73.244064 65.138161 -0.7535094 8.0935001
73.358704 65.802124 -0.6336416 8.0855007
73.485435 66.104271 -0.69878596 8.0854998
73.488594 67.821396 -0.40750244 8.0655003
73.490326 61.199451 -0.068204649 8.0655003
73.401276 61.37957 -0.13158084 8.0647001
73.356323 61.740738 -0.065071404 8.0664997
73.244652 63.085915 -0.22318415 8.0629997
73.409859 63.765587 -0.31546146 8.1082497
73.382378 65.038116 -0.25075984 8.0690002
73.386238 65.436096 -0.25550175 8.0656252
73.33535 65.67131 -0.28010103 8.0655003
73.417931 66.783569 -0.36786038 8.0649996
73.518799 67.743378 -0.33961847 8.0682507
73.288773 61.183754 0.18326524 8.0314999
73.319916 61.372627 0.12303187 8.0282497
73.432434 61.728714 0.12786131 8.0302496
73.359573 62.204018 0.21333188 8.0384998
73.337593 63.990875 0.099934734 8.0389996
73.285767 63.687119 0.95616204 8.0249996
73.539703 68.214455 1.1324542 9
73.323914 68.592957 1.1299437 9.0415001
73.562225 61.813042 1.37941 9.0725002
73.434624 62.20116 1.3720473 9.066
73.462646 63.347229 1.4508549 9.0710001
73.45797 66.193085 1.3569456 9.0335836
73.584373 65.915268 1.9712069 9.0419998
73.552895 66.259766 1.9633286 9
73.310951 67.145256 1.8737693 9
73.263344 67.411766 1.9317443 9.0284996
73.564819 60.97879 2.2874985 10.055
73.585449 66.085442 2.2769377 10.0335
73.484894 67.358383 2.3137376 9.3133564
73.383911 67.824142 2.2776606 9.8784275
73.461754 68.158844 2.2612951 10.018499
73.54216 68.545204 2.3335581 10.0395
73.340271 60.07552 2.4766364 10.061
73.561264 61.313393 2.6006742 10.0625
73.319008 62.681587 2.7549381 9.0225
73.234184 65.829666 2.4764402 10.0645
73.280434 66.148331 2.4358327 9.0240002
73.303932 67.716537 2.5453963 10.014999
73.56237 68.280876 2.4588025 9.3590002
73.223007 65.682877 3.0008266 9
73.484253 67.994186 3.1722291 9.0109997
73.43145 68.127518 3.029669 9.5225
73.583588 65.765228 3.4438417 11.0405
73.239281 66.677872 3.5178657 11.007999
73.241745 66.878403 3.37025 10.518
73.435692 67.382103 3.3036942 11
73.448875 67.995636 3.4106705 10.028
73.43161 68.203293 3.412271 10.526834
73.538536 68.558289 3.3367441 11.0355
73.28614 63.802521 3.9141731 8.1780005
73.314758 64.687065 3.949677 8.8911247
73.331306 64.887505 3.9188221 8.1708336
73.402565 65.411583 3.91062 8.1491671
73.29393 65.670303 3.7247334 8.0249996
73.325417 68.388573 3.6432848 11
73.309555 68.511757 3.7985029 11.03
73.547501 65.503563 4.0036831 8.1789999
73.236008 65.956039 4.0867233 8.1785326
73.407333 66.39534 4.0155458 8.1794996
73.284576 66.686691 4.3012338 10.0235
73.323952 68.382828 4.1253066 10
73.465332 68.692749 4.366653 12.0465
73.43866 67.584877 4.7482295 12.0375
73.351212 68.653893 4.4974174 12.039249
73.357506 69.022537 4.58038 11.04825
73.248543 65.088959 4.9358287 11.0265
73.281578 65.45742 4.8348708 12.032
73.447929 68.081131 5.1260638 10.0165
73.550262 68.771385 4.8393626 12.032
73.364639 69.036339 5.0178981 12
73.515877 69.248505 4.9865127 12.031
73.530716 67.309967 5.4380469 10.013
73.499062 67.762733 5.2735367 11.068251
73.440567 68.123322 5.5010052 10.011
73.207817 61.405846 5.7691841 12.0655
73.545525 65.615311 5.8690987 9
73.348923 66.310913 5.8742623 11.024
73.397171 66.448181 5.7377028 11.526
73.458229 67.097679 5.9023085 13.038166
73.322083 67.91684 5.6718078 11.0245
73.347588 61.73978 6.3629022 13.061
73.486382 64.092049 6.2769632 13.0345
73.475555 64.539505 6.0586882 13.034
73.43119 65.900856 6.3431373 9.3460579
73.426926 66.055321 6.2633147 12.0275
73.294449 66.655472 6.2169633 10.4811
73.212799 66.8396 6.1366944 12.01375
73.538193 67.52253 6.0639729 12.0285
73.25618 67.641617 6.2030578 13.031
73.573578 63.952259 6.567174 11.023
73.591064 66.38533 6.526999 12.027
73.351372 61.905266 7.0905843 12.1235
73.347054 62.813831 6.9478545 11.075
73.287788 63.535896 7.1556039 13.0265
73.360611 64.291847 7.0391974 14.0385
73.426468 64.412735 7.1917872 14.037
73.466156 62.004757 7.2395697 12.1265
73.430969 62.590271 7.3855338 13.078834
73.407883 62.944557 7.2916656 12.13
73.482697 63.412464 7.4838848 13.698001
73.587318 63.677589 7.4782472 14.0315
73.311646 64.674347 7.4416947 12.382215
73.370163 64.844467 7.3488326 13.06625
73.512444 67.749954 7.4403796 10.161
73.322739 61.822639 7.9121203 13.073
73.557335 62.66188 7.8578534 11.0815
73.501106 63.093525 7.7333755 12.8551
73.563301 63.606232 7.6400795 14.0305
73.358055 64.016632 7.7467303 12.0675
73.408928 64.541183 7.6102023 10.1785
73.536034 65.801163 7.8523164 10.0895
73.416519 66.139282 7.8629694 10.0005
73.50589 67.411972 7.6823397 10
73.365997 67.654655 7.7749062 10
73.518166 61.369484 8.1070232 12.065
73.44265 61.920631 8.0108433 12.0635
73.28788 62.360119 8.1040182 11.016
73.386879 62.556767 8.3471823 14.03125
73.457504 66.016037 8.0764446 10
73.374023 62.257645 8.6868191 13.033375
73.384956 62.637978 8.5036411 12.56325
73.438072 65.816666 8.5940504 10.178499
73.543465 62.963684 10.062266 11.1775
73.777878 60.79895 -0.45107943 8.0834999
73.902237 61.41888 -0.74625677 8.1204996
73.786362 60.740894 -0.25947934 8.085125
73.786797 60.989361 -0.097279683 8.0622778
73.919113 60.948002 0.11697817 8.1090002
73.751892 65.099136 0.077671409 8.0394993
73.89724 66.102791 0.037615452 8.0419998
73.772903 63.318531 1.0503669 9.0965004
73.609612 65.961578 0.92915863 8.0275002
73.793007 68.396332 1.0627311 9.0439997
73.843971 68.627106 1.1026126 9.0365
73.725266 69.044655 1.1022917 9.0401659
73.650284 61.784279 1.3545289 9.066
73.622253 64.360161 1.2454529 9.0340004
73.811668 65.721313 1.2144961 9.0395002
73.909058 68.563393 1.3692714 9
73.875938 68.853882 1.2684662 9.0302505
73.792877 65.932404 2.347456 9.0275002
73.772408 66.246933 2.0741067 9
73.839813 66.9851 2.2140312 9.3626671
73.723061 67.386093 2.2211814 10.0259
73.781235 67.729439 2.3585958 9.3546667
73.905693 68.543442 2.3624318 10.032
73.771675 60.460117 2.6705122 10.034
73.645378 65.79921 2.4108412 9.0240002
73.930603 67.32753 2.4871416 10.03075
73.863464 67.917465 2.4865243 10.0152
73.726753 68.136917 2.4927599 10
73.7948 68.577637 2.4878945 10
73.867218 68.003677 2.814275 9.0174999
73.799683 66.018501 3.4340444 10
73.696091 67.109299 3.4870725 11.0395
73.622459 67.942169 3.3829596 11.035
73.698486 68.314613 3.5092292 11.0325
73.708229 68.505539 3.4847112 11.0365
73.620972 65.089142 3.9370883 8.1785002
73.637329 65.245468 3.9324734 8.0012493
73.682365 65.704094 3.966862 8.1786661
73.696945 67.104286 3.9593902 8
73.640274 67.866127 3.658783 11
73.768974 68.539772 3.7503715 10.768375
73.7509 65.128464 4.0541906 8.1785002
73.605881 65.483322 4.0046287 8.1789999
73.758507 67.360474 4.0514765 8.0716
73.64254 68.378677 4.0386996 11.0295
73.65136 68.475632 4.1330185 10.0125
73.685394 67.098816 4.6001053 12.0405
73.970825 67.710579 4.6663227 12.04
73.736656 68.825294 4.5409813 11.0145
73.604729 69.274483 4.750978 11.0295
73.999939 67.079758 5.1729574 11.027
73.890366 67.351654 4.9597144 11.531
73.698074 69.106262 5.0014091 11.772501
73.659882 66.771164 5.597949 9
73.807274 67.661301 5.5063438 12.029
73.803741 60.784214 5.8087187 12.065
73.892776 62.321712 5.7118688 12.0645
73.75309 67.095016 5.9305048 13.03875
73.965508 67.809235 5.7645383 11.03475
73.687347 68.132095 5.7197652 13.040999
73.676666 65.521736 6.034174 13.033
73.791519 65.635498 6.368926 11.024
73.790207 67.125923 6.2391038 11.225649
73.89019 67.545677 6.0434151 12.6346
73.639374 67.790482 6.0871744 13.032
73.681297 61.629158 6.5533171 12.103
73.89402 62.384731 6.6397324 12.088
73.891548 62.714054 6.7118778 12.0995
73.750694 65.799217 6.4473567 11.023999
73.874878 66.354874 6.7578282 12.0265
73.830582 66.767265 6.4129539 13.0305
73.744934 67.061302 6.4666181 12.02775
73.926346 61.536583 7.0017028 13.0635
73.921104 62.431583 7.0657139 13.064
73.748955 62.865845 7.1226859 12.0255
73.822121 62.536854 7.3156052 13.549999
73.686806 62.999092 7.2931299 13.53125
73.727699 63.807266 7.319067 14.035832
73.637474 67.363327 7.5069523 10.157
73.74678 67.934784 7.4316392 10.0235
73.738007 62.21928 7.7058558 13.067666
73.739349 62.636452 7.8458328 14.040666
73.644852 62.985634 7.6193419 11.815249
73.804703 65.487419 7.6534042 10.179
73.691467 67.136368 7.6512785 10.0585
73.629013 67.432137 7.7068205 10
73.762627 62.02195 8.0365028 12.571501
73.637543 62.436588 8.1087914 13.554
73.644218 66.601936 8.3359814 10.1785
73.651154 61.829147 8.4821854 13.04875
73.769997 62.25573 8.6699448 14.56075
73.945587 65.973587 8.6148911 10.1785
73.752403 61.895473 9.0240183 13.024
73.691406 62.308273 8.9058113 13.526501
73.673378 62.522308 8.9374619 13.026751
73.90406 65.903473 9.0467863 11.1795
73.864212 63.034737 9.8679628 11.119334
73.772469 63.095573 10.081186 11.1775
73.887657 61.160809 10.681806 11.0775
73.680168 63.246983 10.637362 12.178
74.352676 60.289478 -1.2890962 7
74.085365 63.591213 -0.83259839 8.0965004
74.064232 65.121429 -0.91799366 8.0970001
74.026123 60.335506 -0.51013613 8.0915003
74.0784 60.678623 -0.67024255 8.0955
74.040161 60.806812 -0.4118866 8.0874996
74.075737 63.645489 -0.54282427 8.0885
74.092339 64.037216 -0.60372323 8.1239996
74.265541 65.425995 -0.46225327 8.1304998
74.220467 60.208904 -0.066394821 8.0626879
74.106583 60.529179 -0.079008572 8.0604
74.182945 60.832821 -0.044803299 8.0634995
74.324638 63.732079 -0.23679145 8.0620003
74.114861 65.036003 -0.35112411 8.0620003
74.297737 68.57666 -0.088402629 8.0310001
74.093155 60.260487 0.19709854 8.0297499
74.061905 60.648563 0.15316123 8.0279999
74.160912 61.401779 0.24568804 8.0310001
74.067528 64.19603 0.20158769 8.0387497
74.193329 62.406689 0.40648735 8.0334997
74.229813 67.345337 1.1997156 9
74.337021 67.769264 1.1871033 9
74.386002 68.04847 1.0889398 9.0437498
74.206726 68.529564 1.0729315 9.0385008
74.214439 68.969322 1.1088512 9.0338335
74.398003 62.576702 1.3391068 9.0640001
74.234596 67.267365 1.4093848 9.0292501
74.235756 67.742325 1.248312 9.0089998
74.144188 67.291183 1.9737039 9.0459995
74.125122 65.301704 2.3677757 10.033
74.069366 67.134033 2.2437532 10.044
74.381699 64.009583 2.6277616 10.033
74.144814 64.565475 2.4588161 10.0385
74.101166 66.802795 2.5161977 10.037
74.192177 68.457771 2.5676718 10
74.001961 68.740082 2.9580131 9.0135002
74.229645 67.02993 3.5119007 11.0405
74.266273 68.121124 3.5641425 10.029
74.190819 68.632126 3.5465393 11.038876
74.116241 69.033607 3.5010502 11.039333
74.078438 69.247498 3.489074 11.040166
74.158157 66.790909 3.977407 8
74.300018 67.4841 3.9957798 8
74.018776 67.860229 3.6110744 10
74.224403 68.065933 3.6087291 10
74.282852 68.623497 3.8309746 10.675
74.311897 69.463593 3.9987257 11
74.220764 67.075989 4.1735845 8.2761316
74.135963 67.268349 4.1017523 8.1789999
74.326317 67.809769 4.0723047 8.1789999
74.393745 68.499069 4.1123519 11
74.129837 67.80777 4.6694889 12.039
74.209503 67.47187 5.0506282 11.7805
74.123329 67.815086 4.9828072 11.52975
74.349144 68.062195 4.8629198 12.038
74.330948 67.13459 5.4797449 11.072
74.011009 67.579384 5.3259473 12.0295
74.236053 67.606438 5.2763925 12.03
74.234207 68.427307 5.3400788 10.0135
74.015175 60.819206 5.962615 12.0655
74.05558 65.812241 5.8607173 13.0405
74.35582 66.164139 5.725955 9
74.184395 66.74453 5.9395194 9
74.261597 67.052963 5.7902622 9.0114994
74.146515 67.393867 5.8726487 11.020249
74.114288 67.820145 5.7680998 12.057
74.004921 68.116859 5.971735 13.039
74.323204 68.575142 5.914371 13.0375
74.141212 60.629246 6.2151785 13.0575
74.234657 67.076309 6.225883 12.530251
74.104004 67.469574 6.2362876 10.101749
74.245735 67.89817 6.1428962 11.294636
74.216843 68.127441 6.1033659 11.918835
74.116844 61.369923 6.6464725 12.09725
74.284317 61.832645 6.4114556 12.0795
74.253807 62.398067 6.7013936 12.092
74.214134 62.786205 6.7155957 12.096
74.271088 65.045914 6.5399957 11.024
74.056381 67.044876 6.5207844 13.03
74.321274 67.624176 6.4618421 12.028
74.394356 68.269699 6.4220171 9.1794996
74.317619 60.009308 7.0053992 13.0275
74.145271 61.773811 6.9712648 13.063167
74.16082 64.742477 7.1924973 11.0755
74.32402 65.206894 6.9681478 12.0255
74.263092 61.439014 7.4214725 13.560875
74.077087 62.306744 7.4586563 13.0655
74.247169 61.477558 7.8007617 13.565374
74.137383 61.656055 7.821897 12.31925
74.170509 62.212914 7.7451735 13.729
74.063652 62.536419 7.6456838 14.0325
74.240532 66.300972 7.7276487 10.1795
74.347092 66.445145 7.7628131 10.1795
74.216225 61.37466 8.196002 14.062
74.218842 61.863411 8.2218113 12.403834
74.041061 62.551601 8.2442322 11.0155
74.170219 63.017605 8.3307638 13.5735
74.34774 61.941219 8.4181852 14.063
74.099205 62.596603 8.5709934 14.050799
74.206985 62.854435 8.42344 13.0255
74.291428 66.166603 8.6995363 10.1785
74.115402 62.150524 9.089756 12.023
74.070534 62.568996 8.9529657 15.0325
74.018929 66.14064 9.240221 11
74.291458 66.991806 9.3496389 11.023
74.305321 63.851242 9.9612226 11.178
74.156654 64.055832 9.9118776 11.09075
74.433441 60.089909 -1.5738331 7
74.532196 60.087646 -0.82342947 7
74.470848 61.825069 -0.97319424 7
74.521324 65.252045 -1.0404432 8.1190004
74.5933 63.982555 -0.42729387 8.0764999
74.643112 68.446274 -0.41864029 8.0644999
74.79525 60.789997 -0.3654094 8.0790005
74.795128 63.711494 -0.18574794 8.0655003
74.727249 62.55402 0.74692404 9.1064997
74.423973 66.748245 0.65927082 8.0284996
74.541832 67.379913 0.67162645 8.0262508
74.712654 67.992462 0.56946129 8
74.603752 68.181587 0.54888898 8.0295
74.419769 68.531204 0.65825075 8.0240002
74.657639 62.64613 1.1994736 9.1204996
74.454353 63.606869 1.001021 9.1184998
74.569626 67.839775 1.1282666 9.031786
74.544868 68.111053 1.1762112 9.0404997
74.723625 68.881798 1.0022646 9.0360003
74.592705 69.384903 1.1444576 9.0387001
74.47142 62.596085 1.3093061 9.0635004
74.608681 67.113983 1.2605147 9.0305004
74.539154 69.055046 1.2178943 9.0389996
74.651215 69.453423 1.4179114 9.0083332
74.732681 69.290283 1.7146964 9.0255003
74.737946 66.332306 2.2848253 10.0445
74.554237 67.302933 2.4459906 9.02425
74.471115 68.396759 2.7648139 10
74.45578 62.976742 3.0133529 10.0665
74.499451 68.329872 3.3398752 10.019166
74.560898 68.596535 3.3965578 10.526083
74.664101 62.687424 3.73068 11.038999
74.578476 66.310135 3.9757965 8
74.491905 67.751183 3.91417 9.0003328
74.527412 68.778725 3.7334194 11.0315
74.771843 66.316689 4.2128563 8.1785002
74.760529 66.454811 4.127398 8.1789999
74.743462 66.979111 4.2191663 8.1789999
74.568222 67.451935 4.0850921 8.0643749
74.720734 67.744545 4.0436068 8
74.50309 68.671188 4.1055012 11
74.490601 67.684631 4.7621222 11.028749
74.541252 68.69519 4.6469707 11
74.549194 67.003426 5.1956606 10.0175
74.454681 67.75312 5.1297741 11.0135
74.445946 68.617554 5.1057162 10.017
74.680321 68.939003 4.927176 10.5235
74.572556 68.22197 5.3744388 11.7
74.571823 68.49305 5.5154924 12
74.602325 61.065948 5.7386985 12.0635
74.582146 65.874252 5.6400604 10.126801
74.506195 66.586075 5.7431283 12.0285
74.492264 66.920685 5.7590294 9.1604996
74.513565 67.868889 5.7020736 11.034
74.403259 68.102951 5.7747946 11.027
74.577347 61.780235 6.213295 12.0675
74.448013 67.864471 6.2700691 12.530251
74.641693 61.867012 6.6617231 12.7365
74.508095 62.02248 6.505362 12.0835
74.425415 65.903252 6.5954742 9.1785002
74.584091 66.00235 6.7507424 13.0295
74.714363 67.51033 6.6988864 9.1789999
74.574936 67.719467 6.6123352 11.3015
74.456078 68.089745 6.4823408 9.1795006
74.616516 60.05286 6.8937149 13.03125
74.649567 60.63839 6.8154554 13.0615
74.413528 65.300247 7.0649705 11.0755
74.703888 61.015171 7.2854095 13.064
74.624557 61.302101 7.4292307 13.394834
74.496704 62.118008 7.5344949 14.057
74.696465 65.925842 7.2093368 14.0405
74.704399 66.094971 7.5440364 10
74.586624 66.671928 7.3925266 10
74.627846 67.521126 7.4190626 10.0005
74.438965 60.980244 7.6151037 13.066
74.461601 62.232456 7.6492658 14.058
74.636795 62.536449 7.9016175 14.042
74.601662 64.974052 7.9855123 11.413001
74.561172 66.213211 7.69171 10.1795
74.630791 66.639641 7.8919606 10.119666
74.438759 61.901127 8.0960321 12.569
74.542236 62.096043 8.2043219 13.5725
74.562401 63.441738 8.1447592 14.029
74.506203 63.181763 8.4875774 11.0125
74.533852 66.142532 8.6548281 10.1785
74.573257 66.435242 8.7021856 10.1785
74.482643 66.84066 8.7048264 10.179
74.439987 66.610588 9.0967779 11
74.791313 64.499016 9.7198906 11.1785
75.096382 60.587345 -0.90474552 7
74.884232 61.179546 -0.93734449 7
75.077202 61.387337 -1.0241776 7.5545001
74.860458 61.691769 -0.83506382 8.099
74.922234 62.795235 -1.1254154 8.1029997
74.913895 60.826698 -0.43469208 8.0830002
75.104767 60.722401 -0.38906038 8.0869999
74.961075 60.846935 -0.19004939 8.0719995
74.851204 61.653698 -0.32225108 8.0754995
74.865173 62.691662 -0.3821913 8.1370001
75.035355 63.214535 -0.36500508 8.1415005
74.85994 63.688869 -0.19743775 8.0600004
75.155937 64.585205 -0.23514764 8.0682507
74.813683 64.38765 0.18933964 8.0375004
74.80323 64.403374 0.14965515 8.0384998
74.967339 66.713654 0.77156937 8.0235004
75.132721 63.706928 1.1971605 9.0625
74.960266 66.829056 0.89476204 8.0284996
75.172127 69.422333 1.0973601 9.033
75.094284 60.152798 1.228038 9.0574999
74.818031 67.800232 1.3079722 9.0389996
74.864967 69.159691 1.21696 9.0310001
75.018799 69.831848 1.7556851 9.0289993
75.064949 68.457397 2.2888062 10.045
74.954018 69.071793 2.0933325 9.0524998
75.152275 69.267853 2.3510242 9.533
75.040756 69.707817 2.2079136 9.0305004
74.983948 70.074951 2.1851256 9.026
75.189674 64.251694 2.469372 10.0415
75.011108 64.767586 2.6805482 9.0235004
74.864449 66.578217 2.4550791 10.033751
74.957611 67.768776 2.5513902 10.010167
75.06414 68.322311 2.477181 9.0240002
75.105598 68.486282 2.6133511 10.03075
75.055443 69.056076 2.5018089 9.8278999
75.050194 64.92852 3.136132 10.0735
74.943008 68.749313 3.5811591 11.034
74.85891 68.900009 3.338089 10.02925
74.975395 65.607086 3.9853747 8.1789999
75.03727 67.462524 3.8243124 8.026
74.82209 68.312119 3.7573109 11.032
75.030403 69.070938 3.7408359 10.047
75.090622 66.275131 4.0600028 8.1196661
75.108902 66.663177 4.05726 8.1369438
74.850853 67.180992 4.2464113 8.1789999
74.841049 67.43409 4.3282905 8.1789999
75.083595 67.903534 4.1385136 8.1196671
75.137474 68.150742 4.2038684 8.1285
74.921127 66.586998 5.5730319 12.029
75.033112 68.715553 5.5538478 12
75.181152 68.965797 5.5444131 12
74.812202 66.725113 5.9727464 9.1794996
75.137596 67.548302 5.6478429 10.0115
75.088638 67.814514 5.6678391 12.0295
74.892838 68.130394 5.7623119 11.025
74.886024 65.988663 6.0850415 11.0265
75.014282 67.276222 6.0764484 9.0598335
75.001747 68.361374 6.1165509 12.032749
74.888969 61.280838 6.7149649 13.061
74.946373 66.223213 6.7365074 9.1785002
74.861443 67.385002 6.6928005 9.1789999
74.850693 67.638824 6.7790833 9.1789999
74.949287 68.112503 6.790544 13.03
75.113243 60.449917 6.9999971 13.032
74.908569 65.826965 7.0298753 12.52725
75.181915 66.465164 6.919517 12.0265
74.975357 60.055912 7.8144364 13.067
75.197777 61.337036 7.8291297 14.058
75.045311 63.40601 7.9409471 14.0325
75.124886 63.946373 7.9536514 12.068
74.882042 64.353645 7.900918 11.017
74.998436 64.554695 7.78374 14.0585
75.018471 64.958267 7.8673568 14.04575
74.99073 61.358929 8.2176428 13.572001
74.860619 62.049213 8.2372513 11.0165
75.063728 62.71735 8.2080173 12.0705
74.877785 63.901901 8.2734432 12.045
74.982841 64.679642 8.0630598 14.03
75.124115 65.265205 8.366684 14.029
74.993622 66.561264 8.0076218 10
74.981064 67.099495 8.1333504 10.08975
74.922462 67.465744 8.0116348 10
75.195778 62.638187 8.7908306 14.0635
75.071198 62.262932 8.8338823 14.027
75.060104 64.591667 9.7758694 11.1785
75.390656 61.449276 -1.3654268 7
75.5159 60.593571 -0.86975384 7
75.330818 63.739681 -0.93722892 8.0994997
75.586357 64.070099 -1.0743024 7
75.393372 60.254906 -0.050742954 8.0574999
75.433441 62.581905 -0.18430096 8.0594997
75.426193 63.185978 -0.14307563 8.0585003
75.446152 63.403625 -0.18184909 8.0628328
75.206207 63.813881 -0.17166598 8.059
75.284355 68.666237 -0.14545745 8.0325003
75.211502 69.742317 -0.057375103 8
75.46373 62.382404 0.18823825 8.04
75.348473 62.444443 0.29859731 8.0360003
75.57859 68.865723 0.75144917 8.0299997
75.201248 62.791103 0.86114049 9.1155005
75.242943 69.276772 1.0499035 9.0412502
75.545181 69.777031 1.1584836 9.0283327
75.328468 60.061012 1.2236056 9.0555
75.30014 62.955776 1.3331231 9.0637503
75.298744 67.501701 1.514467 9.0295
75.308983 67.102463 1.9359519 9.0267496
75.224403 67.913315 1.9886612 9
75.263206 67.186775 2.055234 9.0290003
75.334251 67.485886 2.1442204 9.0377502
75.471527 67.621803 2.1410058 9.0284996
75.590515 68.568398 2.3647206 10.043
75.221817 69.298477 2.2829762 10.04475
75.264175 63.825806 2.5531261 10.039
75.416908 67.601051 2.5690367 9.0240002
75.357071 68.433571 2.527601 10.0385
75.216995 64.754074 3.1184018 10.069
75.329391 65.057999 3.1045673 10.0765
75.593834 68.803841 2.8591323 9.0174999
75.345238 68.679695 3.5386229 11.044
75.369095 68.902863 3.5657339 11.037001
75.221558 64.438377 3.9562073 11.0335
75.319618 66.173668 3.8294072 8.0225
75.428841 68.320282 3.8495009 10.0275
75.390152 69.803337 3.6976082 10.028
75.599167 61.877735 4.1407409 11.03
75.521179 66.011154 4.0135922 8.1794996
75.225891 66.693123 4.0911665 8.1785002
75.498558 67.579109 4.2832665 8.1789999
75.343071 67.675041 4.2565732 8.1789999
75.336479 68.227432 4.1642318 8.2655544
75.306831 68.641441 4.2365313 10.025
75.358871 68.888885 4.2893252 9.1025
75.339973 69.443794 4.1444931 10.02825
75.357796 68.689758 4.4142995 8.1794996
75.528831 68.729309 5.1618776 11.0285
75.452652 67.620338 5.5322351 11.0725
75.534607 68.499687 5.3876319 10.014
75.575119 66.343178 5.6147723 12.0295
75.402206 67.482407 5.8875747 9.031599
75.592369 67.991135 5.7544355 9.0235004
75.45974 67.420135 6.0168223 9
75.297913 66.974342 6.724606 12.0285
75.437881 67.706291 6.6406116 12.029
75.522575 62.504658 6.842627 12.0915
75.538132 67.161491 6.9223313 13.03
75.439011 65.286041 7.5645962 11.727
75.562225 67.205566 7.5507894 14.0365
75.327873 61.262283 7.7761664 14.057334
75.438782 63.327335 7.7512422 11.076
75.40535 65.00502 7.8758626 12.373833
75.477165 65.432831 7.794579 13.378917
75.561401 65.750832 7.89574 14.04675
75.25898 61.696518 8.2396793 12.064
75.40229 62.354382 8.3525581 11.0755
75.497688 62.457783 8.3397446 11.016
75.212837 63.099583 8.0330143 14.034
75.376564 64.225182 8.3060579 12.033
75.445992 64.722481 8.0250072 14.031
75.517593 65.199501 8.2795095 12.0245
75.443954 65.402939 8.178647 13.547501
75.317268 60.451733 8.5583019 14.028
75.355652 61.960186 8.4043713 12.0625
75.263458 62.104908 8.7322044 12.0235
75.299698 62.613346 8.6107569 13.026
75.50193 64.052399 8.4904613 14.029
75.417191 65.082008 8.5710611 11.51775
75.499657 65.290321 8.7184496 12.024501
75.328903 62.10685 9.1150932 12.0235
75.413467 65.878471 9.4602709 11.16
75.506821 64.604263 9.9822226 11.1785
75.596146 66.087807 9.6842813 11.1795
75.282661 63.139965 11.013766 12.178
75.807938 60.64246 -0.9298259 8.1169996
75.96508 63.228062 -0.57869267 8.1230001
75.846725 69.146652 -0.17235553 8.0342503
75.680107 62.445229 0.25890443 8.0369997
75.654175 63.094929 0.19393134 8.0384998
75.805756 62.262234 0.77548939 9.1059999
75.657455 70.350998 0.63850707 8.0310001
75.679855 71.089821 0.58220786 8.0314999
75.831009 62.184895 1.1552712 9.0594997
75.861061 62.423824 0.84601796 9.1090002
75.872032 68.029709 1.0994581 9.0354996
75.836319 69.388435 1.0857894 9.0375004
75.884056 70.209412 1.0980508 9.0332499
75.620872 70.594826 0.97961187 9.0375004
75.628487 70.931931 0.95632434 9.0349998
75.90332 62.467113 1.4817296 9.0649996
75.849548 69.48201 1.2837856 9.0275002
75.671135 69.791901 1.3502793 9
75.904671 67.715172 1.951351 9.0275002
75.689972 69.532539 1.7235304 9.026
75.721893 62.491974 2.3931525 9.026
75.784538 67.828224 2.1657891 9.0255003
75.770874 68.084892 2.3595724 10.0355
75.886467 68.78479 2.3094764 10.0465
75.864922 69.037529 2.3832757 10.040751
75.992622 69.395035 2.1170282 9.0530005
75.731331 67.47538 2.5165448 9.0240002
75.722786 68.099388 2.4490812 10.041
75.907074 68.897095 2.5041792 9.5322495
75.980431 69.745598 2.7559328 10
75.941528 63.982525 2.9569223 10.0645
75.896751 67.860817 3.0775049 9.0139999
75.639145 68.267509 2.8671515 10
75.903534 67.103172 3.8706698 8.0229998
75.83091 67.90374 3.8427145 10.0255
75.796013 68.038002 3.8788307 8.0235004
75.641518 68.429375 3.7858896 10.0255
75.788185 69.012001 3.7157931 10.698499
75.85701 66.477325 4.2696872 8.1785002
75.78598 67.867111 4.0819268 8.1610003
75.713547 68.287796 4.1613846 10.0105
75.70153 68.53373 4.2521634 11
75.973236 69.601921 4.1640158 11.031
75.640388 68.684875 4.7755179 11.02975
75.75032 67.795113 5.088141 12.0375
75.876945 68.216515 4.9779181 11.535749
75.784828 68.670799 5.0869231 12.033251
75.777687 69.114876 5.024796 12.039
75.922409 67.679459 5.3734727 12.031
75.727386 67.751549 5.8602638 9.0807495
75.699799 68.088448 5.8302207 11.0255
75.632881 67.240234 6.0140181 9
75.658249 67.136108 6.7903128 13.0305
75.872162 67.772804 6.7480769 13.031
75.993141 68.369469 6.6656604 9.1794996
75.809204 61.916004 6.9966207 13.061251
75.667816 67.59742 6.8127985 13.061
75.721634 67.810799 6.8713489 13.0305
75.680138 62.032764 7.3147759 13.063
75.997452 65.243713 7.3186345 11.076
75.938042 65.982758 7.5052061 13.0285
75.990952 67.493889 7.2975464 13.0295
75.682625 60.977272 7.7853675 14.05625
75.652222 65.584595 7.8147187 14.037
75.803955 65.913437 7.7134161 14.0355
75.949608 63.448265 8.1022997 12.0665
75.676979 64.253273 8.3766632 12.06
75.695969 65.875816 8.1453924 12.02075
75.666763 66.005219 8.1497765 14.06
75.683617 60.469341 8.4126062 14.033
75.751656 64.23436 8.7043447 13.5275
75.623863 65.223869 8.5735435 13.02725
75.867905 65.855835 8.4851284 13.361667
75.778099 63.849545 10.416334 11.178
75.793747 63.902203 11.080033 12.1785
76.290085 69.301407 -0.014741037 8
76.242531 70.44397 -0.064658381 8.0414991
76.35154 63.508762 0.16126625 8.0410004
76.186951 70.082855 0.016260043 8.04
76.021858 62.479095 0.48138747 8.0349998
76.01532 62.527435 1.1106081 8.54175
76.382286 63.933769 0.95691466 8.0229998
76.101089 64.455818 0.93406069 8.0229998
76.212975 68.600273 1.1019182 9
76.096977 68.849884 1.1010467 9.0334997
76.061989 69.516586 1.0595249 9.0340004
76.073891 69.901482 1.031598 9.0369997
76.332115 60.933125 1.2116193 9.0585003
76.238647 61.437859 1.261376 9.0570002
76.343262 62.230717 1.4059544 9.0625
76.304779 63.728752 1.2114949 9.0585003
76.078941 64.968399 1.3790376 9.0644999
76.023277 70.146164 1.2441877 9.04
76.337471 68.196648 1.8409848 9
76.00573 65.219627 2.2812195 9.0279999
76.327377 65.812813 2.0704823 9.0430002
76.060799 68.140846 2.1317225 9.0290003
76.190712 69.440697 2.3784728 9.0249996
76.150993 69.905144 2.3958204 10.043
76.062874 68.057907 2.6077399 10.0315
76.027863 68.795212 2.6762094 10.031
76.240501 68.862556 2.6503012 10.0315
76.172424 69.547325 2.496074 10.039499
76.088783 69.799713 2.4315059 9.6890001
76.302414 68.59539 3.6335735 11.045
76.375351 68.986427 3.920712 8.0240002
76.270912 69.347908 3.9010558 8.0270004
76.358398 66.183868 4.3717127 8.1785002
76.299194 68.316833 4.2608337 8.1794996
76.196999 68.585594 4.2250643 8.4390001
76.213478 68.895042 4.2051787 9.6052494
76.177689 69.401184 4.1395149 8.0015001
76.371056 69.744507 4.1978507 11
76.296677 66.279068 4.4144816 8.1785002
76.1614 68.20063 4.4089341 10.0245
76.306198 68.301933 4.839642 12.046
76.103767 68.473824 5.0916224 12.0395
76.226486 68.36058 5.5316257 11.073
76.197571 67.489357 5.9839416 11.0275
76.103096 68.238937 5.6172767 10.012
76.193703 67.238861 6.3774362 11.0255
76.132843 65.26841 6.4749498 11.073001
76.011292 65.898659 7.1380105 12.027
76.066208 66.205589 7.1406689 13.0295
76.139648 67.314995 7.0626054 11.07675
76.29274 65.774628 7.2080388 11.07625
76.159866 66.1101 7.2686071 13.029
76.281197 64.314415 7.9895134 11.0175
76.088509 65.820305 7.6606379 14.039
76.04158 66.167473 7.8325372 11.017
76.303986 67.08812 7.8605046 10.011499
76.156265 63.676807 8.082427 12.065
76.156868 64.028015 8.2214384 12.0635
76.167641 65.415627 8.2745619 13.02775
76.290604 65.837036 8.1674232 13.0285
76.19912 66.017952 8.25385 13.028
76.039841 65.777664 8.9376173 10.1785
76.366341 65.358002 9.9688492 11.179
76.467705 65.452675 -0.54983991 8.0799999
76.459328 65.281487 -0.16045372 8.0647497
76.671432 69.97451 -0.11026695 8.0389996
76.443062 63.553822 0.22692667 8.0380001
76.452621 70.03611 0.020064168 8.0410004
76.463989 64.186928 1.137217 9.0605001
76.610634 63.776913 1.3924918 9.0648336
76.540161 64.281601 1.345996 9.0704994
76.696999 68.657913 1.8212147 9.026
76.684608 68.320312 2.1617949 9.026
76.671173 68.732941 2.2500508 9.0180006
76.556038 69.219383 2.372854 10.0365
76.722862 70.060066 2.2287436 9.0395002
76.717255 68.609299 2.4518404 10.01675
76.652428 69.050774 2.4917412 10.03425
76.456154 69.408394 2.5141544 10.03825
76.775711 69.799515 2.6248412 9.6948328
76.690643 64.427025 2.9023075 10.0635
76.593361 67.932388 2.884311 9.0185003
76.520844 69.464821 2.8263714 9.0179996
76.474182 67.595055 3.2960579 9.0120001
76.65554 63.192276 3.9938872 8.1780005
76.536804 68.164612 3.8448122 10.0095
76.579765 68.835823 3.7945788 10.026
76.650879 61.071945 4.2178783 11.0305
76.669472 63.281528 4.0013866 8.1780005
76.408905 68.149429 4.3020911 8.1794987
76.537506 68.558357 4.218307 8.9432907
76.580765 68.980316 4.2792277 8.0770712
76.531616 68.963951 5.1278305 11.690499
76.750122 68.578461 5.2194023 11.03
76.773651 68.814835 5.3722959 12.032
76.400429 67.19561 5.8789206 11.0435
76.551926 67.405083 5.9748597 11.0255
76.693222 68.386978 5.823616 9.0264997
76.599197 68.452766 5.9135213 9.0010004
76.525795 67.063957 6.3220639 11.0255
76.408463 67.189362 6.4282269 11.0255
76.504646 67.026237 7.9543414 10
76.495735 63.644093 8.2481804 14.033
76.43486 67.137367 8.0220222 10
76.547165 65.338905 8.7977638 12.0295
76.417183 65.534416 10.093893 11.179
77.051895 69.822495 -0.22807388 8.0357494
77.059036 60.198273 0.2719276 8.1099997
76.840599 83.533226 0.082281716 8.0074997
77.022697 83.903328 0.32163918 8.0085001
77.174385 84.389709 0.29480129 8.0074997
77.15799 84.525612 0.22435099 8.0080004
77.072388 83.094368 0.64848691 9.0747499
77.104149 83.361305 0.60938257 8.7891254
77.129707 83.915962 0.62519878 9.0574999
77.093765 84.16674 0.41879293 9.0419998
77.114281 83.263313 0.82664889 9.0600004
77.152557 64.035667 1.2554421 9.0609999
77.098366 66.323952 1.3062558 9.0799999
76.848839 67.917793 1.8761088 9
77.106583 69.297699 1.8671842 9.0284996
77.171417 83.313187 1.702711 9.1274996
77.07737 69.065002 2.3397825 9.0271435
77.084862 69.312035 2.2750146 9.0269995
76.804207 68.922234 2.4558544 10.0345
76.942436 69.466835 2.4391825 10.0345
77.001701 70.042465 2.5312283 10.035749
76.936409 68.397697 3.0596342 9.0144997
76.898445 68.090309 3.5165784 10.03
76.888306 68.376137 3.9847209 11.0325
77.009399 68.450584 3.8527641 9.0132504
77.086761 68.98867 4.3309898 10.025749
77.126328 68.534477 5.1120648 12
77.05423 67.319916 5.266511 10.0185
77.075691 68.602455 5.2594123 11
76.93705 67.724289 6.1347084 9.666667
76.927132 68.197525 6.1676364 9.0004997
76.886238 68.417427 6.1583953 9.0004997
76.920311 66.544411 6.5844893 11.025499
76.881783 67.56826 6.4307218 11.0245
76.934326 67.793816 6.404386 11.0305
77.428398 66.776665 -0.24446553 8.0600004
77.456596 69.005447 -0.17274158 8.0365
77.524529 81.889046 0.35705903 8.0074997
77.393005 84.564842 0.17412388 8.0085001
77.514458 84.842781 0.39952174 9.0424995
77.455109 82.613945 0.67095208 9.0384998
77.324173 82.852585 0.50938129 9.0410004
77.312759 83.378601 0.71738017 9.0512505
77.33313 83.748154 0.70745087 9.0461664
77.399696 84.264435 0.67802256 9.0651665
77.426926 84.5951 0.67955321 9.0510006
77.42131 84.87793 0.70406204 8.8382006
77.44516 83.38559 0.92172647 9.0498343
77.57132 83.833908 0.86671543 9.0365
77.462181 84.279434 0.8170945 9.05725
77.439034 84.596466 0.89917445 9.0448332
77.387375 63.583607 1.3695712 9.0621662
77.400299 64.053581 1.4530863 9.0644999
77.469505 66.658684 1.5179672 9.0299997
77.273567 69.000504 1.3352392 9.0314999
77.545494 83.359192 1.3545054 9.033
77.533722 84.316048 1.2905231 9.0334997
77.447418 84.727852 1.2530034 9.0334997
77.508247 68.98922 1.8186212 9.0264997
77.290283 69.38987 1.8812168 9.0293331
77.353668 68.306175 2.3276484 9
77.247002 69.156776 2.1218605 9.0264997
77.321449 69.351341 2.2301996 9.0295
77.57357 69.817039 2.1717899 9.0310001
77.260445 70.09285 2.3219209 9.0270004
77.394989 64.21125 2.7323794 10.0395
77.375153 69.818214 2.4769588 10.034833
77.247574 65.963219 3.1600039 10.066
77.597542 61.947887 3.6249812 8.1789999
77.224327 68.553368 3.786701 10.5
77.41201 82.900635 3.6241059 10.12
77.406219 68.646683 4.3299479 10.031
77.350807 68.823906 4.3431625 10.0265
77.581093 67.300682 4.5642757 10.0245
77.274643 68.308769 4.406528 10.026
77.400551 68.660706 5.0734859 11.533626
77.307999 67.90036 5.5332069 10.0145
77.586441 68.308128 5.2943978 11.0295
77.484337 68.567894 5.4857655 11.04975
77.249123 67.812218 8.3708286 10
77.342842 68.026642 8.3615847 10.0015
77.752258 81.277985 -0.65756857 8.1330004
77.605118 82.202469 0.28969517 8.0080004
77.776749 84.990089 0.28488195 8.00875
77.841415 81.828232 0.71854597 9.0375004
77.760231 82.199707 0.6657601 9.0184002
77.782043 82.648239 0.63466156 9.0235004
77.818016 83.243576 0.69868702 9.050334
77.678223 84.196457 0.75722158 9.0415001
77.843437 84.668564 0.59152019 9.0764999
77.783493 85.046219 0.6724574 8.7071676
77.891396 83.070831 0.90599024 9.0482502
77.727394 83.43203 0.83467311 9.0555
77.861275 83.854393 0.95521104 9.0517864
77.833252 84.192184 0.98507047 9.0545998
77.819153 84.507324 1.123757 9.0583744
77.876411 85.01133 0.94396865 9.0503998
77.887817 60.996315 1.2863717 9.0579996
77.832901 68.980057 1.3432008 9.0319996
77.750931 83.566879 1.3449955 9.033
77.912552 83.880989 1.3619065 9.0423326
77.86245 84.324234 1.4028878 9.033
77.851128 84.536804 1.3309118 9.0336256
77.683327 82.048111 1.8999164 9.1300001
77.923424 84.368439 1.7049696 10.0445
77.951729 84.637413 1.7643765 10.0455
77.75251 66.444588 2.1639106 9.0469999
77.813095 63.456253 2.6406922 9.026
77.815811 66.564308 2.474823 9.0244999
77.987206 67.970894 2.640866 10.0375
77.777496 69.905998 2.5063457 10.045
77.943176 82.614159 2.5428486 10.04
77.912506 63.416233 2.8737769 10.038
77.992256 82.706429 3.0096521 10.0325
77.909157 81.286285 3.583854 10.1195
77.646721 68.741814 4.247869 10.0265
77.83844 69.017441 4.2598195 10.363334
77.897263 69.547173 4.2564487 10.0315
77.746796 82.292389 4.1176562 8.0334997
77.777039 67.472618 4.5170965 8.1789999
77.898689 68.45253 4.4393363 10.0265
77.964333 82.424728 4.5057249 8.1564999
77.880157 68.544739 5.3690028 12.0335
77.968987 66.62999 6.1849809 11.0735
77.854034 67.148552 6.0602002 11.035
77.814476 66.538078 7.1316338 12.0285
78.22834 80.473938 -0.63951594 8.1295004
78.052628 85.323143 0.22894132 8.0082502
78.28936 81.058891 0.78739709 9
78.150864 81.463394 0.73395926 9.0248327
78.081566 81.738358 0.71023571 9.0244999
78.320663 82.319061 0.76500827 9
78.21524 82.489166 0.71269357 9
78.216095 83.127235 0.79062378 9.0585003
78.24659 83.259392 0.71030122 9.1000004
78.346909 85.152344 0.78632498 9.0354996
78.271797 81.17524 0.91553032 9
78.311768 81.506073 0.88569188 9
78.275871 81.810471 0.97810328 9.026166
78.34317 82.196892 0.86710894 9.0096664
78.307281 82.594086 0.87675399 9.0429993
78.128227 82.969925 0.94126737 9.0434284
78.064003 83.215157 0.96183455 9.0462494
78.100937 85.083733 0.97918922 9.03475
78.257996 85.311501 0.92711025 9.0472498
78.311172 60.906357 1.4602548 9.0775003
78.223999 63.693516 1.498117 9.0640001
78.240074 64.748131 1.48344 9.0635004
