# .PCD v0.7 - Point Cloud Data file format
VERSION 0.7
FIELDS x y z intensity
SIZE 4 4 4 4
TYPE F F F F
COUNT 1 1 1 1
WIDTH 1278
HEIGHT 1
VIEWPOINT 0 0 0 1 0 0 0
POINTS 1278
DATA ascii
63.916523 -19.411152 20.657127 15
63.980824 -23.020281 21.184671 14.0075
63.926773 -22.875343 21.499878 14.0075
63.866978 -19.487873 21.314978 13.0035
63.919685 -19.28212 22.026016 15.008
63.878109 -22.878197 23.360916 15.0075
63.979858 -15.983891 23.868538 14.0035
64.101669 -6.5052328 -1.2063437 5
64.1642 -1.0310633 -0.988024 5.5
64.314873 -1.0388961 -0.69331765 6
64.106308 -0.41180846 -0.49898884 6
64.131859 -0.35172963 -0.70889187 6
64.01593 -10.986028 -0.34640494 5
64.191917 -0.80560237 -0.25281793 6
64.373039 -14.802633 0.24633723 6
64.230583 -13.905562 0.34413517 6
64.233307 -12.077676 0.3641361 6
64.013527 -14.660022 0.78835171 7
64.00087 -13.466155 0.72180718 7
64.048172 -28.693899 1.1405592 7
64.114212 -24.396448 1.1133919 7
64.104729 -23.902868 1.1084728 7
64.086685 -23.035801 1.1598728 7
64.077293 -22.579353 1.1964175 7
64.001511 -20.581633 1.1792988 7
64.198692 -15.020303 1.0411409 7
64.05159 -14.633552 0.95612085 7
64.172165 -14.169129 0.99966216 7
64.202454 -13.833369 0.88848776 7
64.222481 -11.446571 0.9404434 7
64.205421 -10.963288 0.90021974 7
64.190132 -10.685846 0.87548786 7
64.294823 -10.275434 0.93818694 7
64.376488 -1.5887276 0.82623452 7
64.124664 -29.841488 1.4006628 7
64.097343 -29.41131 1.4331905 7
64.096107 -28.969732 1.4474649 7
64.065712 -28.579988 1.446059 7
64.104065 -28.210619 1.4847833 7
64.281296 -27.849096 1.3668053 7
64.267181 -27.369305 1.3408393 7
64.222809 -26.900749 1.4264996 7
64.257881 -26.62034 1.3378935 7
64.227844 -26.176184 1.3027281 7
64.157959 -25.752253 1.4336545 7
64.093491 -25.533714 1.5005765 7
64.137474 -24.541918 1.2848103 7
64.149445 -24.323189 1.2424617 7
64.150124 -23.813 1.2631552 7
64.081482 -23.318031 1.3260692 7
64.104774 -23.016176 1.2553221 7
64.081558 -22.540838 1.2278215 7
64.039719 -22.175047 1.3158723 7
64.001999 -21.952 1.4554893 7
64.018227 -20.957392 1.200775 7
64.02565 -16.014278 1.5193986 8.1230001
64.230743 -11.015654 1.3776361 8.1054993
64.014015 -10.68387 1.5600387 8.1370001
64.064461 -0.24649921 1.4767902 8.1604996
64.124443 -29.785973 1.6528836 7
64.123138 -29.360826 1.6313424 7
64.092308 -28.998211 1.6422909 7
64.065506 -28.553829 1.6526313 7.1587143
64.04747 -28.212423 1.6386663 7
64.325348 -27.865538 1.9929309 8
64.373962 -27.595787 1.9863961 8
64.023186 -26.815016 1.9917901 8.1149998
64.267509 -26.633953 1.9740522 8
64.231041 -26.080999 1.962908 8
64.173431 -25.840895 1.9720442 8
64.130867 -25.571947 1.6021415 7
64.136864 -24.512306 1.9393239 8.0197144
64.125511 -24.347244 1.9425641 8.0170002
64.132706 -23.801867 1.9114828 8.0263004
64.080132 -23.296083 1.9300967 8.0537138
64.084183 -23.111071 1.9078792 8
64.069962 -22.636528 1.8667196 8
64.038895 -22.298412 1.902115 8.0548
64.209274 -14.910655 1.7347941 8.1400003
64.154755 -13.298538 1.6229358 8.1534996
64.345222 -13.172943 1.7217951 8.1434994
64.135368 -11.773129 1.608209 8.1485004
64.106659 -10.722055 1.6180701 8.0859003
64.107529 -29.778172 2.2091734 8.0109091
64.103249 -29.376661 2.1841376 8.0236254
64.064995 -28.966307 2.1909966 8.0249281
64.043564 -28.557936 2.1498806 8.0088892
64.098549 -28.159597 2.1664083 8.0158072
64.236969 -27.88765 2.1204677 8
64.294853 -27.390905 2.0533848 8.0265999
64.209969 -26.902325 2.1175771 8.0758944
64.229218 -26.69639 2.092375 8.0194998
64.226852 -26.019911 2.1051009 8
64.16687 -25.697422 2.2254822 8.0097809
64.03051 -25.545156 2.2447016 8
64.102005 -24.577486 2.0575068 8.1415005
64.060059 -23.372076 2.125787 8.0988331
64.054276 -22.642506 2.2794812 8.1574993
64.011627 -22.082237 2.127564 8
64.361076 -13.988327 2.0745959 8.1634998
64.31575 -13.257984 2.3314049 9.1409998
64.314407 -12.653966 2.3657153 9.1405001
64.308167 -12.086612 2.3690057 9.1479998
64.053299 -11.993101 2.2987268 9.1385002
64.047882 -11.232036 2.323761 9.1479998
64.145996 -10.991855 2.167733 9.1273003
64.079041 -10.692892 2.3235424 9.0959997
64.103485 -29.767696 2.6343515 8.6276999
64.107277 -29.436523 2.6857724 8.8888893
64.062935 -29.028152 2.6518416 8.7366428
64.04258 -28.56691 2.6889496 8.9233179
64.142677 -28.194044 2.6980221 8.9269581
64.300385 -27.785206 2.7070034 9
64.291962 -27.345304 2.704021 9
64.244446 -26.976824 2.6756425 8.9455004
64.231659 -26.630751 2.6707244 9.0124092
64.206779 -26.189524 2.6282241 8.9217787
64.149719 -25.845922 2.62076 8.911375
64.102272 -25.537884 2.6822116 8.5
64.099449 -24.531099 2.6029897 9
64.11161 -24.308249 2.6420135 9.0113335
64.115181 -23.730015 2.5125566 9
64.077271 -23.386951 2.5804763 8.854167
64.051201 -23.074429 2.5806394 9.0519371
64.040894 -22.634846 2.5369091 9.0600681
64.016792 -22.215569 2.5065327 9
64.086838 -19.354378 2.7301381 9
64.049606 -12.073956 2.7407897 10.124
64.282936 -11.36053 2.7233474 9.0769997
64.295509 -10.986957 2.7883036 9.0725002
64.38372 -0.0042567984 2.5298235 9.1595001
64.088066 -29.774492 2.9573009 9.0065269
64.075676 -29.356562 2.9695487 9.0110474
64.051758 -28.995251 2.9771283 9.0357494
64.032036 -28.614662 2.9339514 9.0202351
64.044701 -28.164045 2.9158208 9.0249214
64.190369 -27.934933 2.8966708 9.0188332
64.150642 -26.903612 2.9529891 9.1405001
64.14518 -26.761545 2.9486618 9
64.154282 -25.657251 2.9731648 9.0764999
64.070549 -25.566599 3.0438819 9
64.098686 -24.600979 3.1746361 10
64.099785 -24.265553 3.1123211 9.6993332
64.088409 -23.743866 3.1522634 10
64.053253 -23.334911 3.0394156 9.5769997
64.111244 -22.923309 3.1516061 9.6356001
64.053337 -22.594078 3.1425676 9.7189999
64.013435 -22.137913 3.0100238 9.3999996
64.293404 -21.962498 3.0471277 9
64.099068 -19.380241 3.1342118 9.04
64.368477 -13.640314 3.0539298 10.139
64.239334 -13.472987 2.9963794 9.1615
64.279922 -12.649366 3.0332484 10.1405
64.010124 -11.805449 3.099071 10.1485
64.303787 -11.368835 2.959548 9.0720005
64.026108 -10.826074 2.8076694 10.1235
64.074181 -29.772717 3.4660482 9.8506947
64.070732 -29.370693 3.4553664 9.8500891
64.043465 -29.019911 3.4237115 9.8320627
64.02076 -28.610979 3.4574535 10
64.090157 -28.20635 3.3851628 9.8814335
64.258034 -27.699984 3.4389219 10.0565
64.264954 -27.387243 3.4411461 10.04
64.228371 -26.940191 3.442009 9.8880005
64.206062 -26.641273 3.363961 10.015612
64.207535 -26.182453 3.4008167 10.102313
64.15226 -25.797268 3.3371153 9.810111
64.111214 -25.536516 3.4584081 9.5
64.081177 -24.526918 3.3033097 10.071751
64.0877 -24.236523 3.4257247 10.027667
64.066833 -23.775698 3.2680185 9.8528748
64.066864 -23.542215 3.2746661 10.063499
64.091927 -23.037222 3.3119516 9.9107504
64.037209 -22.542648 3.2570841 9.8056669
64.12323 -20.634089 3.2252376 9.04175
64.022514 -16.051487 3.4311867 9.0635004
64.3508 -13.673326 3.3278832 9.1630001
64.3293 -13.515244 3.3551683 9.165
64.382507 -12.994876 3.3875146 10.11
64.211136 -11.867846 3.2794292 9.0655003
64.076447 -11.478951 3.2117739 9.0695
64.06237 -29.741758 3.7946522 9.9238634
64.050781 -29.387537 3.8391166 10.10373
64.032074 -28.96032 3.8360028 10.190462
64.012428 -28.630356 3.7467203 10.125
64.076424 -28.290918 3.8692369 10.782
64.232307 -27.891188 3.7787683 10.057125
64.113258 -26.836458 3.6318457 10.14875
64.138023 -26.741547 3.8015516 10.2235
64.223854 -26.084314 3.8638964 11
64.082657 -25.760748 3.9061763 11
64.07457 -25.537983 3.7803054 10
64.089699 -24.556883 3.8160031 11.06675
64.11013 -23.530193 3.8058374 11
64.070686 -23.183645 3.8608067 10
64.040985 -22.58217 3.7738745 11
64.063637 -15.731126 3.7907524 10
64.248428 -13.561048 3.7007616 9.1654997
64.165497 -12.279164 3.8940701 11.1145
64.046318 -11.674806 3.6747077 11.142
64.069923 -29.785288 4.1749554 10.832318
64.053688 -29.429853 4.1932721 10.916667
64.038559 -29.00979 4.2105198 10.882353
64.004669 -28.584095 4.2426543 11
64.234222 -28.071127 4.1062846 11
64.098366 -25.500465 4.1310987 10.285714
64.081215 -24.296234 4.1781125 11
64.105476 -19.289885 4.1218767 10
64.151756 -15.843377 4.0330114 10.0895
64.168304 -13.424932 4.2211919 10.07425
64.07238 -12.949136 4.338768 11.155
64.276497 -12.350299 4.027319 11.114
64.044342 -29.717758 4.6618838 11.688583
64.030403 -29.386295 4.6402731 11.333333
64.02198 -28.917269 4.6825905 11.165
64.003654 -28.781801 4.7207718 11
64.249779 -28.041319 4.6286926 12.128
64.193954 -27.941385 4.719615 11.0865
64.343842 -26.985449 4.4059739 9
64.143417 -26.708658 4.5785813 11.2233
64.174339 -25.775255 4.5062599 11.071125
64.07785 -25.478039 4.5730767 10.857142
64.046448 -24.583233 4.4568763 12
64.137978 -23.373976 4.4117112 9
64.179695 -23.005442 4.7148304 10.089
64.079681 -22.10684 4.4147034 9
64.02314 -21.930208 4.7530622 11
64.116531 -20.544779 4.7696972 10
64.135147 -19.746565 4.4247403 9
64.091843 -19.336813 4.6194963 10.04
64.19574 -18.527456 4.4308982 9
64.188568 -16.494314 4.4056721 8
64.086258 -15.933746 4.728271 11.108
64.055939 -0.068364277 4.5203433 10.0675
64.042351 -29.773678 4.9450512 11.875
64.026306 -29.431589 4.9419756 11.658136
64.03315 -29.07427 4.9758716 11.841874
64.006516 -28.705297 5.0216827 12
64.124344 -27.961605 4.8066363 10.1005
64.102715 -26.734303 5.1252394 12.07475
64.193993 -25.845596 5.1682258 13.088333
64.071907 -25.485109 4.9751821 11.6
64.142342 -24.227465 5.1387 12.568
64.193581 -23.920843 5.1372275 13.1365
64.207375 -23.589487 5.0558228 12.0785
64.011345 -23.078796 4.8211174 11
64.074142 -22.315899 5.1223874 13.139
64.014076 -20.533134 5.1882305 11
64.045692 -15.847785 4.9981756 11.0525
64.03373 -29.782621 5.4641047 12.666667
64.021667 -29.418432 5.398138 12.375
64.021172 -29.121332 5.4329553 13
64.187233 -27.88114 5.4645176 12.666667
64.177689 -27.313772 5.3418803 12.645124
64.151619 -27.012136 5.3902597 13.1395
64.075317 -26.668051 5.3363562 12.25
64.193977 -25.968033 5.2175288 12.1515
64.095207 -25.487482 5.2216587 12
64.06189 -19.257309 5.3698158 11
64.316872 -18.337328 5.3410373 9.0614996
64.128944 -15.645956 5.2721338 11
64.02832 -29.771133 5.9103656 12.4
64.014572 -29.440588 5.8507242 12.8
64.011391 -29.050545 5.8145261 13
64.044044 -28.212084 5.9567795 11.1045
64.190964 -27.733583 5.9221773 11
64.143303 -26.592485 5.8559217 12.468857
64.207535 -26.393648 5.8807473 14.1305
64.098114 -25.465635 5.8321557 12.833333
64.057449 -24.414894 5.778944 14.1335
64.036804 -24.228544 5.8879557 13.283
64.135292 -23.916296 5.794138 14.1365
64.100449 -23.510441 5.7808771 14.0675
64.099007 -23.090593 5.7532072 13.12275
64.267693 -16.385359 5.8047233 8
64.00396 -15.697436 5.9996653 12
64.016792 -29.806087 6.1731162 13.65125
64.017548 -29.361567 6.1620359 13.673567
64.059929 -29.056782 6.1534929 13.017465
64.165642 -28.037693 6.0913725 13.087001
64.180161 -27.841961 6.1343493 13.125166
64.209389 -27.418692 6.2212725 13.64625
64.282104 -26.87755 6.1167212 10
64.102432 -26.633083 6.2329378 12.284687
64.099808 -26.163546 6.3739328 14.1475
64.141441 -25.788351 6.2876124 12.434001
64.102539 -25.463648 6.2194862 12.736143
64.062447 -24.148989 6.1303368 13
64.020988 -23.895302 6.1525545 12.63725
64.167046 -23.256609 6.2385731 10
64.152802 -23.155706 6.1385202 14.1275
64.097557 -22.014025 6.2802343 10
64.237373 -21.877998 6.3446507 13.1555
64.145737 -20.49758 6.3162932 11
64.146049 -19.642332 6.3675003 10
64.081985 -19.275459 6.159698 11.052167
64.108925 -18.27289 6.2751632 13.156
64.018776 -29.822054 6.5842109 13.983285
64.020294 -29.41268 6.6196384 14.663226
64.018013 -29.018024 6.6228242 14.666667
64.124001 -28.075628 6.6111841 13.565999
64.145874 -27.817621 6.6499667 13.299466
64.182915 -27.396795 6.462956 13.903799
64.131737 -27.114672 6.4144897 13.65075
64.178444 -26.63969 6.5766749 13.944374
64.10128 -26.054121 6.4580374 14.123
64.141457 -25.823854 6.51577 15.134438
64.083076 -25.417011 6.6314764 12.846458
64.040779 -24.402952 6.4503975 15.1335
64.041504 -24.268053 6.6517787 14.678301
64.030922 -23.777029 6.438118 15.1345
64.053482 -23.488754 6.4496837 15.090751
64.045128 -23.109819 6.5964069 14.6255
64.070618 -22.125055 6.6278801 15.143
64.112862 -21.876568 6.7275109 13.1575
64.117615 -20.702623 6.5700746 13.373166
64.101944 -18.258553 6.7010703 13.1585
64.118462 -16.112143 6.7281232 9
64.032379 -15.625645 6.5085888 12
64.108322 -15.592093 6.7095456 12
64.00898 -29.750269 7.0096283 14.184077
64.022064 -29.465948 6.9687643 14.040501
64.053864 -29.102486 6.879178 13.034833
64.05394 -28.715815 7.0402217 12.14425
64.103439 -28.016075 6.9003878 15.125
64.105461 -27.83992 6.9986982 13.705249
64.17028 -26.578997 7.0034084 13.322429
64.070801 -25.408873 7.0503454 14.018375
64.180115 -24.133583 7.076921 14.0461
64.274139 -21.834497 7.1145368 13.657249
64.21434 -20.784157 7.0171409 13.1085
64.160416 -16.429045 6.9532566 9
64.317787 -16.205971 7.1081505 9
64.067947 -15.836928 6.9882689 13.05625
64.016685 -29.848402 7.3572245 14.557416
64.039154 -29.432535 7.4735174 13.81025
64.033211 -29.122007 7.2915387 12.1045
64.028412 -28.7108 7.4891381 13.107
64.065613 -28.073553 7.4603448 12.403666
64.152061 -27.750076 7.4193268 13.693722
64.101883 -26.959425 7.4724932 14.1565
64.097 -26.627911 7.445714 13.944446
64.078445 -26.200687 7.4042773 13.4395
64.113228 -25.89213 7.4643717 14.729399
64.060493 -25.467802 7.4171319 13.555555
64.005653 -24.168253 7.393518 15
64.030388 -23.875 7.2462835 13.60925
64.025169 -22.64348 7.4173121 14.111
64.049614 -19.78219 7.3115993 10.0665
64.032257 -18.330814 7.4488792 13.1615
64.104118 -16.413731 7.3110018 9
64.099495 -15.67195 7.2331123 12
64.064781 -29.904915 7.7843981 13.03475
64.076233 -29.024132 7.7829461 11.7005
64.001022 -28.673273 7.9457002 14.1095
64.135887 -27.800222 7.7721934 13.638768
64.19976 -26.813097 7.8342328 11
64.10511 -26.536381 7.7537856 14.186666
64.079849 -25.438259 7.8184109 12.857142
64.186562 -24.135592 7.8479061 14.05875
64.042549 -23.024572 7.8128939 13.882374
64.254051 -21.791557 7.9040008 14.489999
64.221489 -20.717972 7.7718406 14.109
64.075638 -18.227865 7.7494984 13.660749
64.005798 -15.59651 7.7309303 13
64.047821 -29.961853 8.2429209 12
64.039131 -29.356476 8.0991488 13.739834
64.050499 -29.048597 8.094162 13
64.146736 -27.743269 8.2089844 14.764438
64.138939 -26.524763 8.0999718 13.871182
64.106361 -26.380346 8.262639 14
64.09005 -25.845196 8.3894224 14.1375
64.057213 -25.34989 8.1336803 13.833333
64.208839 -24.175196 8.0741272 14.1095
64.071297 -23.002462 8.1355753 13.55375
64.012665 -22.619066 8.3430929 14.60925
64.18396 -21.866903 8.1501513 12.385167
64.130699 -21.09992 8.2789688 9.0050001
64.227737 -19.92993 8.2665873 9.0050001
64.169197 -19.532759 8.3246584 11
64.060127 -18.176483 8.1731997 14.16
64.208481 -15.528971 8.0802946 13
64.028419 -29.953697 8.5119801 13.369166
64.025162 -29.407038 8.5833092 13.087
64.030243 -28.715416 8.6240788 14.107
64.130104 -27.724487 8.6510992 14.333333
64.03717 -27.095572 8.6657591 9.0024996
64.156715 -26.566336 8.5399456 13.472785
64.223816 -26.308901 8.6244965 14.039249
64.147743 -25.891357 8.4426498 15.1115
64.038582 -25.445959 8.5423517 14.5
64.261383 -24.153896 8.5990543 14.703834
64.012688 -18.322653 8.4007425 11
64.095978 -16.298864 8.6614552 10
64.084839 -15.617057 8.6842604 13
64.035904 -29.937862 9.0980825 13.4
64.00769 -29.233459 9.0989819 15.1105
64.105713 -27.747494 8.956666 14.025875
64.321335 -27.545111 8.8497829 13
64.045441 -27.010918 9.0722332 14.1605
64.079041 -26.477995 9.03899 14.35975
64.13562 -25.348034 8.9925404 14.719501
64.020912 -23.916784 9.0536833 14
64.046585 -16.277975 8.8805161 10
64.061234 -15.550182 9.0567827 14
64.106941 -29.944218 9.3353777 12.25
64.044479 -29.421597 9.3511095 14.554501
64.190163 -29.094366 9.3400507 12
64.039825 -27.792337 9.3715639 14.5
64.231857 -26.67388 9.5787573 12
64.136429 -26.368288 9.4179525 14.55425
64.006813 -25.228626 9.5529184 15
64.063591 -25.169085 9.3121119 14.5
64.110825 -23.446089 9.5771589 9.0035
64.334457 -17.351273 9.2432022 13.0745
64.054901 -16.147882 9.4610472 9.5015001
64.088791 -15.503339 9.3937073 14
64.124191 -29.948156 9.7150469 14.184583
64.007706 -29.393293 9.9337091 14.087999
64.00264 -28.68947 9.7675333 15.107
64.024429 -26.656054 9.8664446 14
64.182327 -26.366507 9.8488541 14
64.231178 -25.427244 9.7014265 12
64.084702 -24.243216 9.854188 15
64.165497 -22.956486 9.8181047 14.317125
64.182129 -16.123102 9.8972616 10.5
64.079025 -15.586385 9.9644356 14
64.029938 -29.931511 10.223007 13.666667
64.035828 -27.785316 10.325257 14
64.203575 -27.562216 10.234719 14
64.046463 -26.490522 10.182754 15
64.069633 -26.329878 10.146501 14.5
64.021881 -25.190666 10.291624 15
64.027924 -23.944029 10.356635 15
64.126854 -21.817358 10.054587 12
64.007225 -19.747763 10.185479 11
64.157227 -16.19495 10.172539 11
64.067734 -15.570659 10.155187 14
64.159241 -29.832319 10.735459 13.002501
64.165306 -27.74004 10.47208 14.1035
64.254204 -27.01354 10.456327 9.0035
64.162338 -24.605333 10.707543 11
64.006958 -24.144487 10.647762 15.106
64.164162 -23.309374 10.649839 11
64.066734 -20.95125 10.681623 11
64.032028 -19.766308 10.632881 11
64.103317 -16.201956 10.641736 11.5
64.05806 -15.487782 10.520547 15
64.142365 -29.94873 10.909337 13.666667
64.198036 -29.01016 11.021408 13
64.033157 -27.202906 10.835305 15.162
64.29583 -26.907484 11.104881 11
64.030937 -26.244411 11.061023 15
64.157745 -24.563757 11.000545 11
64.163681 -23.352337 10.959302 10.6685
64.038811 -20.998676 10.895711 11
64.063766 -19.723639 11.104931 11
64.083733 -16.201612 11.004715 11
64.247543 -15.464911 10.880536 15
64.272148 -28.144346 11.537292 11
64.241013 -26.885468 11.345657 11
64.16748 -26.558676 11.336273 13
64.052628 -26.187222 11.393395 15.034667
64.135544 -25.354467 11.491185 13
64.139145 -24.572205 11.344842 11
64.127068 -23.337418 11.288859 11
64.042595 -20.997793 11.317641 11
64.08596 -16.14863 11.350867 11.75
64.074196 -15.552949 11.434773 15
64.015404 -28.446798 11.763377 14.179
64.295235 -28.124886 11.791871 11
64.056862 -27.752264 11.861283 15.0345
64.148109 -27.422209 11.733874 15
64.247139 -26.922064 11.713257 11
64.013443 -22.964396 11.797065 13
64.132782 -21.750498 11.968076 13
64.108139 -16.161655 11.794762 12
64.046341 -15.979493 11.674282 11
64.059387 -15.536727 11.653274 15
64.027512 -29.73353 12.204531 15
64.002869 -29.455614 12.198442 15.1035
64.09182 -27.707525 12.19412 15.103
64.043037 -24.476273 12.345281 12
64.036606 -16.090279 12.232719 12.333333
64.045067 -15.948956 12.28663 11
64.096619 -29.821295 12.553444 14.25
64.209473 -28.936064 12.725307 14
64.33004 -27.912724 12.675746 12.5065
64.034958 -24.46117 12.669436 11.50375
64.276253 -20.59675 12.552222 13.0605
64.202232 -19.848013 12.463636 10.005
64.037155 -18.125776 12.447961 13
64.150299 -16.109482 12.534737 12.333333
64.166344 -26.499319 13.115451 14
64.005203 -24.584772 13.059429 12
64.088921 -23.280092 13.025153 12
64.014221 -20.899473 12.867814 12
64.0355 -19.679625 12.957021 12
64.187752 -16.096315 12.978387 12.5
64.190483 -28.102112 13.491307 12
64.174721 -26.833956 13.361735 12
64.238991 -26.745163 13.551278 12
64.16188 -25.243322 13.320378 14
64.088448 -24.494864 13.269628 12
64.173355 -23.280111 13.287496 12
64.066933 -19.714102 13.389366 12
64.102936 -16.10841 13.41172 12.6
64.362602 -29.564444 13.867967 15.005
64.240845 -28.026318 13.864769 12.002999
64.255936 -26.876711 13.760468 12
64.031097 -22.869406 13.699561 14
64.037262 -20.966047 13.640344 12
64.030251 -16.0924 13.859902 12.666667
64.109169 -29.746431 14.179558 15
64.181274 -26.718447 14.205198 12.0085
64.005478 -24.327682 14.333459 13
64.066704 -23.342176 14.157051 11.0055
64.052109 -20.792479 14.278626 13
64.008537 -19.225294 14.306388 14
64.147148 -16.058706 14.239127 13
64.107109 -15.937976 14.28406 14
64.256363 -28.787745 14.475694 15
64.092354 -28.030424 14.602855 15.0205
64.279564 -27.991796 14.671015 12.0085
64.214775 -27.542154 14.408376 15.0815
64.174156 -24.643116 14.544601 11.005751
64.000259 -23.2349 14.672441 11.003
64.111649 -23.136625 14.654263 13
64.089951 -19.743185 14.518089 11.005
64.117607 -19.598356 14.654503 13
64.079491 -17.960791 14.525599 14
64.189552 -16.045832 14.554898 13
64.11277 -15.981936 14.685969 14
64.291336 -28.198095 14.880625 11.0055
64.045113 -27.90797 15.185256 13
64.100182 -26.64983 14.890551 13
64.10041 -26.210115 14.966004 15
64.188988 -25.128881 15.182595 15
64.177849 -24.365183 15.006495 13
64.060257 -23.128334 15.015161 13
64.026672 -19.613295 15.176014 13
64.074654 -16.03035 14.942439 13
64.184441 -15.962692 15.050006 14
64.17247 -27.898079 15.271015 13.0115
64.016045 -26.808832 15.237548 12.0075
64.144814 -26.739212 15.38408 13
64.06105 -24.413702 15.490241 13
64.13298 -23.156477 15.496624 13
64.029877 -20.869768 15.471005 13
64.229904 -16.0522 15.310468 11.669333
64.103981 -15.933528 15.366857 14
64.060295 -28.010378 15.681022 13
64.254166 -27.922457 15.674564 13
64.186012 -23.157167 15.60669 13
64.064102 -22.724905 15.645532 15
64.016525 -21.43432 15.898469 15
64.02169 -19.536802 15.663866 13
64.053978 -16.110056 15.991572 13
64.170883 -15.962029 15.909057 14
64.142365 -27.895014 16.047531 13.009
64.048119 -20.719097 16.241899 14
64.034958 -19.101702 16.369734 15
64.090248 -15.937532 16.156401 14.5
64.162544 -26.624456 16.625429 13.0085
64.097588 -23.098064 16.555571 13.5
64.103729 -19.514963 16.781748 14
64.173889 -15.950665 16.58522 14.333333
64.250694 -27.905256 17.178747 13.0085
64.165031 -24.217184 17.016813 14.532
64.39006 -23.712709 17.075893 15.0595
64.175247 -23.035995 16.991812 13.669333
64.0896 -20.655165 17.089132 14
64.011711 -19.437988 17.15616 15
64.103645 -15.896617 17.003267 14.8
64.139175 -27.791252 17.454166 14.0115
64.221992 -26.630419 17.573292 14
64.046028 -23.265532 17.424944 12.0055
64.13871 -23.064363 17.409464 14
64.118423 -15.917562 17.511587 15
64.238739 -27.8636 17.912104 14
64.23571 -24.257921 17.741074 14
64.072853 -23.066614 17.815075 14
64.122925 -20.6747 17.983536 14
64.105469 -15.922662 17.747675 14.5
64.298271 -26.578978 18.117632 14
64.004356 -24.215479 18.073536 13.0075
64.145912 -20.680103 18.320808 15
64.009026 -19.481226 18.00079 14
64.131546 -15.884501 18.196238 15
64.023445 -24.157784 18.58853 15.012
64.105812 -23.004187 18.69816 15
64.020401 -16.00012 18.448221 14
64.147217 -15.908864 18.650442 15
64.142975 -26.563387 19.089746 14.0085
64.165916 -24.216406 19.077114 15
64.059357 -19.381212 18.92734 15
64.156219 -15.923284 18.93788 15
64.129738 -22.942474 19.258358 14.669499
64.084244 -20.592127 19.300867 15
64.042244 -15.895467 19.447283 15
64.232681 -27.811827 19.722538 14.0085
64.211838 -26.583216 19.811695 15
64.116493 -24.174608 19.907923 14.008
64.008186 -23.006395 19.654438 15
64.265129 -27.762602 20.188753 15.01
64.107292 -23.022806 20.05028 15
64.10688 -20.617128 20.362453 15
64.001534 -19.438536 20.384966 15
64.067749 -15.890149 20.661608 15
64.317291 -27.728395 20.953123 14.0075
64.036728 -24.544252 20.920401 13.0065
64.118187 -26.485678 21.593159 15.0085
64.062057 -26.568975 21.941931 15.0085
64.060303 -15.795072 22.243679 13.003
64.298019 -22.971998 27.326365 14.0035
64.421196 -6.114347 -1.3321705 4
64.749092 -5.6103497 -1.2641072 5
64.520752 -10.742437 -0.47535002 5
64.725433 -0.68787003 -0.38554865 7
64.73053 -1.8209572 0.22888571 7
64.416153 -0.27890742 0.56243944 7
64.690323 -15.416017 1.0888988 7
64.558983 -14.20428 1.0132434 7
64.577698 -11.516544 0.98372966 7
64.445045 -11.116282 0.97619784 7
64.401947 -1.4402062 0.81563133 7
64.712326 -0.24414636 1.1105924 7
64.475616 -11.266394 1.5033675 8.0705004
64.401749 -10.880793 1.5067399 8.0690002
64.67334 -13.902969 1.9700141 8.1639996
64.656197 -13.486401 1.6959964 8.1417503
64.46653 -13.123489 1.7026918 8.1435003
64.41243 -12.448196 1.6859185 8.1435003
64.616257 -11.90934 1.652774 8.1442509
64.60244 -11.297352 1.6677839 8.1450005
64.535286 -3.3715761 1.8365254 8.1455002
64.559387 -25.729761 2.3791792 8.1549997
64.486313 -24.501795 2.009779 8.1199999
64.769089 -13.705996 2.0389776 8.1615
64.568047 -13.521255 2.2651842 8.6517506
64.671837 -12.003229 2.1350799 9.118
64.633263 -11.920192 2.3775349 9.1415005
64.796448 -11.265801 2.3158622 9.0994997
64.723763 -10.928568 2.2346935 9.1032505
64.710091 -0.33650398 2.113714 9.1494999
64.762085 -25.629358 2.5942078 8.1595001
64.791046 -11.884661 2.4077463 9.1450005
64.689384 -10.554529 2.5707834 9.0822496
64.799629 -1.4977819 2.412292 9.1560001
64.636879 -0.46866313 2.4623094 9.1572495
64.480232 -0.20775218 2.4832952 9.6402502
64.508659 -25.560881 3.0538301 9
64.734581 -14.474122 3.1785917 10.146
64.423363 -14.113073 2.9988635 9.1610003
64.588837 -12.147135 3.0265605 10.1425
64.553902 -10.777714 2.8274038 10.1205
64.699966 -0.62786293 3.0479758 8.0115004
64.717659 -17.174225 3.4178977 9.0664997
64.530182 -18.267809 3.8515928 10.1575
64.607918 -0.14245148 4.1671996 11.7975
64.532661 -20.537783 4.7195234 12.12675
64.487206 -20.118679 4.659811 12.132833
64.477692 -19.420448 4.6589718 12.1275
64.428185 -18.995058 4.6609511 12.14625
64.575638 -17.355703 4.5323162 8.0415001
64.423363 -27.3636 5.1174121 12.1485
64.480064 -26.932993 5.1433811 12.149
64.777466 -25.778595 4.9230127 12.1445
64.729576 -23.30081 4.9402308 12.124
64.704445 -22.882627 4.8997068 12.1245
64.585838 -15.644886 5.0911603 9.0555
64.402138 -26.276115 5.2302747 12.151
64.771851 -16.930925 5.4398751 9.0504999
64.688377 -15.509977 5.2861843 9.0509996
64.794334 -17.427525 5.7776976 9.0369997
64.73204 -16.675245 5.7304783 9.0392494
64.530991 -15.756952 5.9460635 9.0419998
64.738106 -15.487324 5.6267495 9
64.553711 -29.383581 6.0152254 10.0185
64.764816 -19.134974 6.3412466 9.0410004
64.608231 -17.340265 6.2567797 10.05575
64.550903 -27.897596 6.7384119 13.618
64.516655 -26.522419 6.6743035 13.666667
64.433357 -24.151415 6.6008534 13.05575
64.591171 -27.809622 6.9380341 13.586625
64.552399 -26.55929 6.9107809 13.4478
64.449066 -25.477022 7.0326533 13.1585
64.523918 -24.401611 7.0281048 13.108
64.434235 -18.088032 6.9037204 14.1535
64.656807 -27.691233 7.3920479 13
64.492508 -26.585928 7.3514395 14.7022
64.618568 -28.304121 7.9092875 11.016
64.555222 -27.752106 7.7796493 14.112334
64.496201 -26.588194 7.8499541 13.580501
64.452866 -24.130358 7.7529655 14.5595
64.539116 -20.742188 7.7165437 14.1095
64.415558 -18.075325 7.7617331 15.1535
64.520447 -27.732718 8.1182537 14
64.612633 -26.520012 8.2573175 15.090667
64.502045 -26.378428 8.3509445 15
64.721786 -25.330553 8.1898699 15.154
64.437752 -20.785496 8.2989349 15.1115
64.496429 -27.687647 8.5463324 14.55725
64.475906 -26.612478 8.5201778 13.63475
64.462387 -26.375217 8.7902727 15
64.64624 -29.957405 9.1467266 15
64.512032 -27.707563 8.9893999 15.074166
64.508575 -26.432241 8.9990034 14.58
64.597404 -15.383783 9.0280123 11
64.405792 -26.685228 9.5898476 12
64.571274 -27.602789 9.6126003 15
64.441254 -25.387716 9.7197475 12
64.740059 -15.315959 10.291329 12
64.688553 -16.369526 10.481513 12
64.656532 -15.264959 10.599068 12
64.468842 -29.032667 10.96042 13.0185
64.55748 -28.627195 11.033841 13.0125
64.744347 -18.830645 11.104911 12
64.417091 -26.881609 11.313151 11
64.746552 -17.068567 11.833921 11.0085
64.724213 -15.418964 11.926386 13
64.6763 -15.129469 11.8843 13
64.658661 -16.639751 12.190759 13.037
64.664192 -16.275398 12.111568 13.023
64.568398 -15.862638 12.118635 13.030251
64.556282 -15.202379 12.00703 13
64.634956 -15.175602 12.187658 13
64.645668 -29.977251 12.633081 14.0155
64.468422 -28.985739 12.643918 14.0185
64.541199 -16.686224 12.532653 13.0415
64.55603 -16.396355 12.4154 13.0235
64.724617 -18.721029 12.844564 13
64.713943 -15.062891 13.122644 14.051
64.401039 -26.815067 13.467096 12
64.650032 -16.265127 13.420883 14.0505
64.645065 -15.032222 13.484263 14
64.650917 -16.194454 13.760889 14
64.611351 -15.08499 13.728142 14
64.641129 -29.953787 14.291931 15.0155
64.490028 -28.891722 14.364757 15.0185
64.547943 -16.639662 14.205956 14.0415
64.529778 -16.296413 14.124971 14.0235
64.710388 -18.638929 14.615607 14
64.410278 -16.087561 14.699462 11.0055
64.738083 -14.999575 14.763181 15.051
64.743523 -14.931959 15.102859 15
64.421989 -26.813307 15.403934 11.003
64.664818 -16.143414 15.455519 15
64.616028 -15.793358 15.38895 15.039249
64.631203 -14.998605 15.334814 15
64.747192 -18.529865 16.473074 15.0205
64.499504 -15.945669 23.450237 14.005
65.036842 -0.97704738 -0.61638445 6
65.008675 -0.68988746 -0.28056929 6
65.02597 -0.7456879 0.29293197 7
64.993195 -0.14281358 0.35559037 7
64.852631 -0.2436163 0.43090963 7
64.819084 -18.343077 1.1151654 7
64.815742 -15.608446 1.0003971 7
64.944572 -15.310702 0.95252699 7
65.000893 -14.989679 0.92336202 7
65.030663 -14.753551 0.93080288 7
64.826233 -13.728098 0.94270915 7
64.864525 -0.59003848 0.83586949 7
64.973633 -0.183524 1.1330043 7.2688751
65.126328 -11.380029 1.3529013 8.1190004
64.994484 -10.931711 1.4677235 8.073
65.167595 -3.3884072 1.5883451 8.1149998
65.09951 -1.8563886 1.508615 8.1576672
64.977097 -0.86982632 1.4426253 7.9266996
65.05928 -0.73621416 1.3693653 8.1145
64.9403 -0.20144874 1.2985152 7
65.181801 -13.772342 1.6967117 8.1494999
64.963287 -11.919773 1.692433 8.1440001
65.133011 -1.2628852 1.7622037 9.1274996
65.140381 -1.0980984 1.8535929 9.1303329
64.827492 -25.63662 2.3377521 8.1560001
64.962585 -15.231524 2.3976367 9.1424999
65.030289 -12.232954 2.3968236 8.1654997
64.816833 -1.3470527 2.3442328 9.1549997
65.145859 -0.52745491 2.3698997 9.1555004
65.135719 -0.038122725 2.195271 8.1680002
65.036766 -15.09323 2.4755454 9.1427498
65.180679 -12.579875 2.6732752 9.1545
64.853653 -11.392014 2.407259 9.092
65.057648 -2.3734365 2.5130525 8.052
65.133667 -0.5375486 2.4418497 9.1569996
65.167458 -0.053337686 2.4211576 9.1564999
65.128456 -14.712799 3.1736403 10.141
64.936424 -13.046021 2.9535444 9.1599998
65.018394 -11.62401 3.0497994 10.1405
64.979965 -10.978083 3.1357894 10.12825
64.855537 -0.82364577 3.1680145 11.128
65.14566 -0.5228067 3.0518143 8
65.174965 -0.24592459 2.8774145 9.1639996
64.964012 -14.175568 3.32078 10.152
65.054169 -13.822785 3.5310044 10.1535
65.05999 -12.981997 3.2545373 9.1637497
65.19278 -11.282624 3.3609025 10.1045
65.150703 -1.0625118 3.4147825 10.561251
64.998833 -0.69598591 3.3504686 10.1265
65.027985 -0.025546964 3.4149451 9.6208754
65.064659 -16.962721 3.7888827 10.054
65.037148 -16.779066 3.9960766 10.097
64.854118 -11.776285 3.7587855 11.1165
64.926247 -0.12885715 3.8392346 12.1315
65.145004 -16.938276 4.3932958 10.0855
64.814423 -25.887659 4.7734609 11.1535
65.16478 -16.9662 4.447453 10.0815
65.078545 -0.14088678 4.7424827 9.0135002
64.857674 -27.31658 4.9889302 12.144
64.83049 -27.099073 4.8570871 12.141
64.863663 -26.747746 4.8640518 12.1415
64.816933 -26.130163 4.9221749 12.144
65.130966 -16.824892 5.0501595 11
65.048828 -16.75915 4.9577374 11.105249
64.932884 -16.838905 5.4396119 12.1115
65.027435 -15.442068 5.2876902 9
65.069557 -19.040855 5.9629912 9.0159998
64.98526 -15.441975 5.6296635 9
65.090294 -22.624043 6.3487186 9.0310001
64.925346 -20.320093 6.1063199 9.0270004
65.00676 -16.780428 6.2528729 12.55625
64.949799 -16.856709 6.4820218 13.1115
64.967491 -15.368052 6.9452848 10
65.173561 -24.378466 7.2717652 14.1165
65.099274 -16.733232 7.5239849 12.539
65.057404 -26.370794 7.7991848 10.056
65.109489 -18.932735 7.6248813 10
64.877487 -18.030073 7.6882644 15.152
65.037323 -16.470713 7.6442847 13
65.131096 -16.385977 7.6397829 13
64.814522 -27.853266 8.0275936 15.119
65.086487 -22.551334 8.1458492 10.031
64.977768 -16.626215 8.3584023 15.112
65.040985 -15.267427 8.3878689 11
64.980148 -15.277552 8.7276373 11
64.858208 -27.774038 8.8335075 15.1135
64.801407 -16.931881 8.9582672 11
65.046051 -16.593048 8.9223795 13.692666
65.072266 -16.30164 8.9263649 14
64.892967 -29.890747 9.2081041 15
65.1175 -20.044735 9.5451965 11
65.022697 -18.847475 9.3167906 11
64.94268 -17.481813 10.371484 10.0075
65.056335 -16.537163 10.241567 14.389
65.074371 -16.303507 10.257712 15
64.957947 -15.210398 10.275284 12
65.135452 -15.159741 10.304471 12
65.138077 -16.69537 10.535404 14.078
65.003838 -15.233719 10.626904 12
65 -18.751652 11.044417 12
64.973038 -20.011518 11.361534 12
65.094521 -19.954029 11.29121 12
65.045319 -16.383001 11.584558 15.0855
65.082245 -26.155546 11.601297 12.056
65.016068 -22.407175 11.90461 12
65.080536 -22.364565 11.848036 12
65.035988 -16.37208 11.775044 15.0815
65.022095 -15.074368 11.887066 13
65.196678 -23.623867 12.218728 12
65.09063 -16.589523 12.066926 15.078
64.945755 -15.149088 12.09564 13
64.845436 -18.672453 12.719902 13
65.190933 -17.105009 12.72589 15.0725
64.857727 -23.996176 13.051062 13.0565
64.924286 -19.893087 13.094563 13
65.090385 -26.021177 13.524706 13.056
64.971542 -14.987091 13.510704 14
65.047485 -23.472788 13.997909 13
64.985016 -22.281557 13.774645 13
64.962517 -15.057782 13.766422 14
65.079697 -23.532257 14.145621 13
65.174355 -25.829605 14.701961 13
64.935913 -18.543079 14.563745 14.0082
64.926765 -16.501497 14.536123 15.065
64.986938 -19.775942 14.89719 14
64.967651 -16.946627 15.151034 13.01
65.088333 -14.909804 15.151188 15
65.05735 -22.1416 15.541584 14.0155
65.099709 -16.994116 15.520455 14.0115
64.96051 -14.960476 15.37175 15
65.113052 -23.356558 15.828851 14.021999
64.996544 -22.156809 15.75923 14.02
65.152618 -23.40617 16.107391 14
64.952721 -18.426924 16.247793 15
64.891891 -17.016125 16.159283 15.0235
65.017166 -19.681917 16.734056 15
64.969498 -18.531801 16.445089 15
65.176239 -26.94047 16.918198 14.0255
64.846909 -19.769106 16.803583 15
65.041267 -22.050257 17.455362 15.0155
65.008415 -23.278334 17.894079 15
64.89917 -22.120483 17.69117 15.013333
65.186073 -26.881575 19.02446 15.0255
64.805161 -16.916094 19.596548 14.0085
65.368622 -6.2851381 -1.2355629 5
65.597443 -0.69571608 -0.38857108 6
65.349014 -1.0435599 1.1634513 7.5374999
65.560318 -0.72035754 1.0538876 8.1245003
65.373352 -10.334996 1.3186401 8.0810003
65.202705 -2.1602199 1.5759262 8.1555004
65.350937 -1.8007125 1.5094416 8.1592503
65.358368 -1.3346686 1.4766006 8.1073132
65.319756 -1.0902768 1.5085775 8.1261005
65.427704 -0.72542948 1.4951823 7.5
65.50869 -15.40216 1.7890182 8.1394997
65.459999 -14.919541 1.7146457 8.1440001
65.471725 -14.793095 1.7014251 8.1464996
65.385925 -13.788629 1.7746092 8.1537495
65.410652 -11.123391 1.7961715 8.1584997
65.252213 -1.5734432 1.8516816 8.1680002
65.430603 -0.85599703 1.793093 9.1269999
65.361458 -0.70150888 1.9621015 9.1450005
65.395546 -0.31105414 1.9630934 9.1455002
65.53582 -12.353873 2.1294246 9.1164999
65.581619 -11.545882 2.3971579 9.1389999
65.559753 -0.97585404 2.3015549 8.1639996
65.36718 -0.64462173 2.0787508 8.1610003
65.377335 -0.8723706 2.5360813 9
65.241798 -0.53904885 2.4905031 9.1567497
65.249435 -0.51731753 3.0415399 8
65.479767 -14.499071 3.3441572 10.15
65.364677 -12.063495 3.278425 9.1625004
65.24791 -1.0533825 3.3140533 11.125333
65.359108 -0.27942741 3.4760048 10.157
65.418976 -12.554673 3.8581827 8.0480003
65.574005 -12.091899 3.8360872 8.0094995
65.393356 -0.45464277 3.9260592 12.1325
65.405533 -0.23719078 3.9246068 12.134
65.285591 -1.6063182 4.0776596 9.0544996
65.469017 -0.55694675 4.1846833 10.119249
65.475945 -23.939894 4.6781635 8.0354996
65.463776 -2.003541 4.6931496 9.026
65.506882 -1.2393614 4.7283096 13.1285
65.429237 -0.99489325 4.7163496 13.13075
65.32193 -0.47298929 4.6607013 13.130499
65.434029 -0.39602372 4.5221806 11.1565
65.280571 -1.4011834 4.9446855 13.1235
65.466118 -1.1075908 4.959156 10.6501
65.304115 -0.60167998 4.9240961 12.096251
65.297104 -15.419707 5.2915878 9
65.323883 -12.212401 5.2491074 9.0714998
65.241196 -19.0222 5.6746416 9.0500002
65.265427 -16.911373 5.9993935 12.109
65.239494 -15.40495 5.6337719 9
65.499413 -2.1298113 5.8667583 11.1215
65.487892 -1.8699867 5.895494 13.7995
65.46006 -0.47668362 5.8189545 10.0455
65.511345 -2.0601521 6.1230407 14.1485
65.475594 -1.9655643 6.1372571 13.636749
65.433006 -16.982065 7.1524587 13.778666
65.268051 -15.317379 7.009984 10
65.317505 -24.419598 7.2268405 14.118
65.242004 -24.423525 7.9100614 15.1205
65.215363 -20.103329 7.8138428 10
65.249535 -24.37044 8.1245823 15.118
65.395294 -16.971207 8.1622438 15.113
65.300194 -15.230456 8.3988047 11
65.355705 -17.25646 8.8053865 10.009
65.407578 -16.859741 8.8056173 14.1055
65.311798 -27.383429 9.2513485 10.039
65.378159 -17.05061 11.566118 12.012
65.273361 -23.594507 12.113389 12
65.58506 -28.181101 12.997687 12
65.240433 -23.450235 14.009604 13
65.39463 -25.847393 14.724654 13
65.569878 -28.04788 14.995076 13
65.218201 -23.348085 15.941984 14
65.433006 -25.580147 16.364697 14.0435
65.408165 -17.015482 16.126028 13.009
65.302086 -26.921284 16.719246 14.0345
65.55497 -27.934057 17.025219 14
65.414963 -26.870058 16.966494 14.0345
65.365494 -23.309458 17.275808 15.0485
65.215904 -23.285513 17.921301 15
65.380028 -23.189041 17.647709 15.044
65.562622 -27.860445 19.10531 15
65.382835 -26.809568 19.184261 15.039
65.43541 -26.798912 18.888783 15.03
65.59874 -16.794693 21.12784 15.009
65.717628 -5.1183658 -1.2932431 5
65.805832 -2.8104281 -1.4076833 5
65.755249 -0.89652383 -0.71402252 6
65.942375 -0.93780863 0.37215629 7
65.787827 -0.78721184 0.42817277 7
65.82238 -13.45869 0.94283485 7
65.870087 -0.9444679 1.1242219 7.3743339
65.99939 -0.7606256 1.0691105 8.0754995
65.991707 -0.29231235 1.1067331 7
65.626411 -2.0105641 1.5308753 8.1549997
65.708122 -1.7663593 1.5322976 8.1603346
65.816269 -1.2381778 1.2494851 7
65.912735 -15.146697 1.7322265 8.1435003
65.916496 -14.740741 1.7245699 8.1494999
65.826057 -11.790486 1.7637208 8.1455002
65.932472 -2.1136363 1.8799059 9.1230001
65.676292 -1.8294164 1.8259766 9.1176672
65.928345 -11.73425 2.376564 9.1000004
65.772194 -11.291851 2.2839301 9.1070004
65.900383 -1.5389744 2.2557588 9.1490002
65.834435 -0.74643278 2.1897984 8.1680002
65.843361 -14.181131 2.53193 9.1499996
65.668304 -12.484706 2.4369907 9.1359997
65.731415 -12.399032 2.4145992 8.0214996
65.819603 -11.128638 2.404139 9.1435003
65.879318 -0.84267384 2.5606952 9.1560001
65.800301 -0.73209852 2.5333705 9.4019995
65.7715 -1.294948 3.0939927 8
65.853691 -1.0110755 3.0671282 8.5369997
65.70874 -14.551282 3.2930439 10.142
65.607948 -12.763059 3.598547 10.154
65.818947 -0.48535106 3.3434277 8.0080004
65.684959 -11.825884 3.8515208 11.117
65.949829 -9.8432903 3.6483009 8.0495005
65.748772 -1.8230489 3.8753786 9.6159992
65.888123 -1.0863606 3.8295064 10.072
65.945076 -0.38492933 3.9659045 9.1680002
65.875877 -2.0628068 4.051496 12
65.892517 -1.8760526 4.0959716 12.047046
65.962753 -1.415109 4.0861554 12.13025
65.886864 -0.879062 4.1128659 11.446334
65.845497 -0.66050005 4.3995986 12.113
65.767929 -0.18796739 4.2873683 12.117333
65.69062 -1.6504015 4.6259503 9.0270004
65.735298 -0.88251686 4.7308908 13.1312
65.744972 -0.77828729 4.5322075 11.156
65.916031 -16.76832 4.8460479 11
65.804527 -2.9545197 5.0078597 9.5707502
65.738052 -1.0464813 4.9972477 11.4744
65.676224 -1.2879841 5.4272742 10.1155
65.776649 -1.017815 5.2169628 13.1175
65.932137 -0.53504336 5.3049436 12.1555
65.87001 -0.39144713 5.315383 12.636
65.80545 -16.733093 5.9624224 12
65.939728 -2.0810516 5.9038444 13.0795
65.863022 -1.8426059 5.8266854 12.794999
65.864769 -2.0502708 6.3889489 15
65.810577 -1.8262088 6.2648048 14.284658
65.612068 -1.586303 6.363616 12.161
65.978516 -0.78922814 6.0197334 10.0775
65.755356 -17.356882 6.4617591 11.0705
65.624222 -3.3748028 6.6186099 10.0255
65.726234 -1.8675896 6.4936776 14.2621
65.854492 -16.703102 7.1082816 13
65.987007 -2.2413328 6.9892097 13.0805
65.921082 -24.345304 7.4653764 14.114
65.992783 -16.986084 7.5253048 13.1075
65.679604 -24.311262 7.6396575 13.159
65.924271 -2.0305953 7.9406095 12.0535
65.734787 -16.657148 8.2418919 14
65.872116 -24.311216 8.6001663 15.113251
65.817825 -17.210506 8.7436161 10.0095
65.879463 -24.360699 8.9011955 15.1555
65.893112 -16.624504 10.413549 14.082
65.627159 -28.34313 11.028813 11
65.703499 -17.171354 11.308071 14.0705
65.631218 -17.120384 11.750048 12.0115
65.663284 -17.06197 12.918601 14.0425
65.807549 -17.099804 13.397595 12.0095
65.779915 -16.96781 14.446793 14.024
65.887398 -16.840591 21.990721 15.009
66.035484 -5.4668045 -1.280381 5
66.056435 -3.2262247 -1.3861805 5
66.097832 -8.0321293 -1.1229616 5
66.298508 -1.925583 -0.80062139 6
66.349258 -1.8776095 -0.66425425 6
66.326874 -1.4082719 -0.33587924 6
66.236206 -0.19090083 0.34314957 7
66.231934 -0.25397876 0.42698672 7
66.151131 -2.3011198 1.1056635 8.1230001
66.213425 -10.583961 1.3002493 8.0869999
66.094948 -2.0675189 1.4841208 8.0784998
66.06839 -1.877695 1.4803108 8.1043329
66.337204 -1.4321023 1.525124 8.1540003
66.120514 -0.62964618 1.3065616 8.0725002
66.080406 -0.33130249 1.2545419 7
66.127022 -14.605028 1.7310103 8.1479998
66.232567 -1.842216 1.8893532 9.1219997
66.05423 -11.040234 2.1846611 9.1210003
66.241425 -1.6485224 2.0038834 9.1370001
66.108978 -0.13210666 2.0681894 8.1680002
66.097702 -14.236675 2.4881971 9.1444998
66.20507 -13.076538 2.7730479 9.1555004
66.280098 -1.660658 2.522119 9
66.164101 -1.1376495 2.7785335 9.1610003
66.369286 -0.26087591 2.4240386 9.1534996
66.243561 -1.0505407 2.996917 9.073
66.358589 -1.2648547 3.3340113 9.1669998
66.355644 -0.9327535 3.3456531 11.133
66.373314 -4.0624714 3.855505 9.1595001
66.382637 -0.025139078 3.7698107 8.0080004
66.097359 -1.7058104 4.0755429 12
66.131287 -1.4026338 4.1389875 12.1275
66.154388 -0.93633765 4.1053066 12.129
66.216942 -0.68952972 4.1135144 11.637001
66.038361 -0.8332212 4.4175482 11.1555
66.101486 -17.257851 4.8307376 11.111
66.021935 -16.93055 4.9207659 11.1095
66.153831 -16.757032 4.9878755 11.071667
66.160355 -2.1013997 4.925302 11.669666
66.214684 -1.8271859 4.9088941 13
66.317017 -1.427786 4.9920917 11.002875
66.326607 -1.083336 4.9680805 9
66.197144 -0.52627927 5.1357832 12.521799
66.250603 -16.300919 5.4066863 9.0515003
66.253555 -3.4968586 5.3283229 10.146
66.066933 -2.6176946 5.3022318 10.116
66.240059 -2.3557148 5.3478084 10.1165
66.181404 -1.7837353 5.5524802 11.6385
66.22216 -1.4319925 5.4549541 10.583
66.324547 -0.86567324 5.2338662 10
66.239677 -0.68348604 5.3240423 11.0645
66.106491 -16.696522 5.9913273 12
66.328949 -16.221495 5.7575316 9.0469999
66.302597 -2.1978886 5.8361592 14.099375
66.206116 -1.7932209 5.720274 13.762601
66.30043 -1.5074006 5.7904067 12.5182
66.171112 -0.76297754 5.9670653 10.0775
66.150848 -17.024681 6.3848782 13
66.103027 -16.696285 6.2476091 11.02125
66.039474 -3.200094 6.0423789 10.0255
66.265396 -3.0741196 6.0180407 10.052
66.302811 -2.5093329 6.0100727 12.1585
66.312492 -2.3233168 6.0179529 13.153
66.078156 -1.7132832 6.1302719 11.382751
66.295052 -1.4288282 6.1652932 13.7075
66.11129 -16.994633 6.4182844 13
66.087967 -16.561968 6.6644406 14.11875
66.199181 -3.2630529 6.6396699 10.02625
66.249451 -1.7300534 6.6247754 14.250409
66.274055 -1.5380306 6.5675349 13.5805
66.001785 -24.413254 7.1246419 13.157
66.069519 -16.929914 7.1175284 14.114
66.087547 -16.602604 7.0856857 14.296
66.216034 -3.4974651 7.1819758 11.116
66.086136 -2.111347 6.9672699 11.5855
66.158745 -1.7671593 6.8848805 13.60675
66.36319 -1.3360031 6.8536854 15.1455
66.260078 -24.411251 7.2833614 14.12
66.093445 -16.968149 7.3760543 14.037833
66.082314 -16.70981 7.4645333 14.075166
66.083168 -16.606651 7.8915453 15.115749
66.077782 -16.393635 7.6693869 15.118
66.173126 -2.4725323 7.7176924 11.0765
66.052376 -16.912403 8.2230434 15.113667
66.127686 -16.665045 8.3948441 15
66.109024 -16.914255 8.4391918 15
66.106812 -16.77878 8.4220304 15.113
66.226006 -16.083248 8.5983524 11.0515
66.295914 -16.01338 8.9467411 11.047
66.047745 -16.493237 10.239052 15.1045
66.106285 -16.806499 10.764745 15.1
66.202492 -16.375561 11.164385 15.0945
66.189598 -16.092192 12.231609 13.038
66.301628 -15.854914 12.205988 13.047
66.071465 -17.183626 12.626325 15.0755
66.015358 -16.052929 12.557137 13.0425
66.215378 -15.770065 13.497569 14.0515
66.028297 -17.2118 13.819668 11.004
66.328018 -17.056217 13.988529 13.0115
66.198105 -15.833874 13.868618 14.0425
66.010246 -15.984215 14.232813 14.0425
66.282967 -17.044064 14.553733 13.011
66.120293 -16.46806 14.760669 15.0655
66.369415 -16.931555 15.477698 14.0125
66.296791 -16.612144 16.354467 15.0685
66.158379 -16.916584 16.467272 14.011
66.164444 -16.903961 18.635567 15.011
66.696091 -4.5534787 -1.3128912 5
66.480751 -4.1225171 -1.3355265 5
66.713837 -1.6384512 -1.3194017 5
66.617859 -1.2974916 -1.263172 5
66.72654 -1.645129 -1.1853828 5
66.519241 -4.0156941 -0.52766067 6
66.520432 -3.868216 -0.50396043 6
66.65612 -2.2430696 -0.63811022 6
66.571892 -1.6154389 -0.66092229 6
66.657883 -1.5087095 -0.62130511 6
66.539909 -0.85059142 -0.70531416 6
66.72467 -0.52320355 -0.60816163 6
66.636848 -1.9201828 -0.15044586 6
66.43602 -1.4019363 -0.22575088 6
66.638397 -0.050766539 0.34563118 7
66.472359 -0.30524287 0.57157075 7
66.767365 -13.794354 0.85429847 7
66.596588 -13.375334 0.8526665 7
66.72847 -0.63646764 1.1542357 7
66.421486 -15.169545 1.7215116 8.1420002
66.695 -1.391976 1.9511878 9.1415005
66.423477 -1.0153315 1.8438621 8.1654997
66.631424 -0.52511269 1.9378885 8.1265001
66.612396 -11.225339 2.2055321 9.1199999
66.428291 -1.9130356 2.0308797 9.1429996
66.620659 -1.468586 2.0396404 9.1435003
66.676483 -0.51846564 2.3488836 8.1645002
66.477898 -0.93899536 2.6164296 10.133
66.54467 -0.65001529 2.509572 9.1564999
66.778732 -0.25514483 2.4055316 8.0764999
66.569252 -1.0058408 2.8486943 8.0775003
66.451859 -0.36844283 3.0863252 8.0124998
66.740669 -0.95476025 3.396987 10.641251
66.628128 -1.25425 3.6080699 10.077499
66.624298 -1.0777884 3.7299924 10.1545
66.607635 -1.407817 4.2258949 11.138667
66.464912 -0.47763667 4.0841031 9.1645002
66.713676 -0.15831463 4.3419414 11.1005
66.709106 -1.6763476 4.5593944 12.11625
66.442406 -1.3492575 4.5276299 10.716
66.640373 -0.92349988 4.4930177 11.650499
66.729637 -0.68265027 4.7464705 9.0270004
66.603668 -16.992538 4.8482609 11.1115
66.668587 -2.470242 4.8571606 9.0264997
66.585503 -1.8039308 5.0496302 13
66.610435 -1.3513427 4.9561896 9.0195007
66.483063 -0.42826879 4.9595551 9
66.653465 -4.70715 5.3961964 10.1455
66.639313 -3.1936765 5.5783267 10.115
66.747704 -1.7518737 5.4660435 12.817375
66.583725 -1.3795583 5.3579388 11.8456
66.633591 -1.1192124 5.4201813 12.744332
66.406128 -0.73088574 5.3778625 10.1165
66.539482 -2.177562 5.8469176 11.569
66.625443 -1.6804307 5.8364906 12.659644
66.616959 -1.5050975 5.7678428 13.59225
66.557175 -1.0270469 5.6961827 13.968334
66.433418 -0.16342191 5.9190784 11.0685
66.564209 -2.1823201 6.0187359 9.0090008
66.675758 -1.6776522 6.1545043 12.5066
66.778175 -1.488919 6.0100131 11.075
66.720078 -3.0677021 6.7116442 10.026
66.602081 -1.7166804 6.5516481 13.456584
66.715889 -1.5231955 6.5939012 15.06425
66.7714 -19.489758 7.1733198 15.136
66.475967 -16.861622 7.0734744 13.1115
66.568665 -3.73733 7.110405 11.146
66.654449 -2.1796374 7.1058831 11.5465
66.414558 -1.9618971 6.9289079 14.1525
66.707039 -1.5071661 6.9464912 15.124001
66.781158 -3.2379158 7.2124147 11.116
66.777061 -1.5886848 7.292244 14.154
66.574432 -17.371513 7.6951241 9.0054998
66.66037 -1.8384215 7.8535972 11.5655
66.589081 -16.795935 8.8303595 14.108
66.498207 -16.71973 10.554371 15.1025
66.668633 -17.004818 11.113519 12.542749
66.579353 -16.601618 11.482971 15.0905
66.582649 -16.108267 12.348619 13.0335
66.781487 -16.875113 12.657414 15.076
66.788544 -16.845854 16.735554 15.015
67.036858 -5.4757528 -1.2595031 5
66.987549 -1.9431324 -1.320159 5
67.063675 -4.2371798 -0.3905108 6
67.001236 -0.54149729 1.1503108 7
67.150482 -0.12257696 0.99662459 7.55725
67.166534 -1.4030583 1.5673962 8.1542501
66.974602 -1.0857191 1.5769684 8.1604996
66.906113 -0.61975569 1.5867921 8.1615
67.106812 -1.6597722 1.7151214 8.1665001
67.025879 -1.4614555 1.8107584 8.0819998
66.872604 -0.6307534 2.120398 8.16675
67.067627 -0.11897768 2.0901232 8.1674995
67.163681 -1.3668873 2.5313354 9.1549997
67.062195 -0.7732631 2.5411994 9.1549997
66.947411 -0.30751702 2.6245568 9.1575003
67.111763 -1.4458783 3.564153 9
67.020393 -0.83041841 3.5592928 10.0625
66.935844 -0.18302622 3.4086711 11.134
66.888489 -18.60577 3.9183252 9.1280003
67.09156 -0.95849913 3.999608 11.149
66.937408 -0.34739873 3.7619288 11.1465
66.988327 -11.562165 4.0971246 8.0450001
66.912361 -2.1502962 4.3798685 11.1535
66.847824 -0.27717337 4.2900248 12.127
67.145828 -17.491739 4.4271288 8.0059996
66.881775 -3.6559305 4.7761178 9.0264997
66.986313 -2.1582429 4.4852924 11.758916
66.983307 -1.8059797 4.5785074 11.041667
