# .PCD v0.7 - Point Cloud Data file format
VERSION 0.7
FIELDS x y z intensity
SIZE 4 4 4 4
TYPE F F F F
COUNT 1 1 1 1
WIDTH 1235
HEIGHT 1
VIEWPOINT 0 0 0 1 0 0 0
POINTS 1235
DATA ascii
68.356903 -72.757858 5.6919708 10.143
68.195778 -73.264488 6.3470492 9
68.106308 -73.124115 6.3651643 9
68.217354 -73.264008 6.5868483 9.6439991
68.138756 -73.080826 6.5853877 9.3167
68.293404 -72.656158 6.7617774 9.3908339
68.086197 -72.374245 6.6872783 9.165
68.38385 -71.804214 6.7928424 9.1794996
68.141228 -70.999825 6.7999043 9.1704998
68.267982 -73.724205 6.8656321 9.1634998
68.177742 -73.374374 7.0539074 10.07225
68.091515 -73.009583 7.0554323 10.57575
68.147865 -72.624229 7.1223922 10.839687
68.207375 -72.31765 6.9895768 10.370001
68.291679 -71.876389 6.843514 9.1765003
68.087181 -71.49456 6.8267989 9.1735001
68.318382 -71.103348 7.0314403 9.1759996
68.183167 -89.924141 7.2370677 10.1185
68.194153 -74.471123 7.4541631 10.58375
68.185135 -73.745049 7.3893375 11.084249
68.198227 -73.00563 7.3633542 10.742667
68.267929 -72.575432 7.3404789 10.41375
68.206863 -72.201881 7.3238592 11.495501
68.256538 -71.779198 7.4334421 11.368899
68.14521 -71.29657 7.4959106 10.058333
68.117203 -74.104195 7.7841067 11.167
68.338112 -73.47065 7.7116461 10
68.299797 -73.064072 7.8300843 10.195667
68.112358 -72.537468 7.7026057 11.109
68.348122 -72.351906 7.9543538 11.5625
68.25531 -71.915512 7.9336429 13.144
68.277916 -71.350723 7.7731919 11.327625
68.171631 -71.025124 7.8296275 10.58675
68.089455 -89.806564 8.2263479 11.1135
68.249107 -88.089325 8.0827169 11.117
68.194199 -73.694481 8.1858616 12.047168
68.230156 -73.41259 8.2226248 11.886534
68.243179 -73.00045 8.2439508 11.384917
68.296715 -72.598793 8.2431259 11.6636
68.310471 -72.200546 8.1860571 11.73395
68.296631 -71.492256 8.0080023 13.149
68.165863 -73.505981 8.6996117 10.177
68.181816 -72.984123 8.4415522 12.101199
68.281616 -72.644058 8.7102642 10.3006
68.273399 -71.999168 8.7542505 10.1685
68.282066 -70.886414 8.6140604 10.129126
68.237686 -70.632881 8.6204596 11.293
68.055367 -85.614639 9.0132122 10.0985
68.369873 -74.044151 9.1650572 12.609249
68.260712 -73.738617 8.9805441 11.625999
68.351707 -73.46386 9.1626329 14
68.28009 -72.945526 9.010231 12.145833
68.15345 -72.567604 9.0374546 12.58175
68.271538 -72.217232 9.0518522 13.2336
68.214668 -71.775566 9.0190725 13.0395
68.191299 -71.322021 8.994216 11.916749
68.183754 -71.03244 9.0351429 12.131
68.323135 -70.61779 9.0752897 12.449
68.178474 -70.34623 9.0654039 11.0045
68.389565 -89.298622 9.4227371 12.112
68.373886 -85.230179 9.2055922 10.099
68.146843 -85.051483 9.4386759 11.1035
68.174065 -74.559128 9.5857868 14.162
68.312309 -74.156258 9.480566 12.553801
68.193558 -73.70713 9.4385738 13.121699
68.135895 -73.413757 9.4087658 12.871344
68.234261 -73.016411 9.4432383 12.042471
68.180489 -72.566368 9.4030266 13.27
68.142509 -72.133331 9.3676176 12.789084
68.14447 -71.748718 9.4611359 13.1615
68.215569 -71.382736 9.3521824 13.790126
68.268295 -71.013847 9.4420652 13.579688
68.265678 -70.734673 9.436656 14.77225
68.306015 -70.36644 9.2475615 12.171
68.074333 -74.591179 9.8027859 15.1235
68.289047 -74.176437 9.6960392 14.794833
68.287727 -73.85363 9.7093096 14.891624
68.105988 -73.457047 9.6842585 13.5043
68.224319 -73.134888 9.6702595 15.089124
68.122131 -72.140778 9.8358536 13.6105
68.21891 -71.863243 9.9166307 13.10825
68.03743 -71.421112 9.6125574 13.410667
68.07148 -71.026093 9.8170624 13.626625
68.176163 -88.071228 10.018118 10.096
68.17981 -87.287621 10.197091 13.113
68.362671 -84.757202 10.395012 10.096
68.009613 -73.320976 10.190403 13.1085
68.155983 -73.183006 10.070717 13.109
68.111206 -71.842087 10.150271 13.87275
68.198227 -85.68718 10.686172 10.091
68.055244 -84.829247 10.681235 13.111501
68.266533 -84.634331 10.560808 13.465
68.233955 -87.448463 10.911876 11.6015
68.259827 -86.504951 10.91797 12
68.160851 -85.892586 11.062473 13
68.203972 -84.67543 10.997601 12.101833
68.149734 -87.201279 11.481651 11.0975
68.260674 -86.03994 11.302417 12.60475
68.153763 -85.802498 11.444417 13.605749
68.182434 -84.839973 11.312453 14.109
68.225121 -84.527214 11.39808 13.578625
68.313072 -84.145279 11.561127 15.1225
68.182465 -86.613174 11.752129 13.605249
68.395241 -85.851646 11.65633 12.102
68.053993 -85.180473 11.735116 15.1215
68.391357 -84.450691 11.672894 13.1035
68.164497 -88.196754 12.102203 11.0975
68.058617 -85.644424 12.20571 13.103
68.093613 -85.451256 12.2477 14
68.248207 -88.393883 12.547681 12.101
68.218765 -86.403671 13.169381 11.0965
68.184509 -85.793724 13.419583 13
68.097061 -85.642937 13.604424 15
68.726067 -82.374611 2.9683328 7
68.695694 -82.797791 4.5385661 8.1164999
68.740334 -72.30088 4.6740007 8.1687508
68.506523 -72.421837 4.8245506 8.0115004
68.660225 -72.183708 4.8925414 8.5764999
68.766785 -73.638565 5.2184529 9.1114998
68.49942 -73.489708 5.2893691 8.0045004
68.486778 -72.967186 5.3693275 9.1099997
68.78112 -87.915504 5.9136434 8.1789999
68.530708 -73.046974 5.782515 9.6061249
68.6418 -73.384872 6.3498216 9
68.677124 -72.927605 6.358335 9
68.652702 -64.443092 6.0190201 11.122
68.602264 -74.667137 6.7479944 9.0022497
68.738495 -73.740799 6.5670195 10.083273
68.622009 -73.397034 6.639215 10.10625
68.659019 -73.104904 6.6850104 10.084
68.442467 -72.52993 6.5955563 9
68.637985 -72.090752 6.6719222 9.0574999
68.636024 -71.804649 6.7649593 9.0830002
68.761147 -68.170753 6.6159368 9.1737499
68.628471 -74.446625 7.0805259 11.1645
68.715172 -74.275848 7.0120883 10.166
68.638229 -73.813675 6.9317451 9.4464998
68.555412 -73.458672 6.9713869 9.5858746
68.778572 -73.175499 7.0172286 10
68.438202 -72.492737 7.0550928 10.1745
68.599434 -72.128021 7.0813494 9.7823334
68.69101 -71.84993 6.9718642 9.7799997
68.433517 -71.438622 6.9020119 9.1745005
68.766762 -68.534286 7.1578345 11.1735
68.794022 -74.496544 7.27068 11.11
68.420357 -74.129875 7.5565434 12.155
68.791206 -73.603622 7.3140454 10.1755
68.680199 -73.39753 7.322896 10.58875
68.612206 -73.104485 7.3664427 10.00175
68.463722 -72.682312 7.2215381 9.0015001
68.609215 -72.142799 7.3315778 11.0637
68.639015 -71.65995 7.2624865 10.502
68.474129 -71.483437 7.3766518 9.0037498
68.617722 -88.555122 7.9949632 9.1709995
68.692093 -88.109627 7.6471729 9.165
68.626488 -87.399597 7.67733 9.1669998
68.421738 -74.229301 7.8391399 12.1625
68.468636 -73.753128 7.8460212 11.388333
68.609306 -72.97438 7.9170713 10.369834
68.525421 -71.43103 7.8303394 10.144143
68.64904 -73.986809 8.1944723 13.137
68.619469 -73.341942 8.1943569 13.082166
68.541862 -73.024353 8.1671114 10.916062
68.556023 -72.511536 8.2441578 11.3915
68.610931 -71.625427 8.0689726 13
68.667564 -71.477188 8.1919041 11.389999
68.419907 -71.149643 8.3101664 10.004
68.410522 -85.370972 8.7348814 12.1165
68.51062 -84.930397 8.6060534 12.1435
68.537643 -73.758591 8.6535664 10.584
68.6147 -73.444397 8.6858845 11.54125
68.661392 -72.96331 8.6913805 10.083
68.556091 -72.626846 8.6141033 10.75475
68.540108 -72.243843 8.631196 10.08375
68.599831 -71.773666 8.758028 12.084999
68.579674 -71.406494 8.6057005 11.1019
68.554596 -71.002266 8.6516657 11.067999
68.709427 -85.376846 8.9558229 10.098
68.796173 -85.009247 9.1167574 10.0995
68.543617 -74.055794 9.1722383 11.0015
68.570419 -73.681602 8.9603586 12.355625
68.586617 -73.394508 9.0649042 13.912358
68.643074 -73.025673 8.9479933 11.77525
68.578987 -72.61512 8.9919205 12.290584
68.774391 -72.304115 8.9696398 14.148
68.759865 -71.712898 8.958004 13.05475
68.6595 -71.422577 8.9242506 13.82875
68.690742 -70.973923 8.8585052 14
68.400291 -70.30423 9.0513525 13.1715
68.660316 -86.008629 9.5569611 10.1005
68.725128 -84.891502 9.490777 12.052
68.698303 -84.771706 9.5524435 13
68.622681 -74.113045 9.2944822 14.155
68.501297 -73.877846 9.4168625 12.02625
68.526642 -73.506386 9.2770796 13.632875
68.500603 -72.985107 9.3672419 12.467357
68.552292 -72.703682 9.3113756 11.794333
68.553802 -72.212914 9.3490839 13.058001
68.474228 -71.661736 9.3961229 11.5865
68.435898 -71.05159 9.339138 13.798416
68.45295 -70.456635 9.4424982 14.114
68.456474 -70.288734 9.3253736 15.1345
68.738152 -85.997993 9.6290751 10.0995
68.727196 -74.46479 9.6637678 13.168
68.614944 -74.35144 9.7577944 12.905416
68.481201 -71.946381 9.8965197 13.11
68.424126 -71.460365 9.7487774 11
68.4021 -71.013809 9.6385479 14.1125
68.595985 -89.139969 10.203102 10.0995
68.740837 -86.112068 10.275966 10.0965
68.465546 -87.102745 10.772736 12.1025
68.462769 -85.342628 10.539477 13.1075
68.774963 -84.175354 10.584283 10.0955
68.418999 -87.541252 10.901461 11.101
68.572884 -84.604034 11.002619 11.433999
68.417793 -84.27668 11.038882 12.104
68.505531 -86.832123 11.281852 14.1135
68.426315 -86.709541 11.227279 12.103
68.432556 -84.402679 11.434897 15
68.544716 -84.226669 11.384908 13.6891
68.729065 -83.843483 11.456633 13.396643
68.476433 -85.869102 11.679719 13.103
68.51329 -85.371483 11.65959 13.616
68.650726 -84.861183 11.854232 15.117
68.655792 -84.643524 11.721442 15.12275
68.571632 -84.095749 11.67018 15.1175
68.698936 -83.991905 11.700264 13.104
68.441452 -86.506615 12.73385 12.101
68.53717 -83.954994 13.163003 9.0244999
68.743881 -84.544258 14.222269 9.033
69.139473 -73.958923 2.803062 6
69.101883 -82.965759 3.5593629 7
69.024475 -69.366539 4.3011742 8.0192499
69.088005 -73.285889 4.7623758 8.1680002
68.846779 -72.430336 4.6815314 8.1704998
68.915092 -71.862328 4.6642823 8.1702499
68.809631 -70.368675 4.4284649 8.0045004
68.802757 -69.002937 4.6737647 8.0050001
68.955711 -68.57798 4.4517865 8.0050001
68.966278 -73.417305 5.016192 9.1344995
69.016762 -72.45507 5.0203929 9.1525002
69.012253 -72.202843 5.0311446 8.8599997
68.923691 -71.839149 4.9632392 8.6545
69.125175 -70.322617 4.8311453 8.0039997
69.035767 -73.103249 5.2212653 9.1639996
69.131172 -72.112099 5.2039518 9.1114998
69.117989 -71.901253 5.2045922 9.1674995
69.143791 -72.719307 5.7891397 10.135
69.081123 -70.663597 5.9326782 9.17875
69.190071 -71.639755 6.3504176 9
69.156265 -71.554001 6.282712 9
69.155785 -70.912254 6.0023317 10.1665
69.117538 -70.542793 6.0288544 9.1700001
69.083603 -68.273857 6.3010783 9.0063753
68.983971 -73.818214 6.7205296 9.0030003
69.004333 -73.429138 6.6786838 10.133834
68.866356 -72.97963 6.553637 10.1695
68.978096 -72.145203 6.6708436 9.2922497
69.077141 -71.758049 6.6277752 9.7864094
69.04245 -71.390106 6.61133 9.2706871
69.149872 -71.0252 6.6805444 9.0563326
69.057045 -70.583344 6.547451 9.7185011
69.163979 -69.401398 6.697526 11.165
69.168617 -68.973213 6.5660744 9.3382502
69.102951 -68.551666 6.6320214 10.37625
69.064095 -68.257309 6.5295138 9.5877495
69.144951 -67.960663 6.4784718 9.5897503
69.105255 -67.389961 6.5011835 9.0039997
68.858131 -62.923557 6.6471581 11.1755
69.117416 -62.598522 6.7573872 11.1775
68.956093 -75.214523 7.0956674 11.1615
68.976089 -74.874947 7.1127391 10.664749
68.94355 -74.565208 6.9230103 9.0009995
68.949913 -74.086372 6.9544792 9.3354998
68.949203 -73.713593 6.8395362 10
68.935677 -73.436119 7.0458813 10
68.854248 -73.085457 6.8140645 10.1065
68.804291 -72.335152 6.8573308 9.0024996
69.131729 -71.72229 6.9267869 10.817166
69.177589 -71.391357 7.0925107 10.085
69.132401 -70.989189 6.9078135 10.834666
68.974983 -70.674332 6.9187441 10.641001
69.191689 -68.982872 7.1490402 12.148
69.067184 -68.662254 7.0530434 10.875001
69.030899 -74.873955 7.5046034 12.1405
69.032524 -74.564056 7.4999137 12.136666
69.093498 -74.204971 7.3847346 11.482501
69.008774 -73.830566 7.3732052 11.479584
68.957458 -73.430328 7.2350955 9.6678333
68.957649 -72.522995 7.3021908 10.4926
68.988243 -72.271751 7.3062778 9.7814999
69.062912 -71.765778 7.2867126 9.060833
69.166237 -71.427223 7.3467064 10.56
69.100868 -70.603828 7.2119503 12.1415
69.034096 -68.848602 7.2286582 12.1525
68.917862 -68.619141 7.296741 11.174
69.104752 -73.883026 7.9186702 10.002
69.06691 -73.011612 7.867115 12.164
69.02449 -89.20929 8.3004856 11.1125
68.944092 -84.925545 8.1775532 9.0739994
69.190346 -74.005341 8.3491058 13.146
68.916153 -73.721268 8.3349228 10.003
69.11821 -73.594353 8.395956 11.1735
68.936264 -73.104576 8.251853 10.5
69.061516 -72.104149 8.3184357 11.58075
69.030518 -71.789528 8.2733049 10.888833
69.026337 -71.483307 8.2120609 10.723
69.120071 -85.477341 8.5961657 9.0629997
69.032837 -74.155289 8.723588 12.084
69.015831 -73.799675 8.6394939 11.782001
69.015976 -73.328026 8.6571445 11.086874
68.827316 -72.957542 8.7170811 13.164
69.068863 -72.598114 8.6047831 11.809251
68.960014 -72.15992 8.6712856 12.6675
69.033669 -71.775497 8.5673895 11.8547
69.068062 -71.40213 8.4168873 12.171
69.181816 -87.765602 9.1658554 12.124
68.970016 -74.843536 9.0705433 13.65225
68.991066 -74.524162 8.9682178 12.3269
69.036591 -74.18364 9.0585155 13.3552
69.05677 -73.716248 8.9774103 13.812833
68.915375 -73.440811 8.909008 12.4905
69.065536 -73.025528 8.984273 13.89
69.013489 -72.688927 8.9522934 13.126499
69.031212 -71.789398 8.8563271 13.797668
69.01722 -71.327087 8.9278259 13.62425
69.031601 -87.060753 9.3789396 11.103
68.961914 -74.949547 9.4443455 13.66025
69.001518 -74.589279 9.4333763 12.443667
69.091728 -71.815948 9.4913292 12.390332
68.991745 -70.833794 9.370245 14.115
69.102699 -85.82016 9.973774 13.119
69.11554 -85.147385 9.860117 13.1195
69.105759 -74.651726 9.7790213 11.584749
68.876411 -74.172638 9.8322449 13.3638
69.034088 -73.936913 9.6695185 13.084249
69.063339 -71.703804 9.7077065 13.669
69.198128 -85.2397 10.073802 13.1515
68.995567 -83.6185 10.184237 10.096
68.966209 -74.466377 10.064751 12.116166
68.958252 -74.321259 10.024389 15.1455
69.119171 -71.994453 10.192895 14.1115
68.801651 -86.048874 10.703178 11.1015
68.983559 -85.337051 10.615161 11.1015
68.883354 -85.005501 10.538517 13.05175
68.933151 -84.685982 10.566088 12.1115
69.054207 -84.092003 10.576518 14.1445
68.946968 -83.734268 10.682392 13.369499
69.013046 -83.467369 10.592039 12.9895
68.995964 -84.939735 10.942202 13.584001
69.16346 -84.690826 10.944153 14
68.845551 -84.136093 11.046299 11.099
68.982422 -83.723999 10.929132 11.1005
68.852646 -83.513725 10.949053 12.1045
68.84549 -84.796165 11.544506 15.1345
68.974289 -84.229294 11.528683 15.0675
68.948235 -83.868629 11.470695 13.792832
68.932846 -83.538826 11.524499 15.12525
69.041107 -86.015633 11.692364 11.0985
68.971558 -85.730095 11.910347 13.61425
69.023819 -84.505211 11.881786 14.579
68.910851 -84.189514 11.698209 15.082166
68.928406 -83.745934 11.639858 14.614
69.043182 -86.954674 12.304827 11.0995
69.005348 -85.707481 12.080268 13.605
69.07061 -85.439613 12.001796 15.122
69.01712 -84.903824 12.072571 15.115
69.179573 -84.793556 12.171883 13.104
69.172218 -88.173073 12.579336 12.1015
69.056946 -87.28241 12.545659 11.1005
68.960823 -86.843224 12.527012 12.1015
69.129463 -87.431114 13.081588 12.101
69.173882 -87.162674 13.042946 13.1035
69.102638 -87.10955 13.283076 13.1035
69.225586 -82.95842 3.6064031 7
69.493874 -68.657303 4.3830314 8.0255003
69.461235 -82.728363 4.6172004 8.1134996
69.54689 -73.755188 4.4051232 8.1654997
69.221085 -72.009155 4.6377468 8.1704998
69.344597 -71.850327 4.4991531 8.0039997
69.561043 -71.42717 4.7894607 8.0019999
69.457138 -70.84494 4.7002459 8.0045004
69.47451 -70.004776 4.7871847 8.0035
69.375862 -69.797279 4.5589828 8.0045004
69.424904 -69.147346 4.427793 8.0310001
69.342712 -68.434677 4.4695563 8.0240002
69.442505 -68.277008 4.6181498 8.0089998
69.514076 -67.666718 4.5700097 8.0139999
69.324005 -67.224533 4.5625105 8.0150003
69.405296 -72.573273 5.0279722 8.0601664
69.42807 -72.20005 5.0954022 8
69.445045 -71.802658 4.9981852 8.6445713
69.420837 -71.542831 5.0018077 8.6569996
69.592216 -71.165382 5.0314636 8.177
69.208359 -70.671829 5.0461154 8.1774998
69.482521 -70.102318 4.9234004 8.0004997
69.33902 -73.109383 5.52566 9.1099997
69.374619 -71.883316 5.4986525 9.1107502
69.342163 -73.906181 5.9723926 10.1555
69.488182 -71.903252 5.8347855 9.8303328
69.558968 -71.3853 5.7992578 9
69.567192 -70.687546 5.9470229 9.0024996
69.40287 -73.69709 6.031703 10.16
69.35247 -73.214172 6.1849332 9.5837498
69.353195 -72.559685 6.1205578 9.0588331
69.295883 -72.22345 6.1267791 9
69.52813 -71.802109 6.1208749 9.0012493
69.340324 -71.420067 6.2561245 9.569375
69.539482 -70.965263 6.0003467 9.1704998
69.269661 -70.470093 6.0362291 9.0035
69.56118 -69.669769 6.1452298 9.0044994
69.520973 -69.287666 6.2923498 9.00525
69.402916 -68.995377 6.2658405 9.2976246
69.425873 -68.578407 6.2943935 9.3951664
69.335762 -73.532379 6.572546 11.1255
69.376274 -72.813148 6.5473633 11.129
69.414925 -72.633392 6.5923429 10.941401
69.415802 -72.213013 6.4989586 9.7158327
69.334328 -71.828163 6.6771679 9.7681665
69.207985 -71.548714 6.4758959 9
69.360558 -70.906601 6.7216263 9.0854998
69.257805 -70.540497 6.5664368 10.65825
69.479515 -69.766968 6.6187892 10.085
69.418671 -69.378716 6.5455999 10.125501
69.313194 -68.968651 6.5537939 9.9338999
69.392349 -68.622162 6.4969673 9.9400997
69.317436 -68.241966 6.5902996 9.8382502
69.525833 -67.808952 6.6453075 9.1378002
69.38842 -67.236572 6.5638294 9.0019999
69.486534 -74.422813 7.0326138 9.1780005
69.327072 -74.157005 7.0755897 9.1719999
69.214783 -73.29174 6.8906984 10.1085
69.272606 -72.179405 6.9511538 10.168
69.257256 -71.523666 6.9484534 10
69.361977 -71.004669 7.0518899 10.172
69.400162 -70.001862 6.8764091 11.1675
69.385735 -69.114128 6.922821 11.488334
69.229309 -68.682983 6.938385 10.174
69.546013 -68.097908 6.9325848 10.506833
69.518585 -67.876213 7.134696 10.717
69.442703 -67.360535 7.0038409 10.088125
69.514801 -89.839005 7.2333188 10.1125
69.537956 -74.990402 7.4217062 10.166
69.429092 -74.532623 7.4355721 10.173
69.22377 -74.300934 7.2883692 10.1675
69.413383 -72.032524 7.3363633 9.0039997
69.313492 -71.763924 7.3000426 10.439
69.293221 -71.361832 7.2915835 12.14275
69.373848 -71.012375 7.2781768 12.141167
69.506706 -68.044693 7.2810812 12.1535
69.574501 -67.632889 7.4349923 12.1605
69.531288 -67.447273 7.3333273 11.175
69.498489 -67.032539 7.4241586 10.591
69.585983 -84.85022 7.7894135 11.1265
69.458366 -84.723419 7.7742891 11.057751
69.354721 -75.025726 7.6882067 12.1495
69.301605 -74.712418 7.7645645 11.168
69.585861 -72.961906 7.9672508 9.0100002
69.539703 -72.424171 7.8807464 10.003
69.416786 -88.015671 8.1572609 11.124
69.493507 -84.560135 8.0265408 10.1045
69.295578 -73.777283 8.2224379 10.58475
69.477112 -72.422134 8.2951221 13.148
69.361115 -72.098038 8.0410147 10.004
69.268463 -71.692535 8.2982445 11.056666
69.299896 -71.330193 8.1696577 10.885917
69.228149 -71.167053 8.2972631 11.1755
69.535454 -68.419357 8.1230745 13.153
69.320671 -84.853317 8.7686825 12.1175
69.397987 -84.517731 8.7301569 12
69.598373 -84.327202 8.7622309 12.1205
69.268845 -74.226021 8.659358 11.052333
69.239357 -73.796425 8.6754427 12.1095
69.272873 -73.400299 8.683485 12.16925
69.295555 -73.152924 8.6174498 11.1775
69.309044 -72.241516 8.5969315 12.16975
69.595772 -71.661064 8.5924234 10.0015
69.452438 -74.536186 8.9437923 10.163
69.322136 -74.176476 9.0404596 12.816501
69.306374 -73.438927 9.1184502 13.1185
69.43428 -72.479019 9.0356598 14.1435
69.31353 -72.13382 8.8582296 12.15275
69.21212 -84.820259 9.2631874 11.104
69.559532 -74.903374 9.3588333 14.145
69.201126 -73.926758 9.498415 12.171
69.243515 -72.565628 9.5181456 12.168
69.307472 -72.12072 9.3200321 14.1575
69.59404 -71.955345 9.3605452 10.1755
69.386002 -84.89782 9.883812 13.05875
69.562782 -84.662712 9.7830267 13
69.501747 -72.56163 9.7850752 10.335166
69.235046 -72.085831 9.6638479 14.165
69.502045 -86.460358 10.121484 13.1165
69.370544 -85.413292 10.010735 11.103
69.264793 -83.636055 10.100044 10.096
69.361008 -83.541405 10.275633 10.0975
69.542175 -72.602051 10.311496 12.586
69.355072 -85.472794 10.423334 11.102
69.439285 -85.192314 10.617423 11.102
69.422745 -84.577301 10.690897 13.6707
69.464264 -84.139732 10.638882 14.129
69.266777 -83.39846 10.481861 14.129
69.386032 -73.12854 10.463678 15.1605
69.519897 -72.594254 10.672541 13.903
69.540871 -72.000542 10.726866 14.1705
69.490334 -71.112778 10.791531 14.171
69.217545 -89.752686 11.043249 11.101
69.356049 -85.929321 10.922411 11.101
69.477982 -85.459595 11.041334 14.1195
69.574837 -84.917778 10.953186 14.12
69.41481 -84.613686 10.840944 14.07425
69.332947 -84.320984 11.098695 13.105
69.243126 -83.931274 10.830074 10.0895
69.444756 -83.540253 10.922254 14.153
69.48542 -72.182831 10.845969 14.148499
69.33416 -83.683037 11.343724 13.1045
69.403351 -83.509323 11.464277 13.364312
69.458649 -72.166832 11.256975 14.1105
69.497375 -86.31218 11.948284 11.0985
69.221069 -85.658142 11.793992 15.134
69.319229 -84.416946 11.809345 13.55125
69.543861 -87.499168 12.225252 12.102
69.315338 -87.186203 12.235126 11.099
69.403107 -86.173004 12.223291 14.370125
69.525887 -85.846802 12.392557 12.102
69.296524 -84.781616 12.2513 14.106
69.362198 -87.379349 12.472076 12.603251
69.395775 -86.992867 12.627501 15.114
69.359779 -87.3106 12.912497 12.1015
69.321274 -87.001312 13.055183 13.771832
69.391068 -86.583015 12.938347 14.439334
69.357315 -86.570869 13.448796 13.1035
69.508713 -85.106247 13.410401 9.0290003
69.780922 -73.516098 2.7739403 6
69.7939 -82.590637 3.6802938 7
69.836212 -72.871948 4.3704925 8.1665001
69.902946 -71.049606 4.2898216 8.1684999
69.89209 -70.656738 4.129806 8.1482506
69.906609 -74.24881 4.4353809 8.165
69.842865 -70.087593 4.6391535 8.0589991
69.742928 -68.811485 4.6354914 8.0144997
69.684425 -73.740135 4.9423132 9.1210003
69.869667 -72.899315 5.1543875 9.1610003
69.812859 -71.867607 5.0353932 8.0015001
69.656647 -71.418076 4.8763199 8.0010004
69.618828 -70.976105 4.9838262 8.1704998
69.73439 -70.111359 4.8283296 8.0030003
69.77977 -72.379456 5.2635579 9.1669998
69.713379 -71.759987 5.4227777 9.1105003
69.731316 -71.330215 5.5935764 9.1715002
69.798752 -72.644325 5.8130779 10.1435
69.782433 -71.71183 5.8156595 10.149
69.757957 -71.362457 5.8680687 9.4219999
69.759789 -71.098801 5.7978845 9.1735001
69.916878 -70.583801 5.8682079 9.6677494
69.995628 -70.000702 5.9351258 9
69.744057 -69.913666 5.9401126 9.0907497
69.879303 -74.113098 6.1602631 10.16125
69.920227 -71.729736 6.058857 9.177
69.869377 -71.349884 6.0833521 9.55725
69.662544 -70.196419 6.1930146 9.5869999
69.699837 -69.842789 6.3258371 9.5377502
69.625313 -69.036049 6.365675 9.0059996
69.944618 -74.00016 6.7222652 10.1685
69.980942 -73.925491 6.5373392 9.0019999
69.702751 -73.190697 6.6765952 11.1385
69.733681 -72.608948 6.6192894 11.1435
69.753441 -72.281853 6.6143894 10.106
69.868279 -71.784836 6.5595741 11.1375
69.863029 -71.530167 6.5854292 11.1405
69.80349 -70.241722 6.5700774 10.660501
69.818222 -69.789253 6.5185838 10.1342
69.845963 -69.415024 6.5092344 10.6605
69.804634 -68.930008 6.7634344 11.1655
69.678246 -68.730789 6.7054429 9.1700001
69.639656 -68.25354 6.5455747 9.0865002
69.835159 -87.628448 6.9914675 10.116
69.825081 -87.578575 7.0226989 10.114
69.942825 -74.905907 7.0980082 9.0010004
69.911568 -73.270683 6.9184036 10.108
69.95192 -72.676857 6.8368239 11.157
69.653114 -71.404602 7.0985208 10.085
69.893028 -69.138626 7.0971999 12.131
69.747734 -68.671509 6.9403763 10.67325
69.672043 -67.593117 7.0813537 10.1725
69.886185 -89.288872 7.2271652 10.11825
69.990677 -74.815849 7.4961929 10.1745
69.915871 -72.205414 7.4870639 12.144
69.916809 -71.8004 7.4165506 12.1445
69.737579 -68.829773 7.5227003 12.1615
69.747986 -68.626534 7.4400625 10.783834
69.678062 -67.84005 7.5092587 11.668501
69.63282 -67.554176 7.3305535 10.0055
69.606239 -67.17765 7.4988127 11.175
69.782799 -89.614365 7.7526612 9.1564999
69.623383 -84.669495 7.7959628 11.061501
69.725395 -84.251953 7.7506566 11.12525
69.957008 -75.711807 7.9060431 12.1535
69.890099 -74.143906 7.8923426 12.1595
69.765129 -73.795334 7.7353663 10.58475
69.753098 -73.100685 7.783524 9.0147495
69.873405 -72.635117 7.9048033 10.059
69.780182 -72.105782 7.967536 9.0102501
69.770378 -71.855759 7.9703865 10.563999
69.834938 -68.90358 7.6584415 12.1655
69.733826 -68.160324 7.7748127 10.006201
69.875229 -67.71508 7.8479395 11.116166
69.658249 -67.2799 7.6924748 11.672
69.688553 -67.177437 7.8389516 12.1725
69.992416 -88.073502 8.1711645 11
69.900131 -86.96228 8.1110611 11.1215
69.640648 -84.729065 8.328001 11.1075
69.739113 -72.867538 8.3750849 13.1475
69.878502 -67.593086 8.1698084 13.154
69.820107 -84.502487 8.6312904 12
69.914413 -73.333801 8.6093407 11.086
69.764938 -71.736832 8.7931852 10.1645
69.796783 -84.717804 9.1295099 10.1
69.768639 -72.241432 8.9805155 13.167
69.773155 -71.949615 9.0567427 12.1395
69.876839 -88.010788 9.2891226 12
69.727188 -84.92897 9.5703602 10.101
69.604355 -84.779709 9.4701996 10.101
69.940994 -85.805435 9.9587297 13.1435
69.665421 -84.630051 9.7671843 12.302
69.725739 -84.379333 9.7150564 13.060249
69.842842 -72.771667 9.9404135 11.0035
69.602669 -72.029762 9.6293383 10
69.714142 -71.581367 9.6460295 10.177
69.919769 -86.913132 10.14236 11.1025
69.953415 -86.201584 10.243756 11.103001
69.937393 -84.581024 10.331172 11.1025
69.916359 -73.713867 10.111066 15.1255
69.690903 -72.93026 10.083006 13.168
69.785805 -72.533737 10.187326 13.532099
69.702248 -72.310692 10.290945 11.336166
69.926346 -71.592026 10.37721 12.0025
69.699356 -85.415779 10.795037 14.1345
69.786469 -84.961395 10.764153 14.13275
69.984344 -84.504044 10.695881 14
69.857574 -84.345009 10.648378 14.1355
69.707191 -72.551689 10.658392 14.795334
69.78479 -72.149513 10.581985 13.956601
69.805908 -71.866135 10.647864 13.712702
69.884476 -71.430237 10.763691 13.67025
69.645241 -85.242493 11.13195 13.106
69.672997 -85.152481 11.013529 14.1175
69.907509 -84.544373 10.941485 14.1205
69.776428 -84.121414 10.814869 14.1235
69.943192 -72.041817 11.026061 15.1135
69.852333 -71.833572 10.964722 14.63925
69.845734 -71.552414 10.995491 13.8495
69.853432 -84.775093 11.558758 11.099
69.985245 -83.657516 11.221439 11.1
69.81163 -84.969994 11.947716 11.0995
69.692993 -83.822235 11.767873 14.108
69.956917 -87.326385 12.651029 15.1185
69.637306 -86.85186 12.64192 13.1035
69.841629 -86.475952 12.717875 14.1055
69.681129 -86.635315 13.026855 12.853251
69.824615 -86.327225 12.922552 13.354125
69.641884 -86.445633 13.206481 13.104
70.207733 -82.348526 2.7246101 6
70.210281 -73.019096 3.6982431 7
70.389549 -73.371605 4.3570271 8.1099997
70.315254 -73.007553 4.266449 8.1389999
70.346809 -72.517441 4.2706118 8.1615
70.159805 -70.920242 4.2700739 8
70.254272 -73.793442 4.6742663 8.1680002
70.091667 -73.301918 4.6435981 8.1684999
70.01049 -72.815552 4.6156015 8.1689997
70.027588 -72.63356 4.6768656 8.1700001
70.13842 -71.487381 4.635695 8.1709995
70.123772 -70.984741 4.6214776 8.1155005
70.085205 -70.660492 4.6128159 8.0892496
70.01828 -70.032928 4.6092911 8.0882502
70.013206 -73.977386 5.0034251 9.1254997
70.06163 -73.332458 5.0897017 9.1385002
70.132164 -71.88562 5.0561452 8.1700001
70.204414 -71.469505 5.0620832 8.0618334
70.252838 -70.974983 4.9610138 8.4144163
70.234077 -70.571945 5.0350289 8.9078751
70.044472 -70.201172 4.9534674 9.151
70.0709 -69.825485 4.837234 8.0885
70.123795 -71.401741 5.3178277 9.1681671
70.156776 -70.941391 5.3555169 9.1697502
70.28669 -72.219437 5.8465424 10.142
70.347801 -71.50206 5.8011112 10.145
70.293968 -71.04985 5.8887095 10.139667
70.326424 -70.648369 5.7666707 10.143875
70.346123 -70.276321 5.7412658 10.1465
70.005959 -69.953758 5.8354917 9.1765003
70.197235 -70.981537 6.0854373 9.5887499
70.018471 -70.463402 6.0609694 10.167
70.30378 -73.913559 6.7782588 9.0030003
70.15403 -72.310226 6.7568374 10.17
70.032402 -70.034309 6.4585009 9.0050001
70.325287 -69.856056 6.6866455 10.109166
70.244026 -69.044006 6.6709337 9.0030003
70.398422 -68.435249 6.5882087 11.153
70.070984 -88.169945 7.0569878 10
70.111412 -87.17836 7.0837183 10.1215
70.024567 -75.069633 7.0544205 9.0015001
70.018379 -74.611977 7.1443191 9.1684999
70.031128 -73.213654 7.0533152 9.1724997
70.060204 -71.397171 6.8731055 9.0030003
70.330284 -69.06691 7.1522651 10.172
70.180359 -89.501663 7.3232036 10.12
70.287552 -88.849396 7.2382183 10.124
70.15168 -74.863792 7.3802652 10.16975
70.346031 -74.197311 7.2806535 11.165
70.249535 -72.413033 7.5450191 9.0035
70.309319 -68.122871 7.5162449 10.784667
70.043053 -75.318581 7.9463377 11.16725
70.1035 -75.072678 7.7744036 10.58375
70.030777 -73.796143 7.8161459 11.169
70.209579 -68.508194 7.7814155 12.1675
70.259117 -68.21582 7.7341251 11.67
70.109734 -74.628876 8.3796263 10.002
70.093307 -71.869743 8.0158844 9.0135002
70.276566 -71.480583 8.0901833 9.0045004
70.273293 -68.177315 8.1252871 13.149
70.116516 -67.736687 8.0119677 10.0065
70.014816 -74.8032 8.7535172 13.1545
70.147179 -74.557907 8.5387392 12.155833
70.117737 -74.302055 8.4256477 12.111
70.046722 -84.665382 8.8932047 12.116
70.171165 -74.149811 9.1573925 12.167
70.291878 -71.648216 9.5051699 13.17
70.127419 -85.688126 9.6124258 10.101
70.04174 -85.50946 9.7769241 11.1045
70.058334 -84.602295 9.8472996 11.622875
70.011581 -73.619186 9.672204 11.0025
70.217079 -73.034973 9.9510021 14.164
70.163689 -72.696686 9.8219881 12.086667
70.188408 -72.227875 9.8417072 11.784833
70.143608 -71.478333 9.6571312 10
70.028412 -86.240234 10.159458 13.117
70.275253 -85.981552 10.104936 13.126
70.113495 -85.417557 10.055465 13.12
70.21019 -84.818077 10.012294 11.103
70.357635 -84.321342 10.167761 11.103
70.114006 -73.135796 10.080914 15.1315
70.158936 -72.657852 10.174473 12.64325
70.178596 -72.228577 10.109111 13.134167
70.331367 -71.917824 10.272614 13.111
70.218613 -85.024536 10.741511 11.102
70.174469 -84.592804 10.57794 11.1025
70.125931 -72.203659 10.461044 13.611
70.238113 -71.659729 10.606379 13.757668
70.156433 -71.451149 10.654819 13.713
70.131882 -85.712204 11.18054 14.1225
70.160843 -84.501534 11.170006 11.0995
70.170502 -71.615677 11.001799 14.61275
70.367142 -71.198532 10.96015 15.1145
70.050545 -85.713188 11.51901 14.1115
70.309494 -84.814003 11.236058 11.1005
70.000473 -71.587463 11.359654 14.111
70.232025 -85.633087 11.774364 12.103
70.37973 -85.367828 11.858824 11.099
70.133789 -86.43605 12.371469 11.101
70.24733 -86.637032 12.522827 11.101
70.121979 -86.540787 13.002166 13.103001
70.630646 -73.53186 3.7229147 7
70.472153 -74.209915 4.1860723 8.1254997
70.597939 -73.780373 4.2878838 8.125
70.456924 -73.506531 4.2830305 8.1348333
70.596977 -71.932709 4.2543364 8.1549997
70.758789 -69.803329 4.3840442 8.0190001
70.730316 -69.480713 4.3239126 8.0354996
70.413246 -72.884712 4.688395 8.1700001
70.595284 -72.154732 4.6676097 8.1704998
70.704865 -70.154541 4.7310619 8.0045004
70.641098 -69.735634 4.6346207 8.0122499
70.663368 -69.025093 4.7605758 8.0033331
70.510796 -73.7425 5.0147519 9.1260004
70.594345 -73.150818 5.115344 9.1350002
70.543083 -72.786163 5.1393442 9.1569996
70.551628 -71.80397 5.0340791 9.1195002
70.598251 -71.16378 4.8946409 8.0039997
70.563667 -69.45108 4.9943419 8.007
70.539864 -68.984131 4.974668 8.0924997
70.423912 -72.30835 5.5803709 9.1695004
70.443901 -70.628098 5.5797729 9.1719999
70.700615 -72.308617 5.9041905 10.136
70.597527 -71.122612 5.8043709 10.1455
70.75367 -70.141411 5.9336205 10.16
70.591499 -71.527931 6.1853337 9.1689997
70.554062 -70.983368 6.1589794 9.4470005
70.48539 -70.532471 6.3208132 9.0039997
70.545471 -68.896202 6.033329 9.0045004
70.582237 -72.181686 6.6677594 9.5872498
70.589607 -71.914871 6.5761018 9.5869999
70.741585 -71.528412 6.6805868 11.145
70.596924 -70.85466 6.6747184 9.5882502
70.496735 -70.597771 6.5158997 9.1994171
70.77076 -70.067703 6.6201663 9.0050001
70.688179 -69.768066 6.7348032 9.0855007
70.619316 -69.471016 6.6608167 9.7235003
70.526039 -68.971062 6.6449156 9.772584
70.685036 -68.535019 6.7626581 9.0349998
70.773743 -87.809517 7.0708876 10.1165
70.65023 -69.858055 6.9748402 10.171
70.707275 -69.423538 6.9679179 10.171667
70.670517 -68.945992 6.896656 9.5094995
70.572815 -68.789268 6.8355279 9.1719999
70.429916 -68.033203 7.1793542 10.172
70.725952 -67.97908 7.1411409 9.0054998
70.758446 -70.008057 7.4441714 12.1425
70.732285 -69.632072 7.4217553 11.491
70.642159 -69.423569 7.4611731 11.269899
70.614082 -68.805008 7.413362 11.173
70.64592 -68.495979 7.3510513 11.162251
70.781715 -84.802177 7.861968 11.1185
70.701469 -84.460793 7.8589587 11.1275
70.771294 -84.347977 7.8856001 11.124
70.665596 -69.693359 7.7563009 12.1625
70.695427 -69.413574 7.7710638 11.172251
70.568489 -88.388809 8.2631845 11.116
70.733437 -84.554726 8.1635294 9.0745001
70.545403 -72.212677 8.0613947 12.165
70.522591 -71.929039 8.1026745 12.114
70.790192 -67.796265 8.1668119 10.0065
70.607552 -85.488083 8.8622169 12.135
70.711388 -84.042252 8.8281393 12.119
70.716476 -74.011673 9.0604124 10.172
70.585037 -84.027351 9.5098324 12.1085
70.715004 -71.815445 9.3095417 13.623
70.719658 -85.057495 9.8342524 12.1225
70.577118 -84.640884 9.7268867 10.098249
70.611893 -84.284416 9.8722973 12.633625
70.688629 -83.895081 9.8181782 13.12675
70.488197 -71.819229 9.9552765 13.6385
70.525719 -71.113022 9.9394312 12.087749
70.474182 -86.027428 10.203711 13.1225
70.718697 -85.749878 10.028728 13.1305
70.572495 -85.014359 10.057436 13.1215
70.695244 -84.065094 10.306931 11.103
70.558266 -71.829865 10.235701 14.631001
70.525551 -71.442596 10.197169 14.467
70.628799 -71.177994 10.331497 14.113
70.649338 -89.750748 10.739065 11.102
70.552429 -71.118233 10.562165 14.1705
70.780212 -89.530533 10.856113 11.103
70.533249 -86.5933 10.912283 11.603001
70.639168 -85.041336 11.175847 12.105
70.616913 -84.92836 11.288085 11.603
70.410393 -86.46785 12.386148 11.1005
70.413208 -86.64679 12.404677 11.101
70.918915 -71.229752 3.319654 7
70.898293 -73.312775 3.6521304 7
70.907455 -73.741341 4.3020611 8.1560001
70.899612 -71.729736 4.1639266 8.1380005
70.880035 -71.449081 4.2092752 8.1409998
70.922478 -70.888908 4.3421412 8.0174999
70.908516 -73.847527 4.4216628 8.1634998
70.836403 -73.405907 4.4154625 8.1660004
70.883034 -71.221298 4.4407315 8.0349998
70.879692 -70.847458 4.4788232 8.0122509
70.891426 -69.711685 4.6270318 8.1735001
70.829628 -68.766335 4.7648635 8
70.933372 -73.12648 5.1268916 9.1389999
70.992096 -71.615311 5.0908546 9.1537504
70.87265 -69.490608 4.9392686 8.1745005
71.017578 -69.102646 4.9665399 8.1780005
70.969887 -71.67469 5.2646413 9.1129999
70.889061 -69.861664 5.4844866 9.1719999
71.006012 -69.4729 5.515203 9.1727505
71.106941 -72.110077 5.7018766 9.1704998
71.04454 -70.667145 5.7660089 9.6612501
71.048698 -70.132271 5.8656583 10.151
71.046608 -69.8078 5.8185468 10.14925
71.093719 -69.409851 5.7710958 10.07275
70.916397 -66.251785 5.8439631 9.0004997
70.996696 -73.099152 6.2905459 10.1125
71.163475 -69.773727 6.0293021 10.1645
70.982399 -73.695992 6.646193 9.0030003
70.839142 -72.228539 6.7976093 11.1485
71.017334 -71.008217 6.5572758 10.07475
71.090637 -70.716461 6.7648673 10.1715
70.891701 -70.101501 6.7197599 9.0852509
71.072456 -71.758331 7.1632953 11.1145
70.936569 -70.504364 6.9724703 10.444667
71.055832 -70.284912 7.0942001 10.174
70.918411 -69.762024 6.9806743 9.6307507
71.185455 -69.505783 7.1015954 9.1765003
70.948326 -69.123856 7.1437259 10.177
70.939606 -68.397903 7.0490308 9.177
70.944061 -66.050156 7.0465426 10
70.987411 -70.401985 7.2021842 10.176
71.060806 -70.175194 7.4053063 11.484333
70.887222 -69.779129 7.3925695 10.6985
70.87043 -69.357948 7.3224912 10.413501
70.92807 -69.023232 7.3513417 10.226083
70.928558 -67.970291 7.3012919 9.1785002
70.966721 -71.863113 7.8352218 12.158
71.052757 -70.089989 7.6010528 12.151
70.842445 -69.630783 7.7615509 11.1725
71.144836 -69.295868 7.8789802 10.005
71.144638 -68.514496 7.6026521 9.0050001
70.810402 -68.056038 7.9373846 12.1695
71.160042 -69.847534 8.1172657 11.66875
71.166542 -69.531067 8.1095171 10.0055
70.978363 -69.164047 8.1668205 10.0055
70.836464 -68.14003 8.0682993 11.1715
70.999092 -67.699638 8.2584105 11.176
70.907684 -65.968803 8.1915617 11
71.034401 -74.927147 8.762949 10.002
71.188461 -74.419464 8.778388 10.002
70.969048 -74.080566 8.7001476 10.0025
70.843971 -73.843925 8.4069614 10.0025
70.948738 -71.364372 8.4014931 13.137
70.939873 -69.228973 8.4951029 12.1725
71.028221 -69.022064 8.481535 11
70.989059 -67.717514 8.4495144 12.174
70.936295 -66.018318 8.5590229 11
71.164856 -85.859962 9.1342287 12.118
71.179626 -84.636261 9.0169258 12.124
71.038216 -75.20266 9.1000385 13.1585
71.13176 -74.861862 9.10151 12.168
71.150864 -74.750526 9.0904646 13.159
71.06192 -74.187866 8.9610481 11.67175
71.180984 -84.869789 9.2154789 10.0995
71.127838 -84.040649 9.3457956 10.0995
70.862846 -72.329849 9.2575254 14.1275
70.875557 -65.915512 9.4829531 12
70.851212 -86.508682 9.6101131 10.099
70.870132 -84.980637 9.9401798 11.1035
71.07814 -84.637138 9.8450298 12.644751
70.893311 -83.873062 9.7350569 13.1365
71.193161 -83.382538 9.6413965 12.159
70.942146 -65.952766 9.9486942 12
70.925652 -86.48555 10.276581 11.1035
70.991928 -85.882019 10.201322 13.1265
70.802544 -84.957253 10.078482 13.1235
70.869659 -84.707115 10.053633 13.121
71.188362 -83.995361 10.219783 11.6045
71.043144 -83.767776 10.520568 12.1055
70.903976 -65.839912 10.798557 13
70.821869 -85.867096 10.84108 12.1045
71.19783 -85.745834 11.386764 12.105
70.995865 -85.051346 11.318309 11.099
70.922005 -65.917236 11.31718 13.0005
71.133591 -86.763252 12.373778 11.101
70.925018 -65.77153 12.133132 14
70.854561 -86.42527 12.601973 12.1025
70.881149 -65.893204 12.669626 14.001
70.883629 -87.144394 13.03715 12.102
70.96096 -86.515137 13.05082 13.1045
70.885483 -65.825165 14.08733 15.001
71.542267 -82.463593 3.6667483 7
71.448776 -70.83091 4.2055349 8.1379995
71.489639 -70.30471 4.7408457 8.0117493
71.480278 -70.953964 4.9132867 8.6574993
71.372444 -68.865982 4.8825397 8.1715002
71.563095 -68.644104 4.9009261 8
71.382332 -72.763283 5.9910765 10.1395
71.279205 -72.052246 5.9126177 10.1445
71.429214 -69.679146 5.9771104 10.1605
71.307838 -69.101875 5.9388075 9.0603333
71.463852 -69.952583 6.1704292 10.1675
71.462013 -69.227043 6.1354432 9
71.2855 -68.961983 6.0121899 9.1789999
71.400925 -69.313904 6.6242142 11.14
71.224152 -69.874611 6.9637461 9.1750002
71.579445 -71.635025 7.2236147 11.114
71.598869 -70.22554 7.398243 10.17
71.474037 -69.625122 7.4522123 9.0045004
71.248276 -75.251152 7.8478694 11.1665
71.480476 -71.408279 7.7736931 11.171
71.261879 -70.083336 7.807373 12.16
71.290527 -69.748688 7.754704 10.783334
71.206871 -69.224022 7.7403035 11.1735
71.584343 -68.894264 7.8948517 9.0135002
71.355675 -68.589172 7.8951321 9.0122499
71.480301 -67.787743 7.608367 11.1745
71.535492 -87.756332 8.2761641 11.117
71.426476 -69.835762 8.0958414 11.67025
71.272202 -69.339127 8.1638451 11.67025
71.418846 -69.747101 8.4819231 13.14925
71.55809 -68.423309 8.7815943 10
71.558502 -68.323891 8.6611767 10
71.556664 -83.954712 8.9620867 12.122
71.262527 -74.822876 9.1100769 12.168
71.301918 -74.66983 9.0413971 10.59025
71.507874 -74.303551 8.9157019 11.672
71.505013 -71.388367 8.964035 12.667
71.522408 -69.844826 9.0967674 13.1675
71.524231 -69.459198 9.0800695 12.671249
71.376755 -71.409325 9.3880548 14.141
71.586174 -68.978096 9.3125372 14.148
71.37709 -84.089439 9.7894201 10.101
71.317085 -83.774544 9.8389463 11.948833
71.335159 -83.509979 9.8481207 13.131001
71.343422 -75.032074 9.7064333 14.141
71.440788 -68.991066 9.8386889 12.879375
71.501686 -68.580917 9.7996588 12.686937
71.546326 -68.33741 9.7472048 10.001
71.394287 -67.853706 9.9194174 10.0055
71.375031 -84.252304 10.005798 13.128
71.369698 -68.946922 10.162578 15.148
71.375397 -68.659676 10.222601 13.113166
71.381004 -68.289307 10.115663 12.0895
71.238441 -67.755432 10.286612 11.0055
71.513176 -68.482918 10.457877 11.003
71.550255 -68.152946 10.460317 11.0045
71.435722 -67.734085 10.567889 12.175
71.342476 -67.463364 10.715981 11.169
71.324318 -68.844101 11.026133 15.1685
71.468887 -68.548859 10.890301 14.779834
71.477005 -68.172699 11.009185 13.340199
71.513481 -86.007881 11.29791 11.0995
71.596664 -85.575089 11.430416 11.101
71.509872 -68.257965 11.233153 15.171
71.543159 -87.026886 12.113284 11.099
71.492264 -86.66761 12.558439 13.62325
71.528969 -87.762604 12.900651 11.101
71.599113 -86.658463 13.026338 14.1065
71.509422 -87.754387 13.377807 12.603251
71.591461 -86.555527 13.203183 13.105
71.698257 -71.300262 4.1757221 8.1455002
71.971565 -71.187927 4.221405 8.1415005
71.827286 -66.459702 4.3146367 8
71.621742 -71.332123 4.7264757 8.0284996
71.607475 -69.309662 4.4459043 8.0050001
71.88382 -66.419228 4.4942284 8.0059996
71.974731 -65.265701 4.6244378 9.1315002
71.921585 -70.108192 5.1101537 8.00525
71.748993 -69.488037 4.8077922 8.1765003
71.737938 -68.427605 4.8905578 8
71.899651 -63.095448 4.8957596 9.1674995
71.902336 -62.852867 5.3786273 9.1785002
71.838516 -62.591988 5.4943099 9.1777496
71.917084 -71.832664 5.6488194 9.1700001
71.745598 -69.275284 5.7831197 9.6627502
71.967072 -68.999138 5.8379235 10.146
71.925392 -62.981644 5.9384551 10.1715
71.875595 -62.457817 5.7594552 9.0909996
71.659622 -68.957939 6.1370239 9
71.913864 -63.30584 6.5114174 11.1505
71.839493 -88.069405 7.1670957 10.117
71.719048 -73.405876 6.914053 11.143
71.653946 -73.148254 6.9154696 11.139
71.768356 -70.567772 6.884656 9.1139994
71.82383 -69.683762 6.8811765 9.1727505
71.947006 -66.284279 7.186039 9.0059996
71.856186 -63.281837 7.0934548 11.176
71.854012 -71.430573 7.495286 10.173
71.842499 -70.281075 7.464994 10.12
71.745132 -69.789345 7.3265743 9.0319996
71.71611 -69.401352 7.3630672 9.0046663
71.8778 -71.88829 7.817821 12.149
71.953346 -70.549362 7.8509459 12.155001
71.994232 -70.283607 7.9175138 10.004
71.78212 -69.988144 7.9030771 10.5885
71.629143 -68.76416 7.895803 9.0124998
71.63192 -75.818474 8.2749758 12.158
71.669693 -71.858215 8.3238058 12.1675
71.979362 -70.639122 8.0582647 12.1635
71.735695 -70.263161 8.0843153 12.1655
71.645927 -69.816734 8.1935272 10.005
71.707619 -69.37648 8.3406754 10.0055
71.763611 -68.136383 8.1276169 9.0059996
71.845413 -74.134964 8.7831621 11.173
71.810043 -69.660057 8.6035204 10.727166
71.755447 -69.476425 8.6182413 11.1402
71.644287 -68.621704 8.7887821 10
71.640236 -85.549576 9.0095062 12.1355
71.766052 -74.865318 8.8208361 11.167
71.686569 -74.554306 9.0591669 12.168
71.910835 -70.051208 8.8630505 13.16
71.851234 -69.72953 8.8965197 12.6685
71.849174 -69.399399 8.9814157 11.253188
71.847786 -68.943398 9.0407248 11.586125
71.730042 -68.687645 9.0036535 11.694417
71.779404 -68.373856 8.8336153 10.1715
71.961456 -85.710945 9.2403126 12.149
71.62635 -84.171021 9.367486 10.0995
71.916222 -69.634918 9.4767084 14.147249
71.827065 -69.361435 9.3785982 12.576
71.793068 -69.041924 9.3705807 13.071143
71.734161 -68.778679 9.3002815 14.144
71.757843 -74.312767 9.9463024 11.002
71.854843 -69.328407 9.8287477 12.779667
71.67083 -68.89257 9.7995777 11.882126
71.741287 -68.665649 9.7314157 12.672501
71.882812 -84.308815 10.169188 13.15
71.60994 -71.962936 10.07602 14.1155
71.783028 -69.434525 10.105622 14.6495
71.770729 -69.000809 10.177318 14.589876
71.713043 -68.758446 10.238577 13.021929
71.823669 -84.235657 10.408431 11.1035
71.720383 -68.505951 10.678008 14.267801
71.993752 -65.924561 10.597281 13
71.791367 -89.154144 10.955878 11.1025
71.788063 -85.517776 11.001192 12.60675
71.604233 -68.667358 10.896008 14.1735
71.794594 -68.207245 10.919612 15.166
71.931976 -67.584976 11.071485 13.172
71.93924 -85.3265 11.473457 11.603001
71.653709 -88.610474 11.611471 12.104
71.820709 -86.508781 11.909683 11.0995
71.920753 -85.211067 11.716125 14.113
71.891052 -85.031303 11.821006 12.104
71.990768 -65.857697 11.842295 14
71.906326 -86.452881 12.151284 12.104
71.611763 -86.336151 12.016111 12.1035
71.93631 -85.648026 12.068489 14.111
71.834846 -86.842331 12.57865 11.1015
71.879814 -86.761047 12.514288 11.101
71.688057 -87.439873 13.070195 12.6035
71.880714 -86.917725 13.077729 12.1025
71.853615 -86.510674 13.081101 13.605499
71.663734 -87.414421 13.481058 14.440333
71.675194 -86.488159 13.205363 13.105
71.729843 -87.247757 13.880319 13.604624
71.955505 -89.487778 14.34148 13.104
71.811691 -88.204834 14.092488 12.1005
71.955765 -89.681351 14.631225 15.1075
72.265915 -82.255325 2.6259601 6
72.068909 -82.416763 3.6670008 7
72.043999 -66.016823 3.8780992 8.1285
72.103081 -65.723442 3.8581443 8.1219997
72.09111 -65.562469 3.9709895 8.1210003
72.085876 -66.214264 4.5503659 8.0185556
72.100304 -71.6819 5.1028624 8.1794996
72.075279 -66.245552 4.8801541 8.0001669
72.117683 -66.079514 5.8604608 9
72.087456 -65.969849 5.86903 9
72.105896 -66.108353 6.1436806 9
72.022285 -70.784111 6.6733603 9
72.102821 -66.142517 6.6192236 9
72.101509 -65.955505 6.6292853 9
72.116074 -87.675949 7.1563787 10.13
72.097862 -70.916519 6.8515987 10
72.283119 -70.670685 6.96731 9.0854998
72.119591 -70.220055 6.9794202 9.1739998
72.077309 -69.658096 6.9398437 9.1709995
72.119751 -66.06443 6.9382424 9
72.103836 -65.963379 7.0344725 9.5
72.125572 -87.559921 7.2404375 10.126
72.152962 -73.812408 7.3387723 10.1665
72.101807 -72.405098 7.4038925 11.167
72.290939 -70.566856 7.3735504 9.0040007
72.139008 -70.18882 7.3499322 9.0621672
72.312042 -69.418411 7.356957 9.0035
72.10907 -66.079445 7.2941818 9.75
72.099991 -65.949631 7.3475084 9.75
72.364418 -70.827957 7.9563742 11
72.138443 -70.653992 7.8085451 11.659
72.053833 -70.17717 7.7940931 10.938299
72.099792 -66.013214 7.8134484 10
72.322655 -70.983566 8.0778036 11.5815
72.33242 -70.64357 8.0126343 11.085751
72.178307 -70.241653 8.2201977 10.2381
72.185959 -69.367332 8.2008038 12.168
72.227654 -68.898376 8.1634569 11.5
72.069962 -66.142982 8.1439972 10.5
72.095047 -65.877563 8.3399525 11
72.350807 -70.559952 8.7112579 11.082125
72.195908 -70.189682 8.6231365 12.118501
72.206009 -69.854401 8.6547651 10.392666
72.154938 -69.504723 8.6613045 11.1705
72.299934 -69.053894 8.5535927 13
72.095421 -66.001076 8.4923668 11
72.106491 -65.901131 8.6043653 11
72.0438 -70.133194 9.0303993 13.164
72.209389 -69.912582 9.0036602 12.1725
72.184288 -69.444626 8.9376221 11.665
72.076111 -69.04892 8.914526 11.174
72.188255 -68.784019 8.8534088 13
72.123688 -65.856361 8.9940519 10.285714
72.220245 -85.15184 9.2116995 12.1215
72.217247 -69.617752 9.2609711 12.171
72.116508 -69.192459 9.2173891 14.1315
72.013634 -66.03833 9.374176 12
72.135704 -65.920433 9.3440838 10.666667
72.201439 -69.310432 9.8478136 11.394166
72.102898 -69.077087 9.7601089 13.1725
72.105209 -66.041565 9.7643776 11
72.133118 -65.81675 9.7371054 10.833333
72.233856 -74.20974 10.114027 12.1675
72.173569 -68.525696 10.257655 15.1405
72.086273 -65.822174 10.179574 12
72.090172 -65.825378 10.52845 12
72.095963 -65.777481 11.020597 12.428572
72.35833 -86.186951 11.508225 11.1015
72.182175 -85.07766 11.435914 12.61025
72.125946 -65.754745 11.411776 12
72.173866 -85.856209 11.761643 13.106
72.065727 -85.07663 11.963777 13.1055
72.103737 -65.751411 11.830076 13
72.178391 -65.587234 11.730819 11
72.073364 -86.225372 12.188481 13.105
72.22876 -85.020599 12.138888 13.5125
72.107216 -65.69635 12.220139 13
72.201248 -65.546371 12.203533 11
72.043343 -86.68158 12.695593 11.601
72.270927 -84.925629 12.413566 14.109
72.099861 -65.697044 12.513863 13.5
72.33004 -86.837112 12.981518 13.105
72.264786 -86.10936 13.197556 13.1055
72.081444 -65.747696 13.052224 14
72.082512 -65.532204 13.043906 14
72.276817 -87.43219 13.462357 12.102
72.309677 -86.126877 13.379858 15.11175
72.38427 -85.938126 13.42639 13.1055
72.094742 -65.607086 13.359655 14
72.131157 -65.450233 13.311085 12
72.336708 -89.341827 13.847959 13.1045
72.09539 -87.61705 13.712607 12.1015
72.367714 -86.987076 13.756595 13.103
72.383247 -86.77198 13.829155 13.105
72.151207 -65.665794 13.723558 13.25
72.084251 -65.520561 13.708852 14.666667
72.271721 -88.740295 14.143382 15.1095
72.107712 -65.67524 14.233351 14
72.141243 -65.531738 14.070621 13.666667
72.205513 -89.339554 14.546512 13.103
72.325485 -89.031174 14.561318 13.1035
72.182793 -88.081635 14.496738 13.60425
72.363663 -87.869652 14.470153 15.1075
72.149208 -65.511673 14.602513 13.8
72.114212 -65.454376 14.922705 15
72.115402 -65.431358 15.406983 14
72.215271 -65.642494 15.917952 13.173
72.136482 -65.536476 15.847267 14.391666
72.256615 -65.384094 16.555361 13
72.234039 -65.457794 18.245207 13.5875
72.170685 -65.497047 18.657478 14.1765
72.247787 -65.388023 19.961842 14.003
72.309753 -65.370209 20.975597 15.175751
72.665184 -73.23703 4.788209 8.1695004
72.566826 -71.079666 6.6338019 9.003376
72.770821 -73.394836 7.0998964 11.1475
