# .PCD v0.7 - Point Cloud Data file format
VERSION 0.7
FIELDS x y z intensity
SIZE 4 4 4 4
TYPE F F F F
COUNT 1 1 1 1
WIDTH 1266
HEIGHT 1
VIEWPOINT 0 0 0 1 0 0 0
POINTS 1266
DATA ascii
67.441208 136.19383 4.9720349 13.071
67.578461 135.86769 5.4534955 14.073
67.36615 135.60727 5.7056851 14.0705
67.452171 129.89534 7.1369653 15.0675
67.796852 137.49429 -0.038975131 10.0325
67.970497 137.1367 0.031662196 10.033
67.622887 138.34229 0.49175537 11.045
67.880516 133.45335 1.1076537 10.05175
67.854454 133.93623 1.1751729 10.034167
67.727608 134.11777 1.10562 10.023499
67.708679 134.43661 1.0469909 10.106
67.888901 132.9801 1.4840882 11.0265
67.864998 133.40405 1.5218883 11.0194
67.857079 133.82329 1.4311457 10.724215
67.825119 134.18671 1.3573341 10.393499
67.691238 134.64243 1.254261 11.075
67.729202 136.26367 1.4560513 10.0895
67.737579 133.487 1.6738546 10.927501
67.798836 133.74495 1.6398337 10.886928
67.909126 134.24486 1.6162493 11.0695
67.739639 136.38872 1.833813 11.071
67.778328 137.34143 1.6194068 10.109
67.854446 133.38072 2.3714097 11.094
67.869873 134.33368 2.3221769 12
67.806137 134.77222 2.3262761 11.021
67.873352 134.89104 2.2085903 12.034
67.939621 136.41446 2.3043613 12.0315
67.963821 136.97586 2.1638894 11.0705
67.89566 137.44775 2.1865385 11.07
67.927994 137.68826 2.1988959 11.391
67.786522 138.04581 2.1150255 11.089
67.746819 138.55441 2.1880369 11.56275
67.986595 138.87453 2.2549517 12.0325
67.743904 132.59326 2.7403564 13.041
67.820038 133.03171 2.6790664 11.797125
67.746971 133.28183 2.5459874 11.584749
67.974228 133.67703 2.7626102 13
67.923584 134.23965 2.5521343 12.52575
67.92643 137.16583 2.5385334 11.07
67.774925 137.52353 2.6360056 12.366
67.791077 137.77039 2.6646385 10.821501
67.899078 138.8624 2.7020829 11.0975
67.760803 133.11159 2.8180511 11.689667
67.873291 133.49789 2.8249934 11.0711
67.815613 133.73138 2.902082 10.8493
67.869904 134.01428 2.8825233 11.1025
67.709183 134.95937 3.1117625 11.0695
67.986687 135.3096 3.1190026 11.071
67.910469 136.98555 2.9940667 11.731167
67.842087 137.33714 2.9765944 11.0825
67.828102 137.73773 3.0269558 12.072124
67.775604 138.21259 3.047915 11.0715
67.652428 138.68829 2.9193897 12.0745
67.698051 132.94339 3.2529953 10.0805
67.963921 133.47621 3.4699895 12.0895
67.814194 134.3761 3.4696529 13.01675
67.819839 135.47159 3.2792237 13.0345
67.850388 136.0746 3.5662248 13.03
67.894989 137.00365 3.4493055 13.032
67.73188 137.48418 3.3681526 12.172084
67.82048 137.65179 3.3247225 12.3115
67.706055 138.14574 3.3479221 13.033
67.779221 138.44743 3.2671843 11.072
67.897392 133.61707 3.7592199 13.028
67.886276 134.64874 3.8849802 12.084667
67.811501 135.38525 3.7729013 13.035999
67.741829 135.85234 3.6889751 12.7075
67.612015 136.26561 3.6803925 13.07225
67.901237 130.91745 4.3595877 12.069
67.871544 131.37651 4.3447304 12.1
67.861855 134.36098 4.2053146 11.436166
67.881706 134.41051 4.0561237 11.1055
67.792542 134.80144 4.0404563 12
67.979355 127.79419 4.5378861 13.065
67.936195 128.18329 4.5886664 13.06825
67.913116 128.50247 4.7612796 14.562
67.884407 129.00073 4.7932787 14.0685
67.902245 130.64342 4.6233354 13.0675
67.862411 131.01431 4.6704431 12.7345
67.889198 131.28589 4.4856858 12.34075
67.934273 132.8559 4.6196389 12.379666
67.883858 133.8326 4.6826806 13.0745
67.839127 134.20862 4.6675715 12.088
67.728271 134.55307 4.5910687 13.071625
67.877731 127.82865 4.8827515 11.0755
67.847054 128.1176 5.1632972 11.078
67.866417 128.5816 4.9887123 13.066
67.949638 128.80507 5.1153417 13.0915
67.863792 129.2776 4.8575697 14.0715
67.792076 133.37546 4.9785218 12.069
67.921371 133.80762 4.9700394 13.419938
67.863777 134.16516 5.1502762 12.063625
67.954636 134.59442 5.0081196 12
67.642593 135.13799 5.1384525 13.069
67.852524 135.35858 5.0972166 13.04525
67.942513 127.7652 5.2020917 14.065501
67.933685 128.07181 5.2965484 11.0785
67.813324 129.14183 5.2148952 12.1055
67.899895 129.34836 5.5390339 13.55975
67.969139 132.31125 5.5057602 12.1065
67.886513 133.84471 5.3950229 12.084332
67.706093 134.19862 5.4139605 12.5735
67.80571 134.56694 5.5005703 13.411832
67.850525 134.90149 5.3808584 14.0725
67.835342 135.30351 5.2932348 12.429166
67.913437 135.83606 5.4943814 14.073
67.989357 128.59145 5.9043422 14.066
67.997566 129.66002 5.8189068 13.0675
67.847824 131.94656 5.9016061 13.068
67.665642 133.85445 5.7399783 14.0695
67.909218 134.12842 5.8803544 14.069502
67.870247 134.48228 5.7196689 12.761167
67.796333 134.85301 5.8172755 13.8025
67.906937 135.22818 5.7224617 14.07
67.856377 128.55144 6.2079868 13.0675
67.793175 129.03003 6.1289105 14.399333
67.984901 129.89552 6.3916183 13.068
67.909592 131.92104 6.0613885 14.0685
67.899124 134.77126 6.0457153 14.07
67.900627 130.6109 6.6916471 14.067
67.870148 132.23792 6.5202522 13.0685
67.9189 129.44276 7.1833415 15.067
67.878281 129.79428 6.8663177 15.037223
67.687149 130.16547 6.8462119 12.541
67.857651 130.50908 6.9132419 14.905
67.935257 130.90271 6.8230329 13.1075
67.819901 129.40141 7.5620689 15.066
67.889626 129.74297 7.4144006 14.407333
68.327438 130.19148 0.39855677 10.0265
68.2444 130.29913 0.50414294 10.046
68.292053 130.59528 0.46511731 10.07675
68.24604 129.50383 1.0422717 10.086125
68.299484 129.82692 1.0876869 10.412667
68.365761 130.25345 1.1620245 10.5695
68.327637 130.51419 0.86864144 10.0945
68.399734 130.80417 1.0352753 10.102
68.16362 133.31525 1.1613702 10
68.313225 129.45628 1.4549341 10.866598
68.090492 129.69017 1.4566798 11.0665
68.352615 130.15863 1.5525078 11.067
68.267227 130.82489 1.4964851 10.8674
68.025291 132.95099 1.5027028 11
68.153229 133.909 1.5571109 10.1075
68.010315 134.0298 1.4794019 10.108
68.259506 136.89066 1.4982157 10.09275
68.38871 129.08832 1.9633554 11.0235
68.385658 129.89627 1.884714 11.067
68.29084 130.01051 1.6086822 10.105
68.027092 133.54272 1.7095386 11.0345
68.131767 133.75188 1.7267013 11.698001
68.051437 134.17323 1.7436401 11.726501
68.071411 136.94949 1.7264438 12.04775
68.204712 138.60344 1.9422215 10.107
68.310776 132.8826 2.3592496 10.0755
68.313126 133.54132 2.0257225 11.068
68.089417 136.07973 2.1363523 11
68.215439 137.03738 2.2718081 11.711334
68.14772 137.48233 2.237596 11.55175
68.315033 137.98283 2.2282917 11.0915
68.215996 138.07405 2.2762876 12.033
68.314957 132.68848 2.7180958 13.05
68.255402 133.41684 2.6186802 11.552
68.121544 134.27136 2.6882157 12.0695
68.02507 137.08792 2.4426305 12.031
68.275192 132.97928 2.8706377 12.03425
68.181404 133.38414 2.8690522 11.022834
68.344345 134.35715 2.9100015 13.0495
68.073341 135.0589 2.9954622 11
68.103798 135.37469 2.9737039 11.103
68.251663 137.15297 3.0779846 11.07
68.178162 137.9133 2.857141 12.0765
68.399849 133.56091 3.5263326 12
68.216743 133.69153 3.4404056 12.03475
68.026596 134.73427 3.5889266 13.03
68.12793 137.21832 3.2308078 11.0715
68.378372 137.87978 3.456403 13
68.397324 130.6447 3.9457676 12.0945
68.311684 134.71988 3.8853576 11.1065
68.269867 134.83179 3.7349551 13.029
68.14241 130.51167 4.1057134 12.561001
68.379349 133.89093 4.0266719 12.094
68.328674 134.10576 4.1011968 11.741166
68.397263 134.72592 4.2223635 12.0965
68.059296 134.84355 4.2718821 11.105
68.118378 135.41588 4.3699131 13.07
68.050095 127.76498 4.4733434 13.0655
68.019508 128.18858 4.6151857 13.086001
68.262039 128.5459 4.7248964 11.096201
68.151711 130.59525 4.7860842 13.0665
68.142326 131.07626 4.6118336 11.83725
68.218979 131.39261 4.5927415 11.103001
68.158897 133.40097 4.5432611 12.0685
68.192856 133.82533 4.6418266 11.736333
68.122093 134.18077 4.6026974 11.73025
68.354485 134.67259 4.4057894 13.0695
68.343498 135.52696 4.7550511 12.1035
68.245293 136.42552 4.7521462 14.0315
68.211159 127.83829 5.1033411 11.786667
68.212929 128.18552 5.1143866 13.569916
68.135506 128.59535 5.0585055 12.423749
68.118584 128.84457 4.8583798 12.1065
68.149574 130.66495 5.0255179 15.039
68.306908 131.03156 4.9020786 12.552999
68.160423 131.34885 5.033525 11.57225
68.189125 131.8024 5.1387572 14.073
68.161934 133.45331 4.9962506 13.465221
68.239296 133.79407 5.0714178 11.8834
68.117096 134.21175 4.9286194 13.377833
68.163101 134.63742 5.1285863 13.07925
68.268311 135.0406 5.0771694 13.729833
68.29509 135.33916 4.979938 12.54375
68.392563 127.91378 5.2777958 13.093
68.138779 128.08849 5.4623218 13.066
68.104057 128.59157 5.297791 13.822876
68.18309 129.07214 5.3922234 12.0917
68.100952 129.32109 5.4884725 12.761833
68.339027 131.07176 5.4851494 13.867399
68.152534 131.4024 5.3617005 14.0675
68.018562 132.0107 5.548471 11.0775
68.027107 134.29308 5.3166761 12.1085
68.375374 134.81577 5.2113552 13.0685
68.214325 135.40697 5.3959532 12.580125
68.306274 135.86711 5.2522888 13.0905
68.086441 127.91554 5.6886315 14.066
68.169571 128.17014 5.9533224 12.0715
68.337509 128.5412 5.9729538 13.102
68.128708 129.00316 5.8414063 12.8884
68.137077 129.27634 5.7768898 14.0235
68.158104 129.77316 5.8026309 12.848125
68.032082 131.81134 5.8574376 11.0795
68.022194 132.2007 5.6599455 12.106
68.096016 132.41277 5.6106505 13.0955
68.274055 133.90099 5.6011457 14.069
68.155556 135.05824 5.7041993 12.330626
68.244202 135.22704 5.6370959 12.108
68.259689 128.07861 6.0344224 13.56575
68.176735 128.57693 6.1333151 12.93607
68.069626 129.03476 6.0913529 13.577
68.228218 129.51212 6.1186805 11.07975
68.258026 129.76582 6.1608644 12.387857
68.278786 130.16092 6.1749535 13.744334
68.182213 130.59352 6.1430125 14.576
68.390717 131.53577 6.2851095 14.0675
68.059456 131.70253 6.1703305 14.068
68.161705 132.06746 6.1249475 13.068501
68.067818 133.58748 6.1668353 15.029
68.244728 134.12999 6.1621633 15.0295
68.137871 134.73851 6.0792785 15.03
68.338539 134.88507 6.1830168 15
68.27758 135.31577 6.0076447 15.0305
68.243263 128.54166 6.4473743 13.379167
68.254387 129.45802 6.6631227 15.066399
68.192719 129.82458 6.615953 13.294299
68.206871 130.06892 6.4763246 15.0665
68.225296 130.59601 6.7113047 14.055
68.373756 131.72321 6.6731682 15.0265
68.316528 128.67503 7.016664 13.1055
68.349518 128.87753 6.9805369 13.60075
68.065666 129.58807 7.0614705 13.601
68.082214 129.73628 6.8830323 12.418332
68.347466 130.31618 6.858058 15.067
68.072731 130.55978 6.8658128 15.0245
68.383316 131.12823 6.9603701 15.0675
68.192665 131.79694 6.999218 15.068
68.14138 132.05702 6.8244929 15.068
68.293854 128.71432 7.3908191 14.0665
68.172005 129.0898 7.2822194 14.738999
68.336586 133.47421 8.7830343 9.0089998
68.660965 130.89632 0.33342373 10.02875
68.437225 129.46718 0.63477284 9.0782499
68.518181 129.92079 0.65150839 10.03325
68.514801 130.22122 0.54040349 9.8344002
68.59314 130.52487 0.56933755 9.5734997
68.659363 136.72073 0.7072193 9.717
68.590782 129.39369 1.0914832 10.225571
68.44735 129.76128 0.89997965 9.7865
68.478233 130.15742 0.93794632 10.253333
68.546318 130.6153 0.98516375 10.331938
68.611809 131.03 0.83255166 10.0925
68.673264 136.74707 0.93908405 10.0695
68.770012 136.9801 1.1116782 10.0705
68.765892 129.04788 1.2918061 10.0665
68.609657 129.3817 1.4476284 10.398499
68.691444 129.71107 1.4617131 10.08375
68.509613 130.20604 1.3748573 10.372572
68.619942 130.55449 1.4904726 10.325875
68.402794 131.07368 1.2005395 11.0725
68.473801 135.89803 1.4828084 10.0695
68.583893 136.33072 1.5177699 11.0705
68.687904 136.80763 1.2992193 10.0715
68.691978 137.23006 1.5460505 10.1095
68.588043 129.28271 1.6821752 11.060714
68.542915 129.79396 1.7750179 11.27125
68.629906 130.19818 1.7944617 11.326072
68.442215 130.68974 1.7047043 11.0675
68.543526 130.82935 1.8326584 11.085
68.645996 136.75449 1.6572096 10.1085
68.76387 137.16901 1.7857004 12.054
68.793442 130.34071 2.0295322 11
68.662148 132.81165 2.0261133 11.0685
68.444145 133.75626 2.3638186 12.033
68.711136 137.24374 2.2354147 11.0695
68.443092 137.75247 2.2228079 11.54425
68.436134 138.06813 2.2892206 12
68.504898 132.67326 2.606725 11.5
68.758705 133.15105 2.4490905 11.0935
68.742241 134.17741 2.7511184 12
68.679352 134.6376 2.5238471 11.53425
68.514122 134.95627 2.7092721 12.369834
68.737778 135.35104 2.765008 11.5
68.670425 133.07884 2.9934213 11.651001
68.471138 133.41661 3.0499339 11.64075
68.58049 134.72476 3.0761259 11.088751
68.586304 134.9411 3.0032218 12.0275
68.612442 137.78735 3.0024345 12.563
68.482895 132.89438 3.3421917 11.0685
68.543121 133.45979 3.456394 11.5
68.52887 133.61034 3.5767086 12
68.578743 137.47704 3.2039239 12.071
68.455704 137.98753 3.4661119 13
68.513092 138.09708 3.4719393 13
68.589958 138.55936 3.2153568 11.1085
68.757416 130.15186 3.7707424 13.0665
68.70192 132.63489 3.9673202 13
68.433823 134.1002 3.8676872 11.1055
68.572586 134.651 3.9220068 11.747001
68.575134 135.00546 3.7370274 13.01525
68.465157 135.38734 3.8564367 11.747167
68.412102 130.12418 4.0226102 14.0385
68.714371 130.49876 4.2478013 13.067
68.460754 132.84647 4.2508974 13
68.618088 135.86626 4.2155805 13.0725
68.478149 136.28583 4.2444844 13.0705
68.775795 130.56354 4.7446771 12.568251
68.675468 131.02492 4.6500707 11.834749
68.414558 133.6944 4.6001139 12.0345
68.438744 135.08676 4.7807684 12.106
68.63166 135.60497 4.4904451 13.07
68.536629 127.8709 5.0117302 12.066667
68.557587 128.57954 4.8339167 11.075
68.6539 130.21481 5.042284 14.380501
68.638695 130.63329 4.978044 13.307876
68.488899 131.02332 4.9282789 13.070856
68.603569 131.39897 5.072247 13.8636
68.594376 131.71545 5.1782141 14.07
68.535873 132.83026 5.0714841 15.041
68.513504 133.42853 5.0365376 12.8137
68.422714 133.77098 5.1226273 13.068
68.483025 134.46573 5.1377363 15.0495
68.444954 134.98041 4.9398079 12.785
68.418304 135.41896 4.9198027 11.1035
68.732727 127.94617 5.4505486 14.151333
68.715729 128.15381 5.3707786 13.514
68.460266 128.53055 5.513032 14.066
68.484169 129.28601 5.3553123 12.009
68.500069 130.23792 5.2623587 14.0665
68.529221 130.69775 5.4103074 14.067
68.593666 130.98149 5.4222622 13.650101
68.664398 131.25328 5.3218255 12.599751
68.466011 133.56314 5.2050314 13.068
68.680634 127.34598 5.868403 13.582
68.490471 127.81489 5.8573694 14.0655
68.67646 128.25233 5.8643074 12.741917
68.644791 128.47156 5.9516497 12.320374
68.585129 129.43871 5.6570868 14.047499
68.546082 129.66277 5.7784805 13.058249
68.459251 130.45944 5.8483434 12.104
68.621231 131.03487 5.7584658 13.89275
68.637733 131.42186 5.6465964 13.019
68.641106 131.69899 5.9198208 13.0675
68.718513 135.07092 5.951817 13.0965
68.693398 128.36423 6.088861 13.5665
68.62056 128.70789 6.1325841 14.33075
68.6101 129.09558 6.2457252 14.568251
68.592964 129.35504 6.2243252 13.489
68.527771 129.83925 6.1704688 13.745
68.60807 130.16348 6.3166151 15.06775
68.554657 130.6635 6.2047558 12.4968
68.672417 131.05966 6.1696029 13.08475
68.692841 131.38704 6.1487079 12.758667
68.593254 131.78902 6.2494726 12.674399
68.711388 128.34953 6.7450337 14.317749
68.789803 128.54695 6.5607457 13.585751
68.509933 129.09604 6.5702562 15.066
68.793777 129.46451 6.716476 14.066
68.653542 130.34154 6.7921882 14.0665
68.487534 130.52 6.5942121 14.066334
68.60482 131.06078 6.5909243 15.054166
68.519508 131.45149 6.484169 14.328126
68.596733 131.75569 6.6283526 14.068166
68.556267 132.18073 6.5256243 14.743167
68.670792 133.02913 6.7218366 15.0735
68.745224 127.86271 6.8617015 15
68.466827 128.23544 7.163229 15.066
68.643044 128.53543 6.8952675 13.5485
68.437805 128.88095 6.8989105 14.0935
68.619812 129.46965 6.9909086 15.0665
68.533112 129.88335 7.0202351 14.094
68.651314 130.93433 7.1539316 14.0945
68.542 128.50958 7.5324659 13.071
68.701485 129.20229 7.533565 15.066
68.673454 129.74239 7.295763 13.425834
68.540787 130.08374 7.4963078 15.0845
68.654404 130.64035 7.260046 14.0185
68.73494 130.08919 7.6501746 15.0665
68.746193 134.43404 10.448775 10.0535
69.051796 133.91631 -0.88611305 9.0679998
69.192657 135.71883 -0.62382597 9.0710001
68.912636 134.08202 -0.29667154 9.0684996
69.040657 135.78142 0.37388411 10.07
69.05394 136.16675 0.10015538 10.0725
68.814392 129.2771 0.77862376 10.066
69.086815 134.76215 0.78072864 11.043
69.008797 134.92833 0.66189826 10.314751
69.08139 135.6443 0.47673875 10.07
68.863503 137.38985 0.64526391 10.091
68.923943 128.95959 1.1486381 10.0835
69.078575 129.37253 1.0205333 10.068
69.036919 133.09651 1.0416737 10.014999
69.019737 133.22548 1.1080198 10.104
69.087547 135.5294 1.091159 10
68.828384 136.37088 0.96573234 10.095
68.892212 136.4743 1.1774266 10.0705
69.000069 128.78029 1.3140769 9.1669998
68.893433 128.97374 1.5390714 10.825874
68.900635 129.40608 1.4550697 10.260166
69.179192 129.68622 1.2482786 10.0665
69.069214 133.03905 1.2976661 10.162358
69.053467 133.32323 1.5234792 10.577875
68.842575 133.88437 1.3227258 11.074
69.177505 134.1169 1.5086308 10.0685
69.156204 134.64577 1.4879421 11
69.003777 135.6781 1.3226486 10.3565
68.992943 137.53114 1.3631525 11.0315
69.104782 128.68539 1.8283621 11.535749
69.118904 129.01915 1.852538 10.6644
68.99157 129.41171 1.8122085 10.680599
68.965103 129.75363 1.7761656 10.052167
69.02829 130.14552 1.7672553 10.380142
69.116524 133.07283 1.7758062 11.035708
68.913391 133.20229 1.6128505 11
69.196945 136.37508 1.9062368 10.0695
69.126091 137.63402 1.8494529 12.0455
69.058411 128.58997 2.2352483 11.0655
69.059929 128.90298 2.2592676 10.0745
68.963821 129.82391 2.0004025 11.066
69.025215 130.16325 2.0456772 11
69.068535 132.75491 2.0174823 11.0685
69.167839 133.24234 2.0528533 11
69.132774 134.19113 2.1515028 11
69.076714 136.55569 2.2189877 11.06975
69.167465 137.25008 2.1889691 11.088
69.188911 137.74426 2.2901239 11.091
69.052528 128.59195 2.7400227 12.0655
68.961617 128.92867 2.4576476 12.068
68.952888 129.20285 2.4720724 12.071
69.053352 132.99452 2.6681256 11.054833
69.082443 133.31209 2.6735654 11.6925
68.957428 133.86929 2.5316365 11.082
68.961403 134.33879 2.538029 11
68.922607 134.53716 2.5928993 12.022249
69.082108 137.26784 2.6455867 11.0695
69.045921 132.64711 3.0483351 11.333333
68.968468 133.06502 2.9670205 11.6895
69.165215 133.32147 3.1234875 11
69.06842 134.47287 3.0551894 10.077
69.194763 134.92618 3.1821337 10.0775
69.023468 137.39426 2.9157538 11.58625
68.947296 130.30678 3.4332211 12.066
68.926689 130.92546 3.4927075 11.106
69.047256 132.2654 3.4842346 12.068
69.163651 132.72566 3.4108438 11.1075
69.019463 132.91689 3.3693268 11.597
68.867043 134.6133 3.3285553 11.902751
69.014381 127.96265 3.9929335 12
69.057198 128.24751 3.8336554 11.571563
69.197777 128.65982 3.7571201 13.0705
69.061729 127.84994 4.1802158 12.806551
69.005249 128.0952 4.2549543 12.8375
68.901428 128.44888 4.2042198 12.066
69.03492 129.35672 4.3794527 12.099751
68.857124 130.89218 4.1798158 13.026
68.907539 131.22279 4.0529838 11.104
69.185921 132.02425 4.3139687 13.0675
69.023735 128.13373 4.4100137 13.025
68.920784 128.57042 4.511456 11.731999
69.049911 129.12578 4.7175426 11.5365
68.946671 129.37619 4.6887531 12.384334
68.851692 130.56764 4.4860134 12.1005
68.842125 131.04269 4.4755235 12.10125
69.178749 131.95711 4.5316596 12.0675
69.080788 132.28929 4.4821215 12
69.183174 132.49396 4.7115135 11.0725
69.04068 127.42776 4.8821054 14
68.948784 127.70031 5.0445018 13.6444
68.940094 128.1846 5.1302009 11.59075
68.945648 128.99863 4.8850551 13.0655
69.033005 130.5262 5.0700903 12.107
68.854469 130.93372 4.853797 12.0675
68.958023 134.4989 4.9041457 11.0755
69.045349 127.41731 5.4038682 12.039249
68.950798 127.82002 5.4567056 13.768666
69.0242 128.21219 5.4759531 12.757667
69.02079 128.54196 5.4033332 13.51425
69.037766 130.64812 5.353477 13.0665
69.176979 130.99307 5.2576799 12.01
69.014977 131.26665 5.4564881 11.168
69.095161 127.45052 5.8289709 12.373143
69.117188 127.75106 5.8306365 12.8408
69.035301 128.22696 5.8893609 12.786375
69.039764 128.52043 5.9646382 13.416333
69.007912 129.45993 5.8076234 14
68.948624 130.54861 5.7372589 14.067
68.821709 131.01944 5.6648183 13.55975
69.143707 131.74377 5.7746611 12.1055
69.026337 132.26004 5.8828254 13.097
69.058731 135.03987 5.6029167 14.0745
69.032532 127.43268 6.1096888 14.51125
69.183907 127.75313 6.1840725 12.0915
68.820465 129.4021 6.2419367 14.0655
68.887398 129.75691 6.1218667 14.0665
68.871681 130.4892 6.3705487 15.03
68.924263 131.57581 6.058867 13
68.95385 131.71295 6.1884089 13.2609
68.925873 132.20795 6.2842631 13.592751
69.103203 127.06746 6.6684265 14.37625
68.970078 127.45253 6.5631199 14
69.010796 127.73816 6.6948209 14.7065
68.903 128.09903 6.6379294 11.61875
68.856133 128.61143 6.7579751 14.091
69.075035 130.11374 6.5059242 14.066
68.831772 130.95267 6.6447349 15.027
68.925285 131.33838 6.4613171 14.0665
69.075951 132.27316 6.6591988 15.027
68.969261 127.10691 7.0215416 14.084999
69.045166 127.50721 6.9688001 14.0935
69.024773 127.74911 6.9141307 15
69.14872 128.31311 6.9842243 14.903417
69.095558 128.44421 6.8097172 13.106
69.085663 130.59564 6.9030991 12.103
69.033005 131.94391 7.0011797 15.0675
69.186821 127.53316 7.2736921 14
68.835243 129.31638 7.3716207 15.0665
69.108749 131.8295 7.2001801 14.0195
68.909126 131.25191 7.7234879 15.085
69.165253 127.87247 11.071043 10.0035
69.051552 133.76645 10.803261 10.0505
69.455528 123.97101 -0.81058615 9.0625
69.53611 124.0749 -0.86881262 9.0834999
69.259422 134.71211 -0.821706 9.0695
69.538002 135.42787 -0.93676001 9.0869999
69.450623 123.88824 -0.66558808 9.0769997
69.532227 135.11107 -0.41030511 9.1079998
69.346794 135.7923 -0.61746973 9
69.297966 136.16895 -0.52475631 9.1035004
69.310402 123.86432 -0.36805594 9.0227499
69.556618 134.99838 -0.06720452 10.038
69.364525 135.6158 -0.34086257 10.0525
69.543053 134.18787 0.2686097 10.03
69.242996 134.96393 0.20189074 10.0305
69.49868 135.35156 0.14511847 9.0690002
69.536644 135.69489 0.071672902 9.53475
69.430656 136.14491 0.11606184 10.0725
69.446205 129.14191 0.72429013 9
69.416611 134.1568 0.67231917 10.0685
69.393417 134.9705 0.53227657 9.9045839
69.436813 135.37433 0.58589107 10.087
69.38282 135.68614 0.70251733 10.396999
69.278328 136.24724 0.59811646 10.0875
69.479843 129.05127 1.0607191 10.07475
69.489212 129.3868 1.1001015 10.067666
69.501732 132.72176 1.0350064 10
69.355042 132.86295 1.0687257 10.0138
69.479767 134.71657 1.0762446 10.067833
69.414276 135.02106 1.0229706 10.069
69.245483 135.41278 1.1070323 10.08325
69.366943 129.00221 1.5713689 10.56625
69.357918 129.49564 1.5249863 11.066
69.493408 132.73041 1.318364 10
69.362984 132.95407 1.3786482 10.23905
69.294525 133.34232 1.4546136 11.05075
69.526978 133.84488 1.428264 10
69.338356 134.27699 1.4393107 10.344501
69.433556 134.58458 1.4465798 11.0211
69.553047 135.1086 1.3376192 10.069
69.483612 135.35181 1.3560983 11.054501
69.299164 135.6031 1.4435354 11
69.215485 137.6973 1.2448053 11
69.267555 138.03949 1.2926718 11.032
69.354889 129.00658 1.7529289 11.066001
69.296234 129.69579 1.8594085 10.103168
69.252342 130.48065 1.7776606 10.1035
69.277687 132.57808 1.8808032 11.385666
69.344543 132.96159 1.7275164 11.2795
69.47081 133.35338 1.7332968 10.428249
69.462135 133.84691 1.8464768 10.096125
69.270096 134.11125 1.8250916 10.412333
69.584709 134.53841 1.7154586 11.069
69.45903 128.18199 2.0395825 9.0749998
69.236687 129.09378 2.0272374 12.036
69.421501 129.28392 2.027245 11.0655
69.551659 129.99443 2.3426914 11.066
69.377441 133.08978 2.0340693 11.524
69.418953 133.46278 2.1289279 11.2368
69.392632 133.90982 2.1473103 11.007667
69.316841 134.19992 2.1806881 11.022834
69.311783 136.1825 2.253056 11.0695
69.291252 136.65591 2.2626009 11.074625
69.406105 132.72351 2.5615458 11
69.460663 133.05173 2.6366141 11.03625
69.40715 133.37137 2.6879573 11.049666
69.560295 133.89059 2.7554965 10.073
69.237244 136.22447 2.538245 12.0315
69.55555 132.21901 3.0979018 13.0405
69.44976 132.61215 3.0181184 11.669864
69.328308 133.03244 2.9851983 11.340889
69.336395 133.40326 3.0184023 11.2547
69.451614 127.78509 3.3087187 10.03975
69.543358 128.1862 3.4585021 11
69.285591 130.45401 3.5781214 12
69.397621 132.77188 3.5921304 12.0885
69.392075 133.23154 3.2733722 12.0685
69.507507 134.69012 3.429554 11
69.478241 127.56296 3.7642679 12.5
69.38858 127.8693 3.8065925 12.53175
69.357269 128.1572 3.8697293 11.403333
69.470444 128.8138 3.9430695 11.103
69.429329 130.72726 3.9135602 13.069
69.465286 134.34192 3.7760391 12.03425
69.489052 135.65671 3.8094454 13.031
69.325241 127.8336 4.1443505 12.580786
69.438683 128.24092 4.1514335 13.013
69.233437 130.33235 4.0230904 13.03
69.369652 130.76886 4.1631756 13.0665
69.27581 131.19975 4.3715611 12.067
69.425209 131.83856 4.0974445 13.55625
69.284859 132.02527 4.155705 13.027
69.533646 134.57483 4.2427697 13.069
69.408607 128.14868 4.4808321 12.079834
69.376923 129.12073 4.7005916 13
69.446144 129.30211 4.5962462 12.328072
69.325272 131.08295 4.4847393 12.0675
69.447304 131.35867 4.6360707 12.104
69.451126 131.99007 4.4750648 12
69.549164 132.16656 4.736094 12.0675
69.512077 135.38312 4.7609601 13.0695
69.446487 128.56021 4.966764 12.5855
69.247276 129.75867 5.0970302 14.066
69.570961 130.44704 4.9775281 12.0675
69.518257 131.38409 4.8646674 11.0725
69.562241 131.98393 5.0452118 14.0315
69.588524 132.06711 5.1750789 14.0315
69.315102 127.46233 5.3090563 13
69.358452 127.72875 5.4148064 14
69.306541 128.1891 5.3602667 12.019375
69.406815 128.64037 5.4355788 12.594625
69.228119 129.3019 5.3301082 15.036
69.385437 130.66313 5.3513947 13.414001
69.43232 130.86191 5.5194387 13.092
69.423531 134.22499 5.3380666 12
69.21106 134.61142 5.3612528 12
69.44397 127.08314 5.9220958 12.6513
69.314636 127.4732 5.8737636 13.027083
69.321289 127.81791 5.7400765 13.355166
69.344582 128.24193 5.7033234 12.568125
69.41291 129.58528 5.7182384 13.0955
69.581795 129.88751 5.9022698 14.0245
69.539116 130.02618 5.8280787 14.0255
69.40358 131.44557 5.7803178 13.716166
69.499397 131.61409 5.7793584 13.0195
69.554764 132.07408 5.7806215 14.026
69.368095 127.00932 6.0957723 13.338572
69.379311 127.31209 6.1890612 13.9519
69.422119 127.8765 6.1460209 12.906501
69.442345 128.15623 6.2453489 14.078667
69.494453 128.52563 6.2781706 13.411
69.215477 130.00177 6.1506295 13.068
69.249931 131.8082 6.3569899 12.104
69.262985 127.12786 6.608181 13.473
69.31456 127.43085 6.4784422 13.853701
69.306068 127.82767 6.6091328 14.526375
69.298332 131.38313 6.4359274 14.067
69.497383 131.78581 6.6528907 14.0665
69.596474 132.05342 6.6254053 14.088
69.237198 126.85539 6.8565421 15.064501
69.365562 127.69343 6.97228 13.024834
69.495613 128.29077 7.1782188 13.105
69.263466 129.12105 7.096879 15.066
69.441696 127.41527 7.3922887 14.5
69.412766 127.79089 7.3886571 14
69.472778 128.14218 7.3972588 13.333333
69.416145 130.32628 7.9611282 14.068
69.236526 130.51749 7.9466338 13.1045
69.53656 129.62349 8.0722456 15.0655
69.469231 130.39211 8.0782766 14.1025
69.39109 130.79196 8.0266151 14.1015
69.438942 130.10725 8.4682598 15.066
69.229912 127.34003 11.148314 10.0265
69.374939 127.77987 11.093418 10.021167
69.557762 128.76067 11.257722 10.028
69.530594 128.84763 11.377653 10.025249
69.920837 122.06436 -0.82934743 9.0819998
69.956505 122.41312 -0.88320613 8.1669998
69.707703 123.76154 -0.85094261 9.0675001
69.941757 124.28088 -0.88386279 9.0804996
69.821732 133.53172 -1.1082966 9.0710001
69.638092 121.3999 -0.57800704 8.0620003
69.848526 121.94199 -0.67637342 9.0609999
69.807655 122.08829 -0.62212354 9.0511665
69.864838 123.12175 -0.41826022 9.0950003
69.748497 123.41638 -0.70659524 9.0625
69.635681 123.80552 -0.73905534 9.0620003
69.883362 133.13762 -0.66810393 9.0172501
69.849014 133.3708 -0.62474531 9
69.895218 133.7887 -0.59231049 9.0506248
69.895576 134.1667 -0.53834963 9.1014996
69.76738 134.90999 -0.63163733 9.0233335
69.649223 135.49309 -0.50864995 9.0936661
69.770943 135.78436 -0.61314452 9.0960999
69.889275 122.65434 -0.29659948 9.0625
69.944855 122.88644 -0.25351378 9.0647507
69.640625 123.52986 -0.34269565 9.0209999
69.827721 123.64548 -0.38400716 9.0220003
69.859093 132.96223 -0.28114367 9.166667
69.912552 133.29265 -0.24951425 9.6800003
69.905869 133.82845 -0.29543519 9.0816002
69.854126 134.30742 -0.29023808 9.0843992
69.915962 134.43242 -0.39443213 9
69.754982 135.17484 -0.30475429 10.052
69.780556 135.48213 -0.29107234 9.2559996
69.869995 122.3956 0.3518039 10.061
69.888977 122.44194 0.31199756 10.0605
69.964188 122.86705 0.26676774 10.061
69.924057 133.04138 0.37010902 10.0325
69.854286 133.51431 0.26209861 9.6894999
69.841331 133.7672 0.26640582 10.027249
69.881386 134.21646 0.2534619 10.025
69.900612 134.68788 0.10530932 9.6913338
69.888535 134.88573 0.19624704 9.6764994
69.711456 135.49455 0.27644971 10.0695
69.652382 135.76776 0.12730868 10.072
69.741325 129.02863 0.61662656 9.3059998
69.833656 133.51627 0.51188576 10.011333
69.842247 133.71021 0.5172767 10.024117
69.802956 134.25745 0.55391556 10.036875
69.68898 134.62935 0.62181795 10
69.854416 134.84344 0.71833766 10.0345
69.637833 135.95833 0.65766388 10.09
69.807137 129.05362 1.012809 10.087501
69.881813 129.45372 0.82453799 9.0790005
69.676231 129.63281 0.95095026 10.0935
69.947433 133.47699 0.9575389 10.355834
69.949799 133.71185 1.0850309 10.286
69.887032 134.16071 0.94006395 10.6607
69.76545 134.66479 1.0303676 10.2566
69.804733 135.02487 0.80322105 11.0415
69.693787 132.65077 1.2608564 10
69.764633 134.22176 1.4573638 10.3735
69.685616 134.5217 1.3789971 10.551001
69.79364 135.03511 1.3181767 10.2695
69.668442 132.88554 1.6631213 11.068
69.940132 133.50017 1.918287 12
69.741165 133.89313 1.7829638 11.03425
69.727425 134.32854 1.9057434 11.068916
69.615685 134.46973 1.8316041 11.069
69.814507 136.26021 1.7872282 10.095166
69.859749 136.52089 1.6394252 11.07
69.713287 130.17033 2.1028559 9.1665001
69.713547 133.09401 2.1113734 11
69.739502 133.41061 2.1206195 11.260375
69.66291 133.72101 2.120718 11
69.718719 136.15947 2.2456279 11.06925
69.618423 136.59549 2.1947618 11.0875
69.950737 129.78604 2.6572499 11.07975
69.941139 130.17313 2.5572979 11.578751
69.655762 133.22708 2.4968619 11.0675
69.800529 127.94099 3.0691497 10.5
69.617775 128.12955 3.150425 11.0665
69.986809 129.5526 2.9432628 10
69.882256 129.71474 3.0207219 12.052701
69.970535 130.18541 2.9803393 12.066
69.751068 132.63379 2.9255025 11
69.726921 132.91995 3.0354455 11.55
69.754311 133.60185 2.868639 11
69.993736 134.29887 3.0630388 11
69.833839 127.81837 3.3981087 11.8307
69.91301 128.15685 3.4381552 11
69.915642 134.64973 3.4643118 11
69.775383 127.9337 3.8694029 12.5
69.721748 128.08002 3.9441357 11.401668
69.63385 133.88959 3.8355763 12
69.790184 134.13376 3.7631295 12
69.922729 134.58374 3.7532115 11.256399
69.856178 127.92945 4.1997218 12.333333
69.93354 128.08041 4.2222738 12.170813
69.719383 131.5313 4.0239959 13.067
69.90699 131.83556 4.0682774 13.0695
69.814301 134.45496 4.0488358 11.099299
69.824799 135.16718 4.2001338 11.105
69.783447 135.21916 4.1789665 11.1055
69.891273 127.83949 4.4881797 13.009286
69.817581 128.06049 4.4486885 12.530625
69.614075 129.4606 4.5167413 12.068
69.697624 130.46527 4.7793269 11.1025
69.701271 131.81816 4.6259828 12.0685
69.862114 134.19371 4.6068087 12.712334
69.816338 127.95868 5.1101189 12
70.000008 128.14212 4.8218136 11.072
69.958374 128.43042 5.1713386 14.07
69.682541 129.37421 4.8869987 12.067
69.869812 130.75125 5.167613 13.066
69.724968 131.68686 5.0503631 13.067
69.699425 132.53824 5.0343356 14.032
69.936455 127.52367 5.4731641 13.4776
69.932961 127.92075 5.3534822 14
69.840218 128.61288 5.4549198 11
69.756523 129.09514 5.4823408 11
69.903473 129.39548 5.23633 15.0465
69.777496 129.65079 5.4628434 13.0195
69.907753 130.53683 5.2127275 11.17
69.828613 130.85898 5.3066263 14.0665
69.76635 131.4818 5.4833245 12.747666
69.946358 131.88345 5.5141945 14.028
69.879868 132.82355 5.3439255 13.067
69.78701 127.86082 5.709569 13
69.959953 128.14948 5.849308 13
69.704201 130.59886 5.6207166 14.0665
69.827721 131.27145 5.6332722 14.0265
69.657997 131.72154 5.7949448 13.0195
69.849022 128.62866 6.3477187 13.333625
69.661469 129.04657 6.1210017 13.018
69.713669 129.92447 6.1387668 11.079
69.902374 130.09467 6.287106 13.101
69.860313 131.79871 6.2573452 13.56725
69.735634 128.71468 6.5647664 14.043332
69.789886 128.99576 6.61586 15.06775
69.732056 130.25859 6.7868252 13.1065
69.72506 130.58734 6.6630692 15.0715
69.660568 127.58367 6.8450541 14
69.761543 127.9342 7.0759606 12.035999
69.833267 128.3387 6.910428 12.102
69.695602 128.64726 7.1417804 13.55275
69.833603 129.02646 6.839148 9.0585003
69.82515 130.10576 7.067965 13.599
69.772446 127.9259 7.3110161 12.911667
69.696983 128.18733 7.4486341 14.694333
69.820496 128.50809 7.4004955 14.54475
69.814865 129.39944 7.4951782 12.075
69.839828 129.6131 7.598135 14.066
69.607529 129.1962 7.8561707 15.065
69.768257 129.56725 7.7476788 13.736167
69.631065 129.75337 7.7882967 13.435833
69.667709 129.56081 8.0851059 14.0665
69.664787 132.9548 8.8343163 9.0085001
69.966553 127.16701 11.136291 10.0275
69.912025 129.05396 11.318486 10.025
70.34507 122.17613 -0.984864 8.1555004
70.351555 123.01572 -0.82135105 9.0825005
70.032463 123.59937 -0.84203798 9.0830002
70.208206 132.94421 -0.82423145 9.0670004
70.242584 133.42542 -0.88973057 9.0066004
70.088249 133.60719 -0.90967196 9
70.202858 135.29312 -0.92715627 9.0679998
70.327759 122.26667 -0.66589284 9.0275002
70.222351 122.6222 -0.51547545 9.0756874
70.192078 122.87904 -0.60641801 9.0827999
70.221367 123.54778 -0.74105948 9.0284996
70.18248 133.10167 -0.70693004 9.0340004
70.104889 133.37302 -0.59532619 9
70.297798 133.82903 -0.61823332 9.0918341
70.104408 134.18564 -0.44187945 9
70.121132 135.09666 -0.41803581 9.1009998
70.035416 135.41356 -0.56391734 9.1035004
70.209465 122.60065 -0.29352954 9.0754633
70.16111 123.01673 -0.25153884 9.0736256
70.038025 132.75754 -0.21600118 9
70.380096 133.40169 -0.3908529 9.0679998
70.140938 133.66507 -0.30671385 9.2282133
70.129128 134.26166 -0.26239517 9.1055002
70.073952 134.70361 -0.27324069 10.0515
70.034569 135.39319 -0.18501845 10.04675
70.141777 135.64314 -0.16180684 10.039
70.062126 122.33705 0.25806892 10.06
70.007256 122.70285 0.073278002 10.0605
70.230606 122.89769 0.040692184 10.0645
70.239395 134.14326 0.158406 10.053499
70.149834 134.4731 0.29668379 10
70.347389 135.39519 0.27614951 10.031
70.205093 133.45352 0.62781113 10
70.198502 133.74503 0.59594077 10.017
70.092941 134.134 0.52476567 10.03425
70.033203 134.71098 0.51340121 10.05175
70.039978 134.9303 0.71067679 10.068
70.0495 133.85452 0.90697747 11.030001
70.368004 134.82823 0.86466312 11.0515
70.214111 133.34926 1.2005764 11.0365
70.054123 133.53044 1.9354681 12
70.055542 136.06815 1.8723079 11.0695
70.121109 129.66673 2.7325127 10.380834
70.090256 134.5963 2.612818 11.0215
70.188927 127.70224 3.0428143 10.373
70.185875 129.53113 3.0871396 11.661251
70.179024 129.70905 2.9660099 11.430875
70.102051 130.00832 2.9456239 12.066
70.196709 127.15546 3.393754 12
70.196625 127.44058 3.3768842 12.032428
70.100479 127.82175 3.4498434 11.399583
70.105026 129.39754 3.2365649 13.0445
70.230362 129.65677 3.3338292 12.025
70.132919 134.59055 3.5773065 11.108
70.134048 135.07784 3.3054333 11.0125
70.203636 127.48696 3.8181131 13.016251
70.188202 127.71343 3.8083236 12.4175
70.124886 128.11501 3.8467908 10.7595
70.017456 128.43185 3.8696623 13.07
70.209206 134.25391 3.7562671 11.878583
70.140236 134.5237 3.6578715 11
70.145607 127.86629 4.2620401 12.677501
70.156487 128.10223 4.0898275 12.046249
70.286888 130.47549 4.2031016 14.0475
70.364601 131.30197 4.1667361 13.031
70.070778 134.29495 4.0678835 11.1055
70.054482 134.94743 4.3103476 13.074
70.150414 127.43982 4.7648826 13
70.151619 127.77802 4.7009115 12.533751
70.232948 128.14456 4.6855316 12.52875
70.232887 128.65482 4.5883484 13.381333
70.295769 129.10674 4.4613519 14.036
70.279991 132.05017 4.7087359 11.5695
70.13266 132.46834 4.4654436 13.0675
70.131302 134.15855 4.7378759 12
70.243759 127.52908 5.0140362 13.685166
70.156822 127.78641 4.984128 13.037374
70.224785 128.95932 4.9725604 11
70.010918 131.30365 5.1183443 13.07675
70.162743 134.11746 4.9082384 12.068
70.39032 135.59357 5.1425924 12.0685
70.107086 127.85824 5.4504743 12.575333
70.162605 128.15538 5.4476995 12.5
70.274521 129.79333 5.5795822 15.0365
70.211807 131.89536 5.536612 15.04
70.165215 127.95203 5.758018 13.065
70.149368 128.17308 5.7573895 13.68225
70.338364 130.11316 5.8397427 12.1045
70.020149 128.75375 6.149684 12
70.17263 129.86852 6.3797603 14.066
70.323235 130.2475 6.2804046 13.0985
70.165642 130.57666 6.25808 13.321125
70.397041 129.34854 6.5672412 13
70.289444 130.78215 6.7216554 15.0305
70.34761 129.51012 7.0292993 15.0655
70.368217 130.44937 7.3387332 15.026
70.390327 128.68681 8.0000782 12
70.315514 129.36816 7.8190989 14.56625
70.190659 129.70087 7.9291706 14.06675
70.379532 130.38986 7.6662097 14.019
70.27179 128.9893 8.2147436 13.626799
70.067268 129.3331 8.1670704 12.356999
70.186089 129.75316 8.1466417 13.870945
70.336029 130.72398 8.1771536 14.1
70.362335 128.97452 8.5104733 15.065
70.290726 129.29909 8.4067841 13.103
70.110001 129.78116 8.4936285 14.0695
70.366005 126.39891 11.138681 10.0255
70.325035 127.20594 11.112869 10.003
70.492401 121.99986 -1.5683266 7
70.579887 121.81975 -0.94666165 8.1680002
70.558716 122.40623 -0.83839744 9.0790005
70.475319 123.09201 -0.84935445 9.0795002
70.400566 123.78437 -0.8594045 9.0799999
70.493683 133.16623 -0.87554663 9
70.59758 133.37848 -0.88423806 9.0670004
70.604309 135.11581 -0.86990547 9
70.462776 135.20279 -0.87675852 9
70.780548 121.92941 -0.71112674 9.0605001
70.700844 122.15717 -0.62647933 9.0821657
70.589027 122.60007 -0.5405733 9.0970001
70.548439 133.01262 -0.6586892 9.0316668
70.71434 133.43416 -0.64761198 9.0341253
70.52137 133.6804 -0.55566335 9.0360003
70.5942 135.58569 -0.60489446 9.0695
70.64492 135.6097 -0.48860499 9.0699997
70.521996 122.6127 -0.27483928 9.0721664
70.721817 133.72765 -0.37696171 9
70.546333 134.6028 -0.15837382 8.1684999
70.486511 134.14421 0.36616701 10.0335
70.435532 134.62057 0.2634095 10.034
70.789124 133.53053 0.74332339 10.067
70.690842 133.71008 0.64325601 9.658
70.506516 135.4733 0.48798904 10.069
70.715012 133.74353 1.1601536 10
70.634277 133.62842 1.4182142 10.0675
70.598587 129.69051 2.5894642 10.667101
70.571335 134.88464 2.7446239 11.05375
70.546249 135.43086 2.7918916 12.031
70.48584 129.71896 3.0156128 11.273799
70.731667 130.12163 3.0490391 11.019
70.479004 134.84476 2.8949718 12.030001
70.765213 135.45412 2.9780266 12.03
70.664459 135.08459 3.2449098 10.077
70.405937 127.94688 3.8687873 11.1025
70.656708 128.25954 3.9721155 11.0725
70.603348 130.35147 3.7070808 12.0655
70.71994 134.34795 3.6792202 11.0685
70.406113 134.61499 3.8338332 12.089
70.419113 136.13654 3.9597576 13.0315
70.559288 127.81665 4.0222745 11.0705
70.675201 130.62971 4.2807622 13.0305
70.42643 131.58861 4.2352443 14.0485
70.726479 132.01465 4.1950331 13.072
70.495811 134.5966 4.2826877 11.105
70.661316 135.41226 4.3634291 12.068
70.557915 135.75206 4.072103 10.169
70.711166 136.06245 4.0529013 13.0315
70.611099 128.31935 4.5383034 11.690333
70.594551 128.70767 4.7452278 12.018
70.574776 131.886 4.4023504 12.02
70.731087 132.18405 4.507822 13.55375
70.795174 132.82635 4.7539291 13.0675
70.563408 134.54359 4.4886289 11.4355
70.624435 135.45383 4.7760258 13.069
70.717537 135.78014 4.5910988 12.421833
70.691803 128.24841 4.9914365 12.054501
70.665283 129.00243 4.9509897 12.2666
70.608971 129.78499 5.122674 13.065
70.736755 130.1077 4.9157047 12.068
70.566978 132.97495 4.879158 13
70.429375 134.1909 4.8890052 13.068499
70.526886 134.54831 4.9188995 12.10225
70.615761 135.59525 4.8305178 13.069
70.607086 136.55411 4.8453693 13.0695
70.587219 128.13083 5.403574 12.071
70.746185 128.55127 5.4930768 11.0765
70.441719 129.48409 5.3398013 14.0705
70.500237 133.74167 5.29245 13.068
70.450356 134.01993 5.2234368 13.0685
70.79821 131.81885 5.9921999 13.02
70.762726 129.04572 6.1312118 11.0785
70.598213 130.10406 6.1077466 12.585125
70.796898 130.59741 6.8464308 13.067
70.57885 132.52277 7.0222588 15.0275
70.59465 129.48851 7.4825816 12.5002
70.50795 129.68816 7.5955548 13.105
70.645752 131.09273 7.5165772 15.0255
70.491173 128.96176 7.8574066 14.0811
70.696289 129.549 7.9966402 14.098
70.5037 129.8544 7.8781323 14.077
70.586121 129.07726 8.066432 15.071667
70.403412 129.20691 8.2009239 13.103
70.557152 129.71858 8.1408567 14.743333
70.492569 130.86014 8.2645931 15.07625
70.648972 126.98618 8.5795155 9.026
70.52198 129.01585 8.5162544 13.696834
70.619545 129.77869 8.7972584 14.106
70.410217 129.4341 8.9616241 15.093
70.608437 125.8914 11.289923 10.0235
71.041367 133.3277 -0.87311405 9
70.936371 121.22205 -0.60854262 9.0605001
70.877243 121.88422 -0.6227923 9.0609999
71.035599 122.75426 -0.58449036 9.1025
71.007629 133.39635 -0.58545458 9.004344
70.924232 133.71669 -0.48988435 9.100667
71.01165 133.43126 -0.29698953 9.1430502
71.109467 133.67224 -0.23576795 9.1044998
71.104851 133.35776 0.13852204 9.06775
71.008308 133.8055 0.25025889 10.069667
70.801544 134.04947 0.16541873 10.0705
71.060356 133.51099 0.60281998 9.9747658
70.909218 133.6806 0.536735 9.855299
71.115257 136.89281 0.55802107 10.0695
71.19146 136.31081 1.1280357 10.094
70.984604 134.38214 1.2866832 10.106
70.91378 136.10507 1.985162 10.106
71.120689 135.19745 2.2740226 12.0495
70.86277 136.00049 2.3999374 11.068
71.049629 130.00513 2.7886484 10.072
71.063957 129.76772 2.9412227 11.0675
70.949829 130.20914 3.0822694 11.019
71.049622 129.73514 3.3564286 11.066
71.195946 135.42961 3.3933666 11.07
70.808929 135.65109 3.3368008 11.013
70.934731 130.06174 3.6801927 12.065
71.166245 127.52246 4.3713808 14.0515
71.149406 128.21896 4.3881884 12
71.141907 130.24649 4.1494398 12.5795
70.951057 131.00233 4.1697464 12.0915
71.157761 131.59314 4.0343237 11.1045
71.088783 131.80559 4.2693739 11.433667
71.014984 132.34071 4.1804647 12.085999
70.984528 135.40523 4.1484752 13.031
70.89743 136.72333 4.1275883 13.031
70.957359 128.14151 4.5003839 12.0665
71.134125 129.94551 4.682014 12.019
71.100136 130.14615 4.5402012 13.55125
70.863258 130.73592 4.5100117 14.0375
70.882118 131.05 4.7744188 12.1
70.946922 131.29776 4.5417132 13.552999
70.978386 131.67572 4.5147285 12.581249
70.999527 128.15529 4.9660158 11.7365
71.084465 128.50247 4.9616995 12.066
70.880272 128.95828 5.0012503 12.55275
70.85067 129.40698 4.8010139 12
70.918785 129.87111 4.9690366 13.066
70.925369 130.78287 5.1037803 13.06625
71.037689 130.98914 4.907516 12.1045
70.85244 131.79524 4.8197155 13.066999
70.881485 135.4129 4.9044819 12.069
71.053406 128.23639 5.4700027 13.084499
71.114189 128.66766 5.5330944 15.0525
70.890373 129.42992 5.396378 14.0675
70.806358 133.37529 5.5087795 15.05
70.811005 127.78792 5.6194592 14.064
71.156509 128.2709 5.9618297 13
70.98468 128.70967 5.7973914 11.078
71.178139 130.98126 5.8629928 14
70.91758 131.50507 5.8226504 14.5325
70.855461 131.76089 5.8347964 12.585876
70.929886 132.2334 5.8821335 14.027167
71.17601 128.36685 6.3782086 13
70.966995 128.57985 6.3685803 13
71.075424 129.39059 6.1302881 13.546
71.002426 129.96269 6.1553779 12.1035
70.954666 131.93481 6.0060558 13.02
71.173752 129.49382 6.4177685 14.0245
70.844711 131.6514 6.5931206 14
71.166054 128.18025 6.9445586 12.03675
71.064529 127.9207 7.4921122 14
71.022995 129.38264 7.4819846 12.07475
70.913254 130.48463 7.4513345 15.065999
70.813431 130.37991 7.753592 14.019
71.195984 128.64049 8.1439276 15.064
71.059944 129.11841 8.1962461 13.4698
71.089226 129.26775 8.2610531 14.10075
70.864258 129.76662 8.1900139 14.1005
71.360313 133.06007 -0.85087311 9.0443335
71.217728 133.20779 -0.84745342 9
71.332748 122.77332 -0.55473179 9.0290003
71.470673 133.03522 -0.60776269 9.0088997
71.365143 133.31781 -0.53919822 9.0287924
71.384163 133.34052 -0.29989699 9.0485716
71.465179 133.96025 -0.12116409 10.0405
71.300713 133.50217 0.050130565 9.0745001
71.523537 133.93605 0.19126821 9.5552502
71.401115 133.71053 0.7493847 10
71.203377 136.35199 0.75512588 10.068
71.356834 136.86302 0.57877874 10.0695
71.404587 133.6817 0.93339628 10.033501
71.238663 136.54832 0.8245334 10.0695
71.50676 133.93268 1.3009284 10
71.44191 134.07755 1.3159387 10
71.51136 134.18642 1.6907409 10.356
71.462074 134.56828 1.6378598 11.0705
71.291687 136.15791 1.9927261 11.069
71.343353 136.81873 1.7860545 11.0695
71.508583 134.08667 2.088906 11.015692
71.346115 135.14359 2.2101581 12.043
71.417091 129.69928 3.0511651 10.81075
71.216156 135.04507 3.1581872 11.069
71.587242 137.24309 3.0031071 12.0315
71.496254 126.57372 3.2716513 11.739999
71.454819 126.96458 3.4045143 12.0815
71.516884 129.81464 3.5427628 10.592
71.418846 133.56419 3.5044739 11.833333
71.392227 133.85043 3.3674955 11
71.51506 129.76552 3.7569723 11.39775
71.352089 130.12851 3.6987538 11.105
71.299278 132.04025 3.8391945 11.345625
71.593704 134.18892 3.9647012 12.0675
71.583321 134.56374 3.7454045 10.079
71.225578 127.66284 4.0174818 13.069
71.280785 128.13058 4.3986545 12
71.383751 130.23383 4.1883254 11.454301
71.416267 131.4576 4.1990051 11.4967
71.3106 131.74103 4.31991 13.0315
71.501137 132.24142 4.2021775 13.032
71.272919 128.2274 4.5456548 11.784625
71.423965 128.61826 4.7362499 12.042
71.433922 129.02913 4.6120243 13.51875
71.421783 129.57103 4.6171994 13.703667
71.542625 129.82304 4.6720786 13.066583
71.267693 130.04169 4.4530449 13.55625
71.471718 131.16963 4.6215296 13.066
71.246536 131.36798 4.6500411 13.311875
71.206596 132.61343 4.6828218 13.067
71.438942 135.05399 4.4301033 12.0675
71.364616 135.43964 4.5029955 12.0935
71.405495 128.15019 4.9490633 12.411334
71.428696 128.55209 4.9625158 13.065
71.283485 129.42451 5.0404778 13.0245
71.297157 130.08403 4.8258028 13.026
71.503227 130.49379 5.071022 12.07925
71.300926 131.01572 5.0482464 12.0685
71.267357 131.2327 4.8459735 13.0665
71.546326 127.9663 5.3237662 11.075
71.559494 128.64099 5.4841876 14.0695
71.510735 129.23709 5.3040619 13.0645
71.214813 130.1078 5.5777841 15.047
71.440819 131.45598 5.3810778 13.0655
71.542183 131.60545 5.315444 13.07675
71.334412 132.07648 5.3369789 13.0665
71.569283 127.80347 5.7129111 14.06375
71.313202 128.28682 5.9259362 12.071375
71.244499 132.40436 5.7990203 15.0405
71.318634 128.25697 6.2132139 13.01625
71.285507 128.42816 6.127234 13
71.481728 131.65306 6.2320905 14.066501
71.366013 127.76199 6.532094 14.06375
71.453896 128.144 6.6683974 13.905417
71.277481 128.59145 6.406518 14.0825
71.549339 127.97846 7.0669737 14.064
71.403976 128.08267 6.9175577 12.5525
71.481483 128.6658 7.0125785 13.570499
71.237312 128.11893 7.4512367 13.7635
71.2612 128.99016 7.3939576 12.074
71.472542 128.7012 7.885746 14.016375
71.365181 129.06531 7.8571072 13.066999
71.398773 129.52335 8.0043325 14.0665
71.493439 129.68723 8.3716383 14.1015
71.264191 126.73385 8.6044703 9.0270004
71.336975 128.95255 8.6226721 14.584
71.276054 127.25049 11.21675 10.025
71.552284 127.92825 13.304999 11.0485
71.876335 132.63792 -0.82628405 9
71.651871 132.89708 -0.8424201 9
71.860939 132.73961 -0.52200866 9
71.723907 132.99159 -0.54729152 9.0373755
71.915192 133.39323 -0.15560707 9.0862503
71.803223 133.48959 0.35384166 9.0775003
71.672516 133.73099 0.17054628 9.5727501
71.921555 133.14767 0.6054064 10.0275
71.779076 133.44583 0.60571957 9.9197226
71.662704 133.61989 0.6214999 10.033751
71.88002 133.53955 1.0030799 10.025801
71.783745 133.71808 1.1586269 10
71.828453 133.54553 1.2286189 10
71.770721 133.81873 1.3231696 10
71.855217 134.48869 1.5965688 11.073
71.778267 137.16316 1.5910693 11.0325
71.923538 133.90733 1.7784792 10.522917
71.855576 134.02846 1.7392857 10.325786
71.776886 137.2704 1.6361517 11.0315
71.853523 133.93944 2.1344409 11
71.988441 129.79228 2.6467874 11.0905
71.956215 134.66318 2.4502637 11.0675
71.937668 129.5047 3.0799921 11.533501
71.821129 129.74928 2.9869959 11.4671
71.900162 130.17133 3.0143859 11.733833
71.804306 132.2498 2.957526 11.398499
71.747955 132.44942 3.1016138 11.1015
71.927277 132.83122 2.985106 12.072
71.907646 134.09326 3.0253103 11
71.988754 134.90881 2.9991534 11.581751
71.748215 136.4704 3.0786908 10.0755
71.862778 129.49693 3.4753623 11.0645
71.709496 130.0724 3.299757 12.065501
71.934128 131.83047 3.5102859 13.0385
71.763451 132.28178 3.261869 12.0665
71.84008 132.53769 3.4386826 11.087749
71.715981 134.50066 3.3649533 11.401668
71.83197 137.80399 3.4610975 13.0535
71.979675 125.49268 3.8651693 13.033
71.914162 129.18149 3.7188425 12
71.667038 129.48828 3.7474899 11.707333
71.669746 129.81071 3.6929619 12.0655
71.958275 130.91309 3.7902863 12.066
71.779373 131.7912 3.7568848 12
