# .PCD v0.7 - Point Cloud Data file format
VERSION 0.7
FIELDS x y z intensity
SIZE 4 4 4 4
TYPE F F F F
COUNT 1 1 1 1
WIDTH 1258
HEIGHT 1
VIEWPOINT 0 0 0 1 0 0 0
POINTS 1258
DATA ascii
79.047058 21.632921 1.8577378 9.1295004
79.020561 7.5319529 2.2804403 9.1312504
78.830734 11.785382 2.2833698 9.0682507
78.917534 12.17942 2.2712505 9.0463333
79.008972 13.949213 2.3293431 9.1405001
78.977509 14.081019 2.3984196 9.1424999
78.819542 15.153937 2.2755003 8.0214996
78.822952 15.362491 2.3096676 8.0257492
78.912216 15.736426 2.2819891 8.0593328
79.040192 16.211214 2.2440422 8.0272856
79.075813 16.468487 2.2896008 8.305625
79.19928 21.87887 2.2302744 9.0950003
79.147255 22.066513 2.1973612 9.09025
78.835236 23.848289 2.1689694 9.1005001
78.867966 24.524063 2.1857963 9.0909996
79.021194 24.993517 2.375597 9.0747499
79.092514 25.446337 2.3590801 9.0745001
79.14196 7.1127167 2.4338615 9
79.096725 7.3456755 2.4464047 9.1377497
79.114761 7.8707967 2.5018315 8.9145994
79.120049 8.0471983 2.7354367 8.0220003
78.903786 9.0400267 2.5074701 9.1420002
78.915977 10.340293 2.5623889 8.5799999
79.005981 10.540681 2.6703119 8.5785007
78.968597 11.092734 2.5452867 8.0284996
78.960892 11.482394 2.5338154 8.0266247
79.035294 11.834471 2.4808836 8.3027506
78.964264 12.203403 2.4310524 8.9195004
78.814911 13.023391 2.4245152 8.0209999
78.943771 13.783165 2.4258072 8.6754999
78.815659 14.88317 2.4314144 8.0209999
78.822922 15.938874 2.5373485 9.1479998
78.97139 16.110207 2.4301391 9.1447506
79.125961 16.628469 2.4335725 9.1452503
79.138336 16.944841 2.4535718 9.1455002
79.120537 24.319361 2.5030906 9
79.048004 24.639505 2.527488 9.1129999
78.834824 24.994396 2.5234597 9.151
78.976349 25.316193 2.5521212 9
79.194641 27.349997 2.5903881 8.0144997
79.085831 7.0012007 2.8035018 8.0209999
79.112556 7.9703894 2.810508 8.0225
78.918587 8.2828608 3.1200471 9.1575003
79.181374 23.4293 2.8602583 8.0135002
79.143356 24.4695 2.9225261 8.0135002
79.190247 25.041473 3.0816 9.0354996
79.008415 25.43977 2.9476175 9.0411663
78.937103 25.741274 2.9316945 9.0296249
79.016457 26.300026 2.9633105 9.0194998
79.028198 26.582901 3.0164325 8.9069376
79.046951 27.0021 2.9826348 9.0324497
79.00943 27.307068 3.0333972 9.0320997
78.972298 27.91555 3.0651464 9.0795002
78.860298 28.393826 3.0935504 9.0754995
79.105782 7.4893498 3.5556128 10.133
79.046524 8.4387693 3.6000826 10.136
79.158501 11.016859 3.5474606 10.091667
79.1045 11.474392 3.4737074 10
79.019051 11.782003 3.4548895 9.6628008
78.980156 12.369721 3.4333258 10
78.951248 13.292447 3.4904027 9.6079998
78.923058 13.792866 3.4163408 9.6923332
78.990707 14.287225 3.3963921 9.0810003
78.981323 23.222666 3.2923832 9.1595001
79.115501 24.245356 3.2749059 9.0502501
78.931656 24.998581 3.2246902 9.0290003
78.806068 25.307243 3.242837 9.0284996
79.146645 7.1812744 3.6322336 10
78.859474 10.985118 3.6393573 10.141
79.129662 11.639948 3.6605446 10.141251
78.815994 13.129788 3.6475084 10
78.835449 13.258555 3.6555984 10
79.111023 16.173647 3.7147593 10.144751
79.140976 16.512407 3.6816747 10.144501
79.125465 21.916008 3.6220169 8.0015001
78.973991 23.154509 3.8294718 10.049666
79.081078 23.347666 3.7621171 9.5143003
78.865257 24.376209 3.9256155 10.1505
78.892258 24.676605 3.8231096 9.8868752
78.97068 24.918974 3.9603858 10.151
79.065231 25.344978 3.8950691 10
78.876694 25.762152 3.9363129 9.8190002
78.852463 27.975653 3.9234483 10.152
79.000069 8.3697309 4.3988571 9.0244999
79.193535 9.5528288 4.2195826 9.0270004
78.986183 9.7855825 4.1586204 9.0270004
79.026154 10.690001 4.1405635 9.0035715
79.135521 10.812301 4.1055789 9
79.02301 14.125499 4.1194091 9.0229998
78.970612 23.26614 4.3309636 10.0405
78.94194 25.157433 4.2087598 10.044666
78.894699 25.349468 4.2826324 10.039
79.140923 26.062641 4.0743647 10
78.819992 26.575512 4.134635 10
78.952797 26.853903 4.1456141 10.041667
79.196785 27.770441 4.1267838 10
78.889267 28.260689 4.0513225 10.123
79.175629 28.536276 4.3466029 9.0150003
79.190147 29.185667 4.1178441 10.1535
78.982079 29.38398 4.137023 10.133666
79.038437 6.4036732 4.5013542 9.1420002
79.014778 8.6571922 4.6396594 10.57275
78.891693 10.162055 4.5518017 9.0200005
79.066124 10.766902 4.4241371 9.0209999
79.189476 10.991042 4.7673435 9.0194998
79.057503 11.787185 4.7108388 11.068251
78.948799 12.250443 4.6073895 11
79.121048 12.59233 4.436501 8.0120001
79.185829 12.943404 4.6383104 11.136
79.015015 13.454078 4.7277765 11.139
79.063553 14.284696 4.5541687 9.1459999
79.153419 23.016272 4.469316 10.0071
79.184784 23.377092 4.4287224 10
78.903259 23.753338 4.645071 9.0530005
78.933533 25.526611 4.490932 10.033
78.904709 26.677576 4.5126629 10.03075
79.100647 28.32637 4.6567454 10.028
79.141045 28.504667 4.4865713 10.0305
78.915161 7.9954443 4.9615345 9.0600004
78.806717 8.9160681 4.8856411 9.0185003
79.037315 9.713378 4.9443049 9.0710001
79.015129 11.424677 5.0522642 9.1235008
79.154175 11.964804 4.9332304 9.06425
79.170837 12.73696 4.8606782 11.093333
79.011314 12.971536 4.934566 10.920876
79.042473 13.381339 4.9161954 11.142166
79.172974 13.799499 4.9508519 11.047666
79.171158 14.086932 4.9177456 11.07125
79.180756 14.666625 4.9415522 9.0699997
79.069931 23.396326 5.0722885 10.071699
78.905556 23.931036 5.1749878 11.1495
78.826035 25.594128 4.9851289 9.073
78.932411 9.2876024 5.57653 10.0295
79.037979 22.068075 5.4778981 9.1794996
79.139778 23.473938 5.261652 11
79.087563 23.736216 5.2993984 11.075
78.978004 8.8505774 5.6595221 10.0285
79.03907 9.4826975 5.8987918 10.0255
79.013939 10.661454 5.7887926 10.00625
78.989105 10.942092 5.6419654 10.009
78.994995 12.213401 5.9379387 12.069
79.024971 12.483715 5.8669491 12
78.994148 10.888061 6.0113387 10.023
79.071045 12.182855 6.1353664 12.141001
78.977135 12.646541 6.1486897 12.047167
78.920906 9.6992598 6.476306 10.155
78.930061 10.354862 6.4663677 10.144
79.171684 10.514855 6.4678679 10.139
78.979767 12.43352 6.4519534 12.1455
78.93589 10.614891 6.9967122 10.07175
79.0821 10.952751 6.9577107 10.051333
79.070038 10.1375 7.2390137 10.046
79.420547 15.665064 0.39621505 7
79.552841 15.226507 0.50213689 7
79.347527 16.627392 0.61429191 7
79.534317 10.413235 1.1411186 8.1365004
79.51033 13.540604 1.0070537 8.1365004
79.395844 25.511683 1.0249469 8
79.302032 25.756298 1.0865395 8.0428572
79.253944 26.626463 1.025676 8.1505003
79.418396 25.443083 1.2561338 8.1564999
79.436279 26.388702 1.2220507 8.1639996
79.304588 26.519796 1.3848366 8.1610003
79.574142 15.72463 1.7243284 8.1575003
79.556488 22.004248 1.9338299 9.1090002
79.55764 25.898207 1.7129515 8.0316668
79.507942 26.09626 1.7734981 8.5807495
79.525276 26.834867 1.883037 9.1105003
79.379402 27.2665 1.601684 7
79.230446 8.0687838 2.3510935 9.1335001
79.543617 9.2390423 2.3592632 9.1350002
79.431122 13.881308 2.288085 9.0702496
79.296272 14.120524 2.1985784 9
79.272675 15.773669 2.3861387 8.0214996
79.302521 16.611721 2.2336266 8.0210714
79.417206 17.018404 2.2161748 8.0255003
79.301941 22.363201 2.2848072 9.0955
79.540535 22.702532 2.2335978 9.0915003
79.20433 26.584471 2.2391829 8.0144997
79.49221 26.897532 2.2934089 9.1379995
79.444008 6.8606095 2.7981269 8.0270004
79.331978 7.4079909 2.4629552 9.1370001
79.280479 7.9199595 2.5934453 8.5830002
79.348793 8.0364027 2.755605 8.0229998
79.557518 9.2388725 2.4578123 9.1385002
79.440308 9.8303967 2.4503701 9.1394997
79.53376 10.269975 2.4077094 9.1374998
79.353462 11.041887 2.6013796 8.007
79.401482 11.227331 2.5962067 8
79.382195 11.709048 2.5177107 8.1992502
79.239204 22.183817 2.7180808 9.0904999
79.274208 23.487173 2.5004196 9
79.230774 24.142611 2.5064635 9
79.508636 24.596601 2.5553653 8.6402502
79.387375 24.815477 2.4749699 9.1499996
79.318741 26.816792 2.7945008 9.0454998
79.37558 27.383406 2.645354 8.7205
79.443237 27.647997 2.6948795 8.0144997
79.374954 29.240664 2.4600406 9.1520004
79.3246 7.0558791 2.8402658 8.0237503
79.411331 23.538557 3.078227 8.5454998
79.436882 23.655325 2.9816127 8.0135002
79.459732 24.264174 3.0827651 9.0286245
79.318672 24.600204 3.0648205 9.0386
79.268806 24.834282 3.1247959 9.0350008
79.203522 26.304701 2.809695 9
79.328056 26.607084 2.9244504 8.6878328
79.369522 27.032122 3.0911732 8.5165005
79.366829 27.399019 2.9913611 9.0179281
79.482162 27.794556 3.1030109 9.0177994
79.394394 28.509161 3.0547929 8.0004997
79.311859 28.831291 3.0656664 9.0799999
79.382408 7.5693526 3.4499905 10.1295
79.232811 11.603525 3.5289333 10.1375
79.302223 12.144804 3.4353862 10
79.447884 13.075968 3.386044 8.1780005
79.534348 13.286324 3.507972 10
79.455643 13.800047 3.4753761 8.1785002
79.512772 15.35915 3.5061557 10.1395
79.344963 15.830416 3.4878738 9.420001
79.212677 16.557394 3.588959 10.1425
79.314034 22.033634 3.5526021 8.0015001
79.38446 23.02606 3.4450476 8.7840004
79.375961 23.341032 3.387635 8.6876669
79.409973 23.767271 3.3267305 8.5209999
79.441689 24.100451 3.3813415 9.0276251
79.33844 24.461218 3.2393141 9.0307503
79.220497 25.99761 3.5930529 8.1640005
79.40657 26.864851 3.309706 8.0035
79.477379 7.8740544 3.6490889 10.1355
79.591255 11.076897 3.9402385 9.0319996
79.547523 11.414406 3.9947894 9.0295
79.405327 12.690474 3.8074234 9.033
79.451385 12.995584 3.8700743 9.224
79.433434 13.883374 3.9064848 9.0288324
79.338181 15.085567 3.7244697 9.0317497
79.525352 15.358706 3.867734 9.3991671
79.396576 15.861176 3.8522522 9.3984995
79.543228 16.072573 3.9406052 9.0244999
79.259727 21.792322 3.954108 8.0010004
79.431519 22.409239 3.8077736 9.1280003
79.364807 23.058521 3.8134522 9.8046665
79.568695 23.752436 3.7268069 9.1190004
79.203598 25.033941 3.7824321 10.1495
79.223335 25.886751 3.6859477 8.1634998
79.373856 26.181673 3.6865759 8.1639996
79.569458 27.358332 3.7725241 9.1272507
79.421127 27.741259 3.8708842 9.5872498
79.395752 28.396379 3.9873762 10
79.538994 28.652908 3.9881332 10
79.398872 9.7892799 4.1065679 9.0299997
79.409332 10.229827 4.1761012 9.0275002
79.289635 10.571439 4.2999616 9.0236254
79.587166 10.810772 4.2961664 9
79.487305 11.353857 4.0780325 9.0093336
79.419365 11.699406 4.3263383 9.0219994
79.369598 13.036632 4.0485263 9.0266676
79.593018 13.232214 4.1036592 8.0115004
79.345184 22.134453 4.0078077 9.1044998
79.384003 23.016081 4.3030877 10.09775
79.407906 23.317434 4.0785379 9.7644997
79.390366 23.810276 4.3094711 10.0276
79.550697 24.213346 4.3835468 10.02
79.590782 24.791265 4.3710961 10.0395
79.344002 24.982758 4.1708961 10.044
79.406448 27.058329 4.1773882 9.6189995
79.469421 27.381525 4.1691656 10.010063
79.358307 27.785299 4.1367021 10.017357
79.323189 28.166607 4.1004467 10.0195
79.324028 28.57439 4.1367888 9.8693562
79.573418 28.905733 4.0478868 10.045
79.365189 29.215145 4.0069623 10.1525
79.254189 8.3944101 4.4648285 9.0240002
79.337669 9.3468609 4.5353637 9.1435003
79.495613 10.949514 4.5071688 9.0205002
79.380341 11.440135 4.7018619 9.6798334
79.332169 11.785323 4.6528888 10.539625
79.309402 12.3618 4.714777 11
79.466454 12.40244 4.671927 11
79.504578 12.947943 4.7828932 11
79.226151 13.300542 4.5564971 9.1455002
79.228088 13.986615 4.6308594 11
79.415443 22.360361 4.6640773 9.1350002
79.392952 22.66711 4.5360999 10.01725
79.347763 22.979057 4.525496 9.6861658
79.354652 23.407635 4.5893984 10.022084
79.371368 23.773859 4.5626788 10.026899
79.494667 24.177504 4.5248857 10.0355
79.351562 27.224096 4.4567223 10.032
79.513359 27.782093 4.6037383 10.015125
79.336571 28.653143 4.5315928 10.02975
79.493622 28.980768 4.5524578 10.0296
79.270233 12.687377 4.9352331 11
79.40432 12.914143 5.0937467 11.143499
79.272835 13.802769 4.9587221 11
79.309174 14.146087 4.992867 10.728001
79.307266 14.775933 4.9368286 9.0734997
79.448662 21.39521 4.9939184 9.0710001
79.307182 23.323212 5.0992618 10.307
79.410141 23.898115 4.8513536 10.0285
79.432594 24.195971 5.0433397 10.61875
79.467873 28.102661 4.8868446 10.0905
79.57325 11.929556 5.4064131 8.5932503
79.581512 12.287618 5.2174916 9.1750002
79.590614 12.877672 5.4671502 10.029
79.265907 23.150698 5.5627351 11.0425
79.372391 23.454716 5.3805227 11.109
79.419792 23.713736 5.4425426 10.806749
79.28833 24.305666 5.405808 11.1505
79.550156 28.200277 5.4020195 11
79.464027 28.720919 5.2194324 11.05175
79.344658 10.712132 5.6354651 10
79.384995 10.856285 5.6243224 10
79.463829 11.561228 5.6926985 9.177
79.253731 11.951283 5.9821396 12
79.544785 12.149262 5.7333264 9.1765003
79.303856 12.594579 5.7270632 10.026
79.464836 13.237242 5.9707799 12
79.40139 21.686563 5.8173308 9.0007496
79.400978 23.019213 5.9088354 10.0915
79.486671 11.190331 6.0132604 10.024
79.458 11.732351 6.1797094 10.552
79.329475 12.263604 6.3143554 11.878374
79.276695 12.585972 6.2185316 12
79.286301 12.866804 6.3274069 12.143333
79.508141 10.634232 6.500257 9.6665001
79.528343 11.70735 6.4266019 10.0205
79.591469 12.02387 6.4982557 10.086
79.530556 12.505819 6.6190577 11.0845
79.322838 12.990773 6.4114723 12.144
79.569725 21.758074 6.5673847 10.12975
79.436852 11.883221 7.1055474 10.0665
79.556023 12.396082 6.8663502 10.056
79.530602 12.41185 6.8397598 11.085
79.433563 21.871798 7.0870981 10.0775
79.387276 22.007549 7.0946078 10.0735
79.460396 11.909126 7.2283463 11.0865
79.493546 11.715223 7.8849835 11.087
79.556786 12.091919 7.8373108 11.087
79.768448 15.04954 0.52237272 7
79.727478 15.618137 0.6601643 7
79.628441 16.725086 0.75595981 7
79.948502 7.4322104 1.1802739 8.1330004
79.816528 14.166692 1.1293103 8.1405001
79.991402 14.785853 1.1676934 8.1420002
79.992157 14.998842 1.1836842 8.1429996
79.807335 17.257975 1.0628904 8.1420002
79.953903 25.090582 1.1190636 8.1502495
79.893898 25.451534 1.0762153 8.1127501
79.728928 25.772148 1.1034867 8
79.851364 26.717888 1.1325201 8.1514997
79.822197 7.0815258 1.2625347 8.0340004
79.900574 7.3615017 1.2713418 8.1372499
79.984734 14.531528 1.2020234 8.1435003
79.896996 24.414148 1.4070359 8.1610003
79.845764 24.809019 1.3560473 8.1630001
79.802681 25.372038 1.5101645 8.0863333
79.783585 26.106329 1.5703173 8
79.638138 23.156279 1.8622437 9.1300001
79.872864 25.388525 1.7249147 8.0356674
79.681564 25.903482 1.7274516 8.0326004
79.75164 26.21241 1.7006636 8.0349998
79.87455 26.595896 1.6776687 8.0229378
79.832603 26.969734 1.6689186 8.019062
79.780914 27.268555 1.6318831 8
79.972366 27.690516 1.9193184 8.0155001
79.755318 6.9027576 2.2676234 9.1289997
79.640594 9.8748999 2.3322339 9.1348333
79.93158 10.497503 2.3336492 9.1352501
79.919769 11.163474 2.3693988 9
79.875496 11.489471 2.2678354 9
79.66227 13.460589 2.30863 9.1382504
79.645844 16.301229 2.2504487 8.0229998
79.816109 16.704321 2.2501593 8.0223331
79.744911 16.897818 2.2199605 8.0328331
79.632553 25.068094 2.3835564 9.1485004
79.732513 6.9509091 2.5871587 8.7208338
79.686211 7.3573375 2.5648487 9.1405001
79.940331 8.0494061 2.7633688 8.0209999
79.844215 9.0006351 2.6816738 8.1636248
79.751503 9.2662945 2.5277398 8.7693329
79.794601 9.8019304 2.6001911 8.4706001
79.718376 10.215492 2.5926225 8.769166
79.692177 10.580314 2.4516168 9.1402493
79.818214 11.059713 2.4474075 9.1394997
79.841904 11.287663 2.4660101 9.1412506
79.621071 22.985296 2.6006937 9.0909996
79.792603 24.130342 2.6786246 8.132
79.67662 24.538015 2.5523019 9.1505003
79.907768 25.691338 2.7861407 9.0600004
79.903343 26.345072 2.7489154 9.0605001
79.84874 26.716642 2.7773697 9.0485001
79.652664 26.978495 2.6994967 9.0609999
79.887146 27.51709 2.7861617 9
79.81427 27.922525 2.7336802 9.0265007
79.933975 28.334576 2.7473829 9
79.940468 28.60623 2.7341683 9
79.817566 28.978546 2.7108772 9.099
79.71273 7.0889273 2.8350873 8.026
79.653366 7.9833012 2.8034999 8.0240002
79.633766 10.753279 3.1030979 9.1374998
79.868706 23.018547 3.1713223 9
79.846359 23.358328 3.1520846 9
79.802269 23.847319 3.1410015 9.0118332
79.797546 24.092365 3.1338253 9.0379992
79.810974 24.952566 2.9702561 9.0445833
79.859146 25.442524 2.8474381 9.0474997
79.894371 26.076126 2.814631 9.0480003
79.871323 26.819736 3.1423028 9
79.827042 27.763126 2.9439113 9.0144644
79.91581 28.241533 2.9180257 9.016571
79.926811 28.594015 2.8997397 9.0057001
79.946259 28.85412 2.8777249 9.04
79.796532 12.286568 3.53107 9.8726254
79.693306 12.594029 3.5199537 9.5445004
79.8293 15.9494 3.5030336 8.0120001
79.845749 16.198336 3.4481699 9.0557499
79.736679 16.825901 3.4365432 9.0784998
79.813354 22.600018 3.34231 9.0320005
79.769547 22.91168 3.4404345 9.0287495
79.713158 23.387857 3.2513802 9.0337505
79.753868 23.790014 3.2730644 9.0320005
79.694427 24.602777 3.3901777 8.0424995
79.865128 27.426685 3.2054951 8.0019999
79.742996 12.389104 3.7198129 10
79.737045 12.559045 3.7238529 10
79.722305 13.001272 3.7265215 10.0475
79.658707 13.280171 3.7236223 10.143
79.963409 15.118301 3.7726164 9.0319996
79.829292 15.492283 3.8005369 9.0301247
79.887589 15.81502 3.7566249 9.5879993
79.693008 16.092567 3.8772826 9.0272503
79.662682 22.241091 3.7560821 9.1184998
79.770874 24.750772 3.7580628 9.1169996
79.89196 24.813824 3.8622994 9.1120005
79.668091 26.078865 3.9981091 10.151
79.920471 26.882826 3.6036086 8.1645002
79.758934 28.3477 3.8186629 9.5889997
79.844673 6.9734974 4.3967466 9.0264997
79.680107 10.330782 4.0852966 9.0290003
79.614342 10.714693 4.2809892 9
79.7705 10.907788 4.2194657 9.0190716
79.686653 11.40203 4.0676565 9.0188332
79.796066 15.653294 4.2778015 10.1525
79.629066 22.608341 4.2820702 10.053
79.904541 22.927727 4.2936783 10.0455
79.760872 23.46847 4.1384373 9.0772495
79.671883 24.282457 4.2159066 10.045
79.724533 24.441372 4.324729 10.0415
79.673668 24.942947 4.2971768 10.041833
79.954369 25.584625 4.1935782 10.0445
79.762039 27.121435 4.2576952 10.04
79.808228 27.636854 4.0641389 10
79.661278 28.728113 4.1610045 10.0195
79.695351 28.9937 4.142355 10.0323
79.81649 10.243292 4.5752945 9.1440001
79.882118 11.593687 4.4538994 9.1309996
79.854134 11.619465 4.5453997 10.0835
79.77047 13.301868 4.677309 10.01025
79.938019 16.292955 4.7633748 10.0405
79.681541 20.984312 4.6882505 9.1494999
79.723587 22.474955 4.6107244 10.03625
79.643814 22.915838 4.7190752 9.1505003
79.607117 23.79236 4.6806788 10.0325
79.713295 24.471228 4.5387573 10.03525
79.968338 26.24947 4.682312 10
79.922401 26.791412 4.5965595 10.031
79.734459 28.6318 4.7696352 9.0167503
79.791878 29.114166 4.5989852 10.010167
79.871803 10.517282 4.9997339 9.0717497
79.868141 10.849699 5.1015515 9.0430002
79.850281 11.518308 4.9882107 9.0500002
79.670685 12.114595 4.805099 11
79.884331 12.704707 5.0211525 11
79.737587 12.877824 4.9008427 10.033501
79.636696 13.58654 4.977675 9.0695
79.731834 14.13168 5.0852413 10.087833
79.892929 22.609251 4.9673581 10.0285
79.738518 22.800844 4.8129439 10.031
79.986305 23.431362 4.8992624 10.029
79.759804 23.865797 5.0388508 10.30725
79.984818 24.447884 4.8463268 10.029
79.822945 26.543472 5.1806507 10.087
79.848602 26.828995 5.075058 9.0734997
79.880226 11.003147 5.3984146 10.032
79.760574 12.176046 5.4522381 10.054167
79.910347 12.528906 5.5215297 8.0120001
79.85524 12.92397 5.3827534 10.587
79.912949 13.242684 5.5518498 10.0805
79.985527 13.605503 5.5569921 10.028
79.94342 23.746134 5.3813424 10.025
79.782463 24.276186 5.5025492 11.04825
79.631454 26.668179 5.2028265 11.1495
79.855812 27.778746 5.3147454 11.0615
79.76387 28.160547 5.4061251 11.008901
79.866768 28.476141 5.4258661 11.0083
79.831985 29.035109 5.3129101 11.064751
79.788773 11.080453 5.8037796 9.8406
79.811653 11.259615 5.8341651 10
79.861855 11.771429 5.9250245 10.008166
79.841011 12.348416 5.913394 10.036
79.752525 13.083395 5.7447157 10.4575
79.806763 13.50071 5.7930493 10.0245
79.774574 13.69945 5.695971 10.026
79.782631 22.663082 5.6031971 11.053
79.792992 23.047703 5.7904649 11.012285
79.86879 23.241507 5.7888227 11
79.908073 23.841738 5.8373499 11.0375
79.765198 28.13973 5.739038 10.094
79.798088 11.117944 6.3269172 9.1774998
79.725441 11.453363 6.0694847 10.023
79.845329 11.75464 6.1111755 9.5997505
79.680847 13.09929 6.1356659 12.047501
79.914749 13.420272 6.2486358 12.141375
79.982246 13.865269 6.2847824 12.142
79.86924 10.275723 6.414741 10.1275
79.688744 11.196844 6.4002032 10.021
79.648003 11.40165 6.5182061 10.1395
79.690521 11.961079 6.6402102 11.033501
79.826271 12.216906 6.5864792 11.084249
79.793999 12.638947 6.620656 11.0845
79.616844 13.046286 6.4397287 10.0865
79.936836 13.705791 6.478807 12.1435
79.785294 26.854422 6.5825214 10.1335
79.856377 11.377557 6.9177122 10.54325
79.842812 11.78195 6.9691501 10.4345
79.91761 12.207653 6.8312836 11.0315
79.634773 21.87262 7.0188961 10.077
79.637581 22.033426 6.8815293 10.067
79.711739 22.459845 7.1733546 10.0715
79.71109 23.02051 6.8887596 10.0675
79.901207 11.227615 7.2749834 10.523251
80.23069 17.035116 0.54094982 7
80.278526 6.8533702 1.1421692 8.1309996
80.061371 14.068164 1.1788477 8.1435003
80.038086 14.723022 1.1578041 8.1424999
80.28672 16.796621 0.85987383 7
80.346931 16.992849 0.84967709 7
80.035507 25.386183 1.1398422 8.151
80.123207 26.889471 1.0472968 8.1516676
80.278191 6.6128449 1.3456872 8.0895004
80.390213 6.8333778 1.2483848 8.1345005
80.119659 7.4983778 1.271075 8.1379995
80.310631 13.775954 1.2046329 8.1420002
80.181976 14.431288 1.2019647 8.1429996
80.315598 24.775465 1.2900199 8.1534996
80.141602 26.995207 1.3020285 8.158
80.251762 6.5752025 1.672186 8.1529999
80.274933 24.34363 1.815021 8.0322504
80.182922 24.547247 1.7835921 8.0267506
80.250328 25.023056 1.7818648 8.036334
80.058075 25.314569 1.7623037 8.0345001
80.27713 25.907103 1.7128047 8.0314999
80.161476 26.185278 1.7500075 8.3835001
80.073586 27.005093 1.6617534 8
80.000687 27.247204 1.6299106 8
80.025848 28.847044 1.9225348 8.0205002
80.046982 6.8817163 2.3699491 9.1309996
80.031319 8.7169447 2.3307965 9.1324997
80.203003 12.989766 2.3183937 9.0679998
80.119003 13.996063 2.2528813 9.0880003
80.139076 14.216515 2.391427 9.0924997
80.361053 14.537805 2.3704143 9.0915003
80.077492 15.355542 2.2270684 8.0357494
80.209579 16.600384 2.2123079 7.7662501
80.387428 24.018946 2.3384249 9.1370001
80.151672 28.996569 2.0994728 8.0155001
80.094109 6.2384963 2.5141425 9.1367502
80.104454 6.657423 2.4959958 9.1344995
80.122162 6.8338861 2.484972 9.135334
80.198814 8.2462702 2.7410693 8.0225
80.149124 8.4429884 2.7567685 8.0249996
80.132759 9.304553 2.5966539 8.5844994
80.12542 10.093981 2.6370234 8.0157499
80.167427 11.022976 2.4664676 9.1389999
80.331123 13.049752 2.4705276 8.5830002
80.39431 13.368499 2.4549136 8.0290003
80.283905 24.579746 2.5073986 9.1194992
80.017761 27.347624 2.7535641 9.0489998
80.036377 28.143152 2.5410972 8.0150003
80.143761 28.626333 2.7075589 8.7088327
80.361069 28.919222 2.7079451 9.0670004
80.064949 22.911455 3.1420801 9.0404997
80.296036 25.424751 2.8718174 9.0509996
80.016647 27.564297 3.0972126 9
80.122635 27.896206 3.0008051 9.0360003
80.087128 28.194201 2.9418309 9.0170002
80.077522 28.696905 2.9966066 9.0223331
80.175735 28.944086 2.9457541 8.7744999
80.268433 11.460799 3.5339258 10
80.187416 15.08406 3.5171156 8.1789999
80.067383 16.193586 3.4316087 9.0404997
80.249947 23.203314 3.2980874 9.073
80.143593 25.693022 3.5224397 8.1639996
80.282112 26.788218 3.2754498 9
80.024261 27.004425 3.5565839 8.1645002
80.153191 11.163357 3.6232393 10
80.324203 11.51818 3.9465556 9.0325003
80.22303 12.188849 3.7986231 9.5155001
80.050804 12.880562 3.8796616 10.1445
80.103302 13.897327 3.8002434 9.033
80.093842 14.188561 3.8484457 9.031167
80.330643 15.805785 3.7125196 9.0325003
80.200134 16.045401 3.7653241 9.0305004
80.164536 23.035357 3.8701138 10.089399
80.061234 28.397352 3.9749212 10.062
80.103714 11.014738 4.2360983 9
80.225922 11.374381 4.1615615 9.0073757
80.245033 11.77908 4.1833959 9.017417
80.173409 12.156238 4.0033269 9.0295
80.117821 14.315176 4.0405889 9.0257492
80.319115 22.972931 4.0741115 10.1495
80.108917 24.84593 4.1989498 10.0505
80.134911 25.729361 4.2490301 9.1370001
80.004868 26.263018 4.2694407 9.0150003
80.298683 26.53706 4.1818161 10.1515
80.310776 28.067625 4.0403428 10.05125
80.084145 11.187273 4.6011786 9.1444998
80.073898 11.511217 4.7563834 9.0200005
80.117928 12.066866 4.412581 9.0214996
80.155609 13.305465 4.5454173 9.0485001
80.004333 25.9615 4.642385 9.0550003
80.015106 26.390242 4.7437139 10.0295
80.189621 26.539928 4.7013893 9.7903748
80.210526 28.450338 4.4654565 9.0555
80.246407 29.099794 4.6487451 10
80.041267 10.842327 5.0050311 9.0614996
80.163788 12.52344 5.0352588 11.0282
80.035973 23.11109 4.9981542 10.088
80.281761 23.748367 5.1083779 9.5225
80.305008 24.109514 4.8634486 10.0295
80.11219 26.243116 5.0164948 9.0144997
80.195572 26.641909 4.9228826 10.02725
80.326996 28.507227 4.9566455 9.0150003
80.088417 12.916542 5.2138171 11.1445
80.241737 13.562526 5.4794068 10.029
80.141663 23.561558 5.2365308 10.0255
80.133621 26.265455 5.4150066 11.081
80.241821 27.699583 5.4139104 11
80.017403 28.02528 5.5200062 11.042
80.230026 11.298014 5.7366133 10
80.012444 11.868599 5.9003391 10
80.392372 12.212264 5.8961954 10.0255
80.03521 12.733366 5.6899872 10.0765
80.070572 13.470392 5.9326601 10.0235
80.202187 13.699628 5.7051315 10.037126
80.358658 23.3869 5.8895144 11.0385
80.138916 23.804035 5.7264051 11.028
80.291573 24.424093 5.6060524 9.0004997
80.332329 26.076899 5.6719508 11.041
80.235985 11.774682 6.204865 10.0225
80.258812 12.266387 6.1322708 10.092751
80.37796 13.065471 6.37357 11.0845
80.145668 13.720181 6.1320028 12.139
80.248695 11.108623 6.6077199 10.1445
80.051559 11.835867 6.4088368 10.021
80.115257 12.153238 6.6293135 10.0205
80.366417 12.454754 6.5897255 11.035
80.019814 13.143515 6.636529 11.085
80.188889 13.704249 6.6034889 12.145
80.214363 11.708558 7.1793499 11.0285
80.091133 12.06636 6.9512053 11.03
80.273369 25.027842 7.0332856 10.0735
80.258255 11.05384 7.431685 10.047
80.159081 11.383263 7.3043184 11
80.286148 11.63774 7.2939439 11
80.078621 12.691082 7.2635326 11.087
80.615425 26.189369 -0.38350099 7
80.741631 17.208454 0.33428946 7
80.591949 14.863009 0.63892341 7
80.437538 7.3260202 1.0439149 8.1295004
80.727814 15.593756 1.1811092 8.1444998
80.622833 24.691051 1.1154422 8.1494999
80.437271 24.857094 1.1389337 8.1499996
80.772057 6.3299294 1.2998139 8.1370001
80.418129 13.995183 1.2162508 8.1429996
80.674606 15.444116 1.2108666 8.1440001
80.509766 26.011593 1.5448942 8.0480003
80.657768 6.6299219 1.638329 8.1534996
80.491188 24.318787 1.8267437 8.0336246
80.575294 24.596334 1.7868211 8.0373335
80.670296 24.907234 1.79812 8.0362501
80.710541 26.524891 1.6931446 8.0415001
80.682571 26.97205 1.6683469 8.0360708
80.504303 27.295006 1.6401426 8.02775
80.597672 16.669683 2.2544258 8.0235004
80.712036 16.866524 2.3223135 7.6834998
80.505608 8.0290604 2.4464614 9.1344995
80.763649 11.015038 2.6161463 8.0061245
80.695168 11.727883 2.5117157 8.0220003
80.549423 13.149735 2.47194 8.0325003
80.694496 23.1702 2.4347029 9
80.646759 23.40477 2.5156398 9.1116257
80.697182 28.88179 2.611727 9.0565004
80.546021 23.630676 3.1262763 9.0410004
80.53685 27.836704 3.0284696 9.0354996
80.554031 28.23053 3.0273809 9.0340004
80.669563 28.697397 3.0922945 9
80.585434 28.96426 3.1077111 9
80.698082 15.180292 3.5401096 8.1789999
80.54171 24.105846 3.2869959 9.033
80.703789 14.609505 3.8213303 10.143
80.755287 14.803374 3.8525276 10.1435
80.624329 15.919554 3.860518 9.0292501
80.589943 16.256599 3.8203528 9.0195837
80.618622 16.578943 3.8128319 9.0294008
80.417992 11.538754 4.3984022 9.0225
80.438225 14.389444 4.27913 9.1040001
80.582558 22.924244 4.0194569 10.149
80.464157 26.275534 4.1183596 10.151
80.713837 27.427429 4.1105714 10.049
80.426567 27.905231 4.1082144 10
80.557281 28.750811 4.0285301 10.0535
80.484138 13.139112 4.5442057 9.0209999
80.404793 26.776829 4.6720166 10
80.572388 26.931322 4.7409067 10.03
80.45726 28.774422 4.567348 10
80.493805 12.3796 4.9934101 11.1395
80.706787 14.316731 4.8981504 11.1385
80.544327 14.415532 4.9151802 11.1395
80.621925 23.000046 5.0008979 10.5165
80.522125 23.352032 5.1832309 11
80.518105 24.273497 4.808136 10.0305
80.417046 25.655315 4.9525008 10.0275
80.737274 26.240263 5.0203123 10.0895
80.486092 26.544287 5.0770655 9.6803331
80.645981 26.812426 4.9183798 10
80.652962 25.377605 5.545187 11.05325
80.656837 25.602102 5.5881605 11.0445
80.442932 26.373453 5.5972652 11.043
80.632141 27.34428 5.4337854 11.055
80.716782 11.133664 5.726191 10
80.58065 11.378793 5.8024697 10
80.546532 13.720635 5.7022638 10.077
80.451752 24.295431 5.9162664 9.0019999
80.744499 25.747267 5.787147 11.0395
80.499969 26.285158 5.8059645 10.566
80.657837 26.618204 5.6907072 11.041
80.549004 11.935965 6.3671503 12.141
80.477409 12.045531 6.3893819 12.1415
80.674515 12.621729 6.2813392 10.021999
80.696144 11.40556 6.6698318 10.156
80.57859 12.108475 6.5928407 11.772667
80.715187 12.619473 6.5983367 10.163
80.769646 12.902535 6.5867672 10.021
80.752213 11.538085 7.1698322 10.072
80.513725 12.255307 7.0504546 11.0295
80.498795 12.675845 6.9329476 11.0305
80.459557 11.806821 7.2135797 11
80.695236 12.245946 7.3520231 10.063
80.453331 13.499435 7.2688346 11.0875
80.420967 25.309334 7.2410197 10.075
80.570808 12.831017 7.93151 11.0875
81.17173 24.59602 0.21534087 7
81.040855 25.076221 0.38352925 7
80.887093 17.422363 1.194185 8.1450005
81.031479 24.369484 1.1542276 8.1494999
81.092583 24.49992 1.111527 8.14925
80.941147 25.741907 1.0402188 8.1485004
81.061867 29.195755 1.1167116 8.1525002
81.03167 29.341198 1.1223123 8.1522503
81.196144 29.772963 1.0175301 8.1529999
80.870407 6.6626363 1.2996362 8.1356668
81.065758 6.9873738 1.2992525 8.1374998
80.962616 25.009359 1.5377893 8.0594997
80.960754 26.693192 1.5454074 8.0469999
81.127319 28.29137 1.5889961 8
81.197441 0.85257155 1.9306631 8.1490002
81.068512 6.23173 1.669862 8.152833
80.89093 23.984138 1.9399273 8.0255003
81.149399 24.032986 1.7961839 8.0415001
81.046371 27.163607 1.6647471 8.0310001
81.190811 27.438128 1.659483 8.0299997
81.189301 28.299635 1.6131617 8.0305004
81.109589 0.82214373 2.0094593 8.1494999
81.122971 15.487164 2.3212953 8.0240002
81.190048 15.684782 2.3361869 8.0334997
81.004349 16.482426 2.2713244 8.0132504
80.879044 23.941948 2.2185972 9.0944996
81.12014 6.2761984 2.584116 9.1359997
80.832985 11.153881 2.5875778 8
80.829643 11.335296 2.6173472 8.026
81.025032 11.73491 2.4958189 9.1389999
80.863075 13.487063 2.4600499 8.0319996
80.917427 23.379969 2.5385673 9.1204996
80.888092 23.914131 2.617471 9.1494999
80.937645 24.154482 2.5540347 9.1488333
81.071884 25.164776 2.6240129 9.1499996
80.82663 23.11623 3.0507562 9.1564999
81.170799 23.116707 3.2894783 9.0372505
80.883072 27.190834 3.4832504 8.0434999
80.952133 15.457468 3.8021431 9.0325003
81.093338 15.74941 3.6786282 9.0354996
80.850998 16.040697 3.739296 9.0327492
81.065781 16.623047 3.8238306 9.0174007
81.160538 13.093549 4.1910477 9.0262508
81.100708 13.475285 4.0933952 8.0120001
80.807785 13.872462 4.1531858 9.0244999
80.864632 15.54831 4.3575292 9.0220003
81.05278 22.780443 4.0119987 10.1485
80.848396 28.759861 4.0750842 9.533
80.862953 10.902883 4.5615468 9.0209999
80.953865 12.307985 4.6170645 10.084
81.131561 13.380981 4.6395416 9.0209999
81.01564 28.838282 4.7595062 10
80.805313 15.18188 5.1121135 10.035
81.114883 15.823347 4.9559598 10.0375
81.040886 25.239697 5.0599508 10.089
80.968292 26.155432 4.9223719 10.02825
80.893829 26.827208 4.8033533 10.0295
81.098976 13.375759 5.4709754 8.0124998
81.113281 23.878708 5.2753077 10.026
81.107849 26.840103 5.5215535 11.0485
80.837425 11.335471 5.7162352 10
81.053101 14.150951 5.7336116 10.073
80.809471 25.705185 5.6869249 11.0425
80.981697 11.857543 6.2726932 12.1374
80.881035 12.002132 6.394289 12.1405
80.983063 12.557838 6.1730165 10.023
80.928658 13.069118 6.3663273 10.0215
80.944847 11.508673 6.4508572 12.141
80.871742 11.835223 6.5489755 11.112375
80.983177 12.265842 6.6408563 12.143
81.133858 12.904564 6.6383095 11.0355
80.88224 12.53565 6.9998031 10.54125
81.080818 12.864351 7.0008693 11.03075
81.160042 13.225929 6.8725643 11.0325
81.01532 11.321152 7.2567487 10.070499
80.918434 12.341265 7.231319 11.0285
81.457298 24.341883 0.35796973 7
81.348953 24.653055 0.16685989 7
81.306976 17.149734 0.46866715 7
81.440811 26.89712 1.1650856 8.151
81.318657 29.427483 1.0932163 8.1520004
81.561737 6.1696992 1.3222839 8.1365004
81.58799 7.3797994 1.2419269 8.1339998
81.365067 8.6460657 1.2146345 8.1350002
81.295219 8.8582468 1.2858239 8.1385002
81.214661 25.686729 1.5033402 8.0600004
81.311432 28.618313 1.5818008 8.0151253
81.340797 28.882053 1.5690335 8
81.541489 0.31336749 1.9628836 8.1490002
81.41394 0.56298333 1.8834362 8.14925
81.431725 5.4638958 1.9382401 8.1520004
81.447411 5.8302588 1.6740223 8.1525002
81.358223 24.028236 1.787649 8.0405006
81.520332 25.321156 1.7879723 8.0384998
81.500854 27.909546 1.9220628 8.0159998
81.275452 28.257145 1.6355804 8.0155001
81.296997 28.549368 1.668479 8.0082502
81.254616 6.0970917 2.3691883 9.1285
81.549782 15.801125 2.306798 8.0235004
81.529327 17.011219 2.2420642 8.0256252
81.293129 5.9844422 2.602356 9.1350002
81.246788 6.0306363 2.5760438 9.1339998
81.493149 10.90084 2.6146858 8.026
81.520615 12.554235 2.5498788 8.0295
81.378456 22.935375 2.6038961 9.1485004
81.542259 23.451567 2.6454256 9.1490002
81.493462 24.104973 2.7668796 9.0909996
81.503418 24.659164 2.5298867 9.1485004
81.203773 28.442129 2.7396977 9.0574999
81.33773 22.753635 3.1113167 9.0439997
81.306877 24.065729 3.0083699 9.0465002
81.566177 28.052471 2.8059154 9.0495005
81.503494 28.949062 3.0152905 9.0354996
81.26474 14.083887 3.5898566 9.073
81.494324 17.217178 3.4426301 9.0415001
81.383316 26.175421 3.5065396 8.0430002
81.310402 16.593966 3.6913655 9.0205002
81.435822 16.869928 3.7968254 9.0310001
81.331947 22.84123 3.8703969 10.146667
81.326927 24.604156 3.9163382 9.1239996
81.471565 9.6405735 4.2676363 9.0284996
81.528397 12.16008 4.3438773 9.0235004
81.222786 22.944885 4.0729661 10.149
81.39196 23.773746 4.1018972 9.1070004
81.205139 27.88448 4.3280473 10.042
81.340706 13.676289 4.5322771 9.0214996
81.413963 23.79147 5.0323744 9.6899996
81.437157 13.432076 5.3174677 10.034
81.24456 15.478437 5.2535858 10.0325
81.467796 23.807373 5.2648616 10.0265
81.447754 24.387527 5.3994575 8.1549997
81.308792 11.535585 5.8592162 10.076
81.480339 13.399979 5.989749 10.0245
81.337395 11.488018 6.385581 10.022
81.291298 12.954491 6.2056522 10.02275
81.516777 13.344133 6.0875812 10.02375
81.408188 25.259356 6.0019026 10.0925
81.204842 11.032021 6.5125022 10.0215
81.243584 11.991096 6.6993222 12.1435
81.324554 12.872377 6.6863332 11.0845
81.247505 12.967084 7.1752191 11.02925
81.358757 11.931013 7.2831459 11.029
81.401138 12.393308 8.0937347 11.0875
81.77771 0.52409965 1.1655765 8.1225004
81.857338 25.966749 1.1440141 8.1505003
81.894501 26.079964 0.99905854 7
81.752167 28.988497 1.164369 8.1520004
81.900452 0.14858831 1.4042158 8.1285
81.743187 0.54113901 1.2138264 8.1245003
81.754333 28.72818 1.450157 8.0502501
81.697906 29.023134 1.5388973 8.0423336
81.805817 29.305397 1.5092529 8.0411873
81.926064 5.8968325 1.8917937 8.1520004
81.935997 21.394075 1.9855474 8.0264997
81.628601 28.166065 1.6399424 8.0360003
81.759331 28.578581 1.6182054 8.0384007
81.761597 28.942289 1.6466625 8.034584
81.847427 15.086732 2.384372 8.0340004
81.737076 16.204872 2.2596171 8.0229998
81.805824 17.065172 2.2573354 8.0262499
81.888504 21.213755 2.0015607 8.0255003
81.769173 5.665977 2.6314418 9.1355
81.751305 10.943078 2.628124 8.02775
81.918777 12.197498 2.5811081 9.1407499
81.83255 22.322165 2.6038163 9.0739994
81.874313 22.493114 2.6308949 9.0590992
81.653702 28.90443 2.6087849 8.0155001
81.927895 6.6636209 2.890204 8.026
81.886856 7.0567331 2.8599565 8.0282497
81.807236 28.16872 3.0762749 9.0360003
81.733192 28.572748 3.1061738 9.0190001
81.724335 29.019932 2.9840598 9.0395002
81.682755 22.31251 3.348418 9.0380001
81.833199 28.455488 3.223989 9
81.843201 27.630817 3.6484544 8.165
81.646248 25.325972 4.3924918 10.0915
81.674767 23.653942 5.1243644 10.0285
81.612274 13.432165 5.4536529 10.032
81.636871 23.849463 5.2157879 10.027
81.615997 13.159107 5.9594002 10.025
81.684349 13.473446 5.7363467 10.028
81.738899 13.194072 6.3121147 10.0225
81.955063 13.443812 6.3917327 10.022
81.627106 24.205873 6.0546227 9.0015001
81.629982 11.846436 7.1265192 11.031
81.721817 13.415723 6.8943253 11.033
82.351112 20.969448 0.28558052 7
82.052406 16.634592 0.42375529 7
82.385414 20.827694 0.51980913 7
82.33123 21.268175 0.56968307 7
82.062263 7.9338169 1.0645663 8.1300001
82.265007 20.998051 1.1770786 8.1475
82.281761 25.866774 1.102731 8.1490002
82.376152 26.087442 1.1867385 8.1505003
82.17247 29.437027 1.0510453 8.1520004
82.058128 0.13462776 1.4623057 8.1304998
82.03141 5.9773865 1.3527869 8.1350002
82.222084 6.3117304 1.3481256 8.1359997
82.16732 28.585356 1.4241023 8.05375
82.136765 29.477034 1.5526694 8.0439997
82.210365 20.565575 1.8897541 8.0474997
82.186058 21.101101 1.8962635 8.0415001
82.177925 21.716459 1.9915586 8.0292501
82.378059 22.067024 1.9971764 8.0314999
82.207642 24.647291 1.6551126 8.0487499
82.240944 29.034204 1.7031968 8.0170002
82.061234 15.870952 2.3155503 8.0244999
82.23616 16.592274 2.2981844 8.0324993
82.116661 16.949625 2.2826936 8.0306997
82.177643 20.707811 2.0667305 8.0369997
82.198456 20.968929 2.0428591 8.0334997
82.238464 21.383453 2.0282285 8.0323334
82.282593 21.717552 2.0423386 8.0296669
82.25972 0.74416512 2.7030308 9.1280003
82.017044 5.6865349 2.6332998 9.1359997
82.058533 6.0633163 2.5577941 9.132
82.375488 13.118451 2.5133746 8.0295
82.092117 16.806406 2.693177 8.0174999
82.102089 21.715506 2.5923874 9.0738745
82.19471 22.317392 2.6042407 9.1475
82.166039 23.117243 2.6322858 9.0739994
82.023003 28.259369 2.5624032 8.1274996
82.089081 3.1240225 2.9561691 8.0474997
82.086983 23.325771 3.0959291 9.0459995
82.025833 28.307825 3.1892357 9
82.289566 28.491255 3.1415906 9.033
82.276108 29.108559 2.9772902 9.0430002
82.269112 21.296997 3.2186189 9
82.183868 21.854101 3.2376397 9.0419998
82.384972 22.147385 3.4450977 9.0810003
82.029282 22.727259 3.3746676 9.0769997
82.117989 27.239233 3.3452189 9.0279999
82.351601 21.807844 3.9603126 10.07275
82.2248 22.495195 3.9300356 10.146
82.107712 27.574858 3.6585114 8.1654997
82.286079 21.839972 4.1098418 10.14775
82.328117 22.764177 4.1186719 10.0735
82.161407 22.96129 4.1286454 10.029699
82.072601 27.755632 4.045362 8.0155001
82.057495 23.752045 4.959024 10.0315
82.191376 24.24601 5.0711169 10.03725
82.236214 22.234262 5.2143731 10.0875
82.143364 22.474945 5.3447218 11.146
82.231621 23.305393 5.5256238 10.881125
82.354256 24.046442 5.3492565 10.0265
82.326149 21.828793 5.983417 11.0525
82.25354 23.111139 5.7277088 11.0495
82.119949 23.48752 5.6734843 11.149
82.259705 25.784876 5.7771235 9.0010004
82.32769 22.806238 6.8280625 12
82.481979 20.589838 0.57127148 7
82.57531 21.316732 0.55697453 7
82.586479 7.9692755 1.1730418 8.132
82.59095 19.547129 1.1926177 8.1464996
82.46402 19.692869 1.1695976 8.1450005
82.584908 20.250952 1.1920265 8.1464996
82.412315 21.79192 1.1144036 8.1455002
82.59462 24.92518 1.1782137 8.14925
82.479408 29.293711 1.128086 8.1514997
82.503281 0.22520253 1.4152586 8.13025
82.467506 0.45286357 1.4482416 8.1315002
82.564476 7.9846101 1.2328343 8.1335001
82.606651 8.0296183 1.2552589 8.1344995
82.62368 8.4944916 1.3196007 8.1385002
82.711121 14.090728 1.2452161 8.1409998
82.753128 14.50113 1.2614908 8.1424999
82.649254 19.766609 1.2219144 8.1462498
82.543594 26.049465 1.3095534 8.1555004
82.793633 28.766834 1.5916381 8.0299997
82.562164 28.880135 1.5909913 8.0295
82.674812 6.2268829 1.8895196 8.1520004
82.595406 21.538704 1.8244519 8
82.53566 21.921223 1.983687 8.0284996
82.741539 22.764765 1.9401907 8.0290003
82.444595 25.609201 1.7969676 8.0404997
82.787552 26.001228 1.650682 8.0450001
82.572807 26.733864 1.7389715 8.0377502
82.708 26.922544 1.7342793 8.0357494
82.640694 28.237612 1.6629153 8.0407495
82.600014 29.007269 1.6106895 8.0354996
82.615334 16.254511 2.3516519 8.0319996
82.595329 16.989326 2.2926788 8.0288343
82.51947 20.628532 2.0695405 8.0318336
82.565269 20.997038 2.0409217 8.0279999
82.50293 25.842737 2.3905241 9.1374998
82.537239 21.234015 2.5716817 9.1459999
82.584755 21.894098 3.1991742 9
82.776817 22.360022 3.1804869 9.0530005
82.505501 0.088022552 3.2796319 8.0229998
82.658691 0.41428196 3.2633817 8.0249996
82.691154 21.100006 3.4105659 9.0395002
82.47541 21.68745 3.2058372 9
82.605728 22.307745 3.4636371 9.0725002
82.46907 14.300806 3.6297874 8.0124998
82.597214 14.650347 3.6318142 8.0124998
82.49028 22.769999 3.9627013 10
82.61335 23.055662 3.9784024 10
82.511528 20.319941 4.0783172 8.0004997
82.571785 21.720585 4.0648298 10.147
82.475792 22.661066 4.1028328 10.14775
82.505959 22.931953 4.0743399 10.0495
82.426918 23.221128 4.0865588 10
82.691673 21.336187 4.6478243 10
82.567574 21.682161 4.6136308 10
82.770126 22.591759 4.5532212 10.09
82.578903 27.911459 4.5001945 9.0159998
82.471329 19.971983 4.8760047 9.1490002
82.799774 20.520363 5.238862 9.0705004
82.496323 21.983568 5.4465995 11
82.542595 23.006222 5.487586 11
82.715874 23.384403 5.3421569 11.1455
82.778374 23.911503 5.3503194 10.027
82.640656 24.460287 5.5443845 11.148
82.447609 23.005045 5.7291112 11.149
82.622955 23.480736 5.7297759 10.024333
82.6717 23.676241 5.985744 11.151
82.69799 24.375591 5.6328053 11.1485
82.677055 24.491688 5.7101221 11.149
82.514038 24.82416 5.8367419 11.047166
82.726479 21.055223 6.2052655 10.0005
82.670341 21.40608 6.0574665 11
82.504433 21.7549 6.0123425 11
82.67392 22.019537 6.0167484 11.045
82.673393 23.012733 6.1760402 9.6795006
82.515579 24.318476 6.1440144 10.092
82.641174 22.739388 6.9284739 12.097833
82.715462 23.540735 7.0069385 12.147249
82.731415 20.990154 7.4441719 10.077
82.630974 21.604095 7.4852486 10.071
83.078468 27.671524 -0.0078241946 7
83.121498 16.279818 0.33816177 7
83.033562 21.355936 0.36702931 7
83.021103 22.333715 0.33067903 7
83.017273 22.607122 0.17289183 7
82.855721 27.50168 0.087167099 7
83.028664 21.413919 0.50196075 7
83.04435 22.19352 0.49585342 7
82.97493 22.406054 0.44275019 7
82.90918 23.917902 1.1742345 8.1490002
82.862488 24.783649 1.1690683 8.1494999
82.87516 7.9486742 1.3285943 8.1359997
82.842957 8.3672771 1.3264995 8.1379995
82.953697 19.417753 1.2232691 8.14575
83.137375 20.985126 1.2296686 8.1470003
83.038315 23.424688 1.2143093 8.1485004
82.928268 23.703314 1.2102681 8.1487503
82.823639 20.290785 1.9549003 8.0410004
82.855652 21.574327 1.9117411 8.0392494
82.851051 22.156116 1.9878352 8.0345001
83.177307 25.577444 1.778214 8.0290003
83.107422 25.64756 1.7980162 8.033
82.926735 27.061684 1.7173132 8.0365715
83.105461 27.270607 1.7037369 8.0340004
82.802521 28.695848 1.6027265 8.0174999
83.102501 15.335022 2.3791709 8.026
83.196106 15.695003 2.3981757 8.0290003
83.12645 19.020548 2.0013716 8.0465002
82.997406 19.905313 2.1287527 8.0325003
83.109024 20.108721 2.1033933 8.0356665
82.888939 20.702347 2.0593507 8.0270004
82.886353 21.291979 2.0236905 8.0170002
82.809029 22.121819 2.0103974 8.0325003
83.110107 1.3088685 2.757972 9.1295004
83.059586 12.604042 2.583988 8.026
83.02108 19.758665 2.486479 9.1429996
82.934151 21.783628 2.6706171 9.1472502
83.062668 1.3404604 2.8041668 9.1315002
82.909866 5.8084164 2.9675791 8.026
82.893349 20.614908 2.8374207 9.0900002
83.044472 0.1361376 3.3384736 8.0222502
82.928841 0.90278029 3.218699 8.0200005
83.135399 20.205584 3.3000066 8.04
83.081841 21.35895 3.4315557 9.0183754
82.940407 21.561865 3.9589598 9.1274996
83.038757 21.439884 4.1101851 10.146749
83.018906 21.813265 4.1641493 9.8061666
82.972801 22.56587 4.208508 10.148
83.126244 23.838495 4.3300419 10.149
82.862862 21.042616 4.6830955 10
82.879448 21.314114 4.6758461 10.048
82.856621 21.713221 4.6095266 10.071
83.037056 21.0921 5.773108 9.1789999
82.879288 22.531366 5.7125874 10.0255
83.145645 22.833569 5.7475243 11.148
82.948463 23.773897 5.8644271 10.903501
83.093208 22.291962 6.2851224 10.565
83.007652 23.073957 6.0152121 9.0144997
83.072929 24.970703 6.090641 11.1515
83.014206 22.710846 6.5749722 11.09
83.159439 23.009195 6.4214301 11.0355
82.925919 21.244656 7.1208692 10.0605
83.196304 22.271704 6.8947682 10.1305
83.145622 23.144203 7.0110531 11.0905
83.015121 23.314514 6.9862614 11.872666
82.820358 21.139456 7.4663296 10.073
83.179337 21.435011 7.5677285 12
83.001541 21.793139 7.5784616 10.061501
83.140244 22.118073 7.5136919 12.0485
83.196869 22.926607 7.4435649 10.0915
82.959633 23.55127 7.3496103 12.111626
83.102448 21.868774 7.7531309 10.041
83.522789 15.893437 0.57149875 7
83.346825 16.232479 0.64379638 7
83.241219 21.128519 0.44469085 7
83.348373 21.430443 0.48584861 7
83.315887 21.740952 0.53800207 7
83.36908 22.611483 0.46767566 7
83.578003 22.841909 0.48628074 7
83.484833 22.911444 1.1946113 8.1475
83.25959 11.936267 1.3351535 8.1429996
83.385216 20.691139 1.2280108 8.1464996
83.235649 19.706186 1.9630734 8.0469999
83.240044 21.781054 1.8241851 8
83.507378 22.589773 1.9928803 8.0384998
83.471161 23.05287 1.9157957 8.0396252
83.36705 27.46435 1.710483 8.0380001
83.317429 16.044413 2.292274 8.0235004
83.590919 19.175812 2.1759007 8.0354996
83.387329 19.388212 2.1145687 8.0328007
83.486542 19.640234 2.0976536 8.0249996
83.246696 20.028917 2.1441767 8.0345001
83.339645 0.8208611 2.6300578 9.125
83.272743 10.351542 2.7049232 8.0270004
83.301437 15.290162 2.4138622 8.0295
83.245697 15.613748 2.4015749 8.0275002
83.430321 19.72546 2.659584 9.1455002
83.235695 21.039965 2.7088652 9.1470003
83.311119 21.258383 2.7123506 9.1469994
83.42585 26.051777 2.75772 9.1499996
83.345078 0.62078786 3.2466633 8.0212498
83.255836 1.0343145 3.3042901 8.0225
83.582268 17.983704 3.2877374 8.0389996
83.510429 20.71459 3.5503936 9.0372505
83.385078 21.137901 3.4185193 9.06425
83.488579 21.255495 3.5453598 9.0719995
83.414337 21.731272 3.4851718 9.0764999
83.418938 26.310705 3.4610033 8.0439997
83.281631 21.131754 3.9492741 9.0895004
83.226768 21.322886 3.710876 9.158
83.334267 12.563104 4.174387 8.0124998
83.511726 20.771662 4.1734805 10.1465
83.443748 21.155609 4.212204 10.147
83.428261 21.383022 4.0767479 10.14575
83.587479 21.859509 4.7556834 10.042
83.442108 12.426484 4.8113899 9.0214996
83.27668 21.07601 5.0652599 10.035
83.440086 21.342394 4.9729695 10.028
83.457527 21.607603 4.9702373 10.037
83.534821 19.437643 5.2876368 9.0699997
83.376472 19.978157 5.5498161 9.1785002
83.55761 21.285082 5.9151859 10.055
83.366936 21.942032 5.8152661 10.0575
83.407402 22.366888 5.7045612 11.1475
83.467484 22.450266 5.8842268 10.0555
83.430168 23.009045 5.8796382 10.881
83.528099 21.960155 6.0357575 10.0605
83.492332 22.255213 6.2732301 9.0144997
83.246925 23.010242 6.2530217 11.0395
83.468536 23.76808 6.2989912 11.038
83.380821 24.079245 6.0792551 11.0425
83.427498 20.704561 6.6985955 9.0010004
83.353584 22.201067 6.4855614 9.0082502
83.434616 22.668308 6.6775589 11.032749
83.395149 23.013033 6.6638479 11.0325
83.219933 23.40906 6.7704682 11.0905
83.27948 23.652102 6.5896635 11.0905
83.288193 20.810221 6.8334956 9.0010004
83.275627 21.939215 6.8336139 9.1634998
83.533981 22.575537 7.1623774 11.048167
83.563301 20.8424 7.4494624 10.055
83.420174 21.911634 7.5703182 12.04875
83.270401 22.19972 7.2796988 11.0925
83.341118 22.743784 7.2229872 11.027
83.300346 22.925611 7.4939513 10.0915
83.440781 23.304775 7.4092336 11.730832
83.353233 19.414286 7.7006278 10.0545
83.302032 19.799807 7.6825976 10.06
83.547821 20.680319 7.6943483 10.059999
83.581985 20.856417 7.6904278 10.0515
83.559174 22.856182 7.7976937 10.0415
83.473862 22.017603 8.0543718 11.0925
83.355652 22.976055 8.0017719 11.093
83.881035 20.182684 0.58424401 7
83.882271 23.387131 1.2223315 8.1479998
83.753998 25.075642 1.2186002 8.14925
83.986099 23.416927 1.9440861 8.04
83.675949 28.111097 1.6335049 8.0445004
83.637779 28.754271 1.6540608 8.0319996
83.921013 28.918564 1.6396656 8.0360003
83.882591 18.760847 2.2117443 8.0345001
83.756348 18.980703 2.2082028 8.0341663
83.667259 19.412949 2.1598172 8.033
83.986931 21.778862 2.0569279 8.0340004
83.904037 20.777252 2.5351651 9.1435003
83.621201 28.487259 2.6673815 8.0159998
83.876862 21.769747 3.0135083 9.1529999
83.804527 22.011631 2.925596 8.1300001
83.963051 28.57766 3.1713581 9.0375004
83.917953 0.58049434 3.285099 8.0222502
83.716957 20.619175 3.5345523 9.0760002
83.755096 21.231201 3.509897 9
83.787819 28.302038 3.2263861 9.033
83.846176 20.205175 3.7302804 9.0318336
83.693535 20.732185 3.6945555 9.0317497
83.888657 20.970243 4.135088 10.145667
