# .PCD v0.7 - Point Cloud Data file format
VERSION 0.7
FIELDS x y z intensity
SIZE 4 4 4 4
TYPE F F F F
COUNT 1 1 1 1
WIDTH 1304
HEIGHT 1
VIEWPOINT 0 0 0 1 0 0 0
POINTS 1304
DATA ascii
67.475845 34.562294 -1.636871 6
67.340179 35.150253 -1.6727679 5.5
67.368637 46.655235 -1.7187449 7
67.221161 30.018795 -1.4639995 5
67.335426 30.890764 -1.3350444 7
67.243492 31.398821 -1.3331209 7
67.359413 31.911814 -1.5139349 5
67.346527 32.115425 -1.5512125 5
67.366898 32.43605 -1.3708839 7
67.250534 33.450562 -1.5894511 5
67.456131 33.743771 -1.34157 6
67.427673 34.181332 -1.3542498 6
67.341156 34.573433 -1.3560908 6
67.58194 35.260239 -1.3943236 7
67.292572 37.159534 -1.4755111 7
67.337753 37.407955 -1.3766387 7
67.583466 40.084412 -1.2401395 7
67.596725 40.710686 -1.2353742 6
67.292122 42.486393 -1.2783879 6
67.33474 46.420639 -1.5725073 7
67.277107 30.183186 -1.1070547 7
67.340599 30.563894 -1.1364388 7
67.415947 31.796656 -0.93329841 6
67.26181 32.207359 -0.93767393 6
67.208908 32.437576 -0.86686116 6
67.395599 33.021896 -0.91925603 6.5
67.363312 33.458023 -1.0423875 6.5
67.46154 33.918079 -1.0599442 6
67.400879 34.29755 -0.98411924 6.2857141
67.302399 34.588619 -0.94431251 6
67.388138 34.949718 -0.90754753 6.25
67.312523 36.184597 -0.8660965 6
67.338493 36.636108 -1.0041215 6.5
67.502975 37.924881 -0.95534456 6
67.452759 38.134037 -1.1750132 6
67.310043 39.47205 -1.1037155 6.3333335
67.503571 40.694603 -1.1945046 6
67.273315 40.970127 -1.1255563 6
67.450691 42.948261 -0.9937216 7
67.231911 43.316475 -0.84895295 7
67.411049 31.439034 -0.66658807 6
67.437698 31.788769 -0.6863364 6
67.481949 32.124626 -0.69686764 6
67.345703 32.589222 -0.68913066 6
67.420364 33.956505 -0.75317955 6
67.319992 34.221062 -0.76411676 6
67.309174 34.541279 -0.77863681 6
67.474525 34.830994 -0.78516805 6
67.350494 39.83445 -0.52071148 7
67.374298 43.034019 -0.68625265 7
67.401962 31.704849 -0.045283113 7
67.388123 34.139988 -0.19491774 7
67.327713 34.794205 -0.22986867 7
67.379982 31.244251 0.28294933 7
67.464798 30.734533 0.63036656 7
67.200401 36.077759 0.49717841 7
67.591896 42.385574 1.0041476 7
67.546127 42.551815 1.4748718 7
67.629234 46.710003 -1.6146098 6
67.873367 47.940369 -1.6316679 7
67.658127 48.720406 -1.6475041 7
67.759232 48.896164 -1.6821475 7
67.815018 49.264294 -1.6234313 7
67.938995 33.088516 -1.419283 7
67.775711 35.064949 -1.4761292 6
67.908524 36.73444 -1.2965443 6
67.854759 39.469597 -1.209806 6.5
67.789909 39.698635 -1.2503895 7
67.88726 42.899757 -1.2942262 6
67.847168 44.192684 -1.2924705 6
67.824074 46.505028 -1.4931035 6
67.748238 46.981071 -1.5264961 6
67.761353 48.118412 -1.5769072 7
67.870239 30.150381 -1.1105208 6
67.672783 31.401352 -1.1478792 7
67.950089 32.078869 -1.1872815 7
67.77063 33.147556 -0.88994741 6.5
67.792473 33.406044 -1.0553271 6.3333335
67.761612 33.826824 -0.94544214 6
67.774155 34.894634 -0.81966597 6
67.796112 35.255558 -1.0882369 6.5
67.895386 35.928089 -1.1114912 7
67.912704 36.289589 -0.88723195 6
67.67939 36.826061 -0.97640115 7
67.783745 39.506756 -1.0035437 6.5
67.690331 40.389832 -0.95889598 7
67.934395 41.069233 -1.0420027 7
67.938683 31.008881 -0.66352743 6
67.794662 33.076126 -0.70579624 6.4000001
67.938377 33.322483 -0.76180905 6
67.810791 33.748821 -0.76886964 6.5
67.997047 38.639614 -0.41254649 8.1094999
67.813164 39.514462 -0.49686527 7
67.946968 40.963398 -0.67892188 7
67.858284 31.628828 -0.13253981 7
67.624046 32.230499 -0.094696276 7
67.893875 34.602406 -0.26529449 7
67.823631 35.17828 -0.21546409 7
67.86924 36.714153 -0.38971651 7
67.932182 36.947357 -0.27215374 7
67.778297 30.198822 0.53938824 7
67.716019 31.310202 0.48345646 7
67.772728 33.296333 0.54219025 7
67.896904 34.312065 0.60667837 7
68.263298 45.19051 -1.6671351 6
68.278503 45.327583 -1.6668935 6
68.358086 31.495747 -1.215863 7
68.15506 32.253574 -1.3392392 7
68.20401 32.453445 -1.2031833 7
68.074608 35.157177 -1.2679726 6
68.162727 38.785152 -1.2739916 6
68.170845 38.8867 -1.2243723 6
68.09864 42.622478 -1.2493505 6
68.035088 42.854649 -1.2758836 6
68.105888 44.359085 -1.3376577 6
68.349358 44.652035 -1.3532127 6
68.27449 45.05492 -1.3827747 6
68.283768 45.450222 -1.2932551 6.5
68.229828 45.960785 -1.379738 6
68.180206 46.389076 -1.4395399 6
68.199654 46.94838 -1.4809144 6
68.349899 31.481239 -1.0294577 7
68.346947 31.69146 -1.0588225 7
68.356758 32.038464 -0.85724503 7
68.176033 33.511913 -0.93171388 6
68.154221 34.559307 -1.0603931 7
68.239365 36.352417 -0.9313798 6
68.199226 36.545017 -0.90837306 6
68.3685 37.577988 -0.92712265 7
68.259727 38.304325 -0.91004747 7.0322499
68.237724 38.625114 -1.0313665 6
68.174072 38.966656 -1.0705689 6
68.21611 39.37294 -1.1125828 6
68.161095 40.643627 -1.1373378 6
68.371155 45.353695 -1.1254642 7
68.295547 30.028074 -0.62441134 6
68.308151 30.757357 -0.63381439 6
68.145332 31.817001 -0.64044762 7
68.303368 33.675766 -0.77449298 6
68.089302 36.030766 -0.77587837 7
68.355545 37.658585 -0.65072769 8.066
68.167007 38.781803 -0.71031111 8.0664997
68.223907 38.980045 -0.47125238 7
68.33593 39.562733 -0.47135872 7
68.259712 41.005665 -0.60946614 7
68.16362 32.59325 -0.14018029 7
68.160904 34.288071 -0.19903889 7
68.091026 37.965603 -0.39359239 8.1090002
68.046806 39.508381 -0.39171177 7
68.113213 31.167191 0.58801258 7
68.425873 48.039967 -1.6626176 7
68.562508 33.915852 -1.4353212 7
68.467422 36.787575 -1.2485243 6
68.615654 38.112492 -1.2169878 6
68.452209 45.231392 -1.3856684 6
68.761993 47.637112 -1.561216 7
68.679062 30.607101 -1.0456746 6.5
68.788696 31.143423 -1.1598494 7
68.434319 31.692976 -0.96118486 7
68.620476 35.302738 -1.1410761 6
68.451233 36.475182 -0.93027699 6
68.790039 38.050713 -1.1426371 6
68.582176 41.596233 -0.92249048 7
68.54705 41.653736 -0.85735083 7
68.429253 45.066803 -0.98208404 7
68.495331 45.22456 -0.90211117 7
68.443588 33.491653 -0.76415342 6
68.455223 37.948551 -0.51856524 8.0625
68.46949 38.804569 -0.53545082 7
68.606621 39.662762 -0.46549088 7
68.608505 41.482803 -0.65440327 7
68.797966 31.138107 -0.1147825 7
68.643074 32.655514 -0.20855634 7
68.770187 37.579479 -0.12579013 7
68.734848 37.931568 -0.21450931 7
68.736397 38.103401 -0.10345187 7.3668332
68.424255 36.531483 0.086131103 8.0965004
68.797531 37.459431 0.036924664 8.0970001
68.430374 31.449883 0.62425482 7
68.589767 34.544781 0.51556832 7
68.860847 30.949181 -1.3338478 7
68.879196 39.659634 -1.2165916 6
68.897217 42.479649 -1.2565227 6
68.893761 46.366016 -1.4287176 6
69.050835 30.593628 -0.8248533 6
68.863869 31.401573 -0.94550568 7
68.859818 36.807762 -0.89567858 7
69.135124 37.614914 -0.85608345 7
69.024033 39.616032 -0.94455552 7
69.039734 40.622406 -1.1529927 6
69.194511 46.977406 -1.1141456 7
68.888878 47.522427 -1.150317 7
68.831253 47.884926 -1.1868069 7
68.955696 30.339821 -0.7724421 6
69.100548 30.699583 -0.665438 6
68.818321 30.839855 -0.67916834 6
69.032417 34.174324 -0.53659773 7
69.101021 37.645344 -0.74888277 8.0640001
69.101021 39.08572 -0.48844597 7
69.036278 31.197174 -0.31872809 7
68.915909 32.235271 -0.10231381 7
68.860764 35.388832 -0.25953934 7
68.843201 37.460186 -0.19797027 7
68.833763 37.689655 -0.38134745 8.1084995
68.907402 37.242123 0.18140283 8.0930004
69.044685 32.807053 0.48200613 7
69.150955 56.75478 3.0419979 10.1335
68.857697 56.414543 3.3225279 9.1704998
69.063438 55.926006 4.1119928 11.1155
68.91404 56.051003 4.5781856 11.1265
69.462166 42.274094 -1.2545565 6
69.368149 44.415829 -1.3741884 6
69.401321 46.958912 -1.4546815 6.5
69.228119 30.145977 -0.81818587 6
69.295212 35.396675 -0.9487744 6
69.552628 55.95018 -1.0938568 7
69.360138 56.082951 -1.1013206 7
69.337578 56.475777 -1.1230614 7
69.207603 37.56213 -0.7522974 7
69.444664 38.399574 -0.14403409 7
69.561348 37.061497 0.0070503554 8.0994997
69.385895 56.650494 2.9761734 10.1265
69.282906 56.955349 2.962301 10.13
69.429054 53.980587 3.2673228 9.1700001
69.544151 56.320419 3.4043417 9.1695004
69.519798 56.426735 3.423218 9.1709995
69.554543 55.625675 3.8924136 11.0665
69.58606 56.166138 3.7403908 10.0205
69.566208 54.30048 4.1527867 11
69.587227 54.794735 4.1810756 11
69.285889 54.920597 4.0737438 11.115
69.458046 55.748016 4.0598855 11.0755
69.360336 56.327961 4.3847251 11.1205
69.340881 57.54694 4.2198648 11.116
69.551666 54.26733 4.5059733 11.1255
69.609077 42.270885 -1.277848 6
69.887123 31.255802 -0.96534431 7
69.779915 31.648146 -1.1939194 7
69.638145 35.202583 -0.9127261 6
69.730293 39.415813 -1.123765 6
69.861061 46.73468 -1.1028826 7
69.732262 55.95013 -1.0949688 7
69.717506 39.80101 -0.42722186 7
69.748848 54.531673 2.5129409 10
69.780754 55.811745 2.6744757 10.0955
69.916527 59.573914 2.6114047 10.11775
69.64772 54.367226 2.8997262 10.1255
69.666252 55.458599 2.9547029 10.137
69.745781 55.780796 2.9599497 10.126
69.786247 56.096848 3.0505035 10.4588
69.872765 56.418049 3.1031806 11.05375
69.892036 59.717289 2.8385394 10.1215
69.978058 54.280289 3.4100039 9.170167
69.939537 55.180798 3.3690753 10.0215
69.924431 55.952251 3.5960732 11.062
69.722427 56.139153 3.4038992 10.368167
69.722748 57.065773 3.5726135 9.1715002
69.781479 54.347935 3.6674871 9.1715002
69.832329 55.584137 3.6541874 11.0625
69.75766 55.758286 3.9446132 11.040833
69.855507 53.134762 4.0231667 11.114
69.64209 54.128853 4.2124043 11.05975
69.888252 54.984516 4.2555351 11.087
69.631531 55.913082 4.1858988 11.023
69.843269 56.186825 4.0681109 11.53925
69.747375 56.431801 4.0164409 12.051
69.914223 56.870899 4.3184109 11.118
69.874878 54.623631 4.513854 11.13175
69.910995 55.027443 4.6569071 9.5112495
69.883606 55.300255 4.6488509 11.033668
69.943443 57.575863 4.634006 11.1235
69.787308 54.713879 4.9835086 12.0635
69.843719 55.014633 4.9631858 11.711167
69.792519 55.316074 5.0486722 12.1925
69.873856 55.009689 5.2774324 12.02475
69.658081 55.501507 5.5847135 11.111
69.865143 55.369862 5.9336562 12
70.077042 47.323864 -1.606451 6
70.356285 31.900835 -1.0189331 7
70.188225 43.807819 -0.97760934 7
70.311783 54.330082 2.5358372 10
70.135307 54.586834 2.4224098 10.1145
70.277992 54.911732 2.7538939 10.091
70.297462 55.506451 2.6818037 10.0985
70.358337 51.814648 2.891145 10.131
70.393005 53.263454 3.0316174 9.1669998
70.385674 55.522026 3.1003344 11.05
70.2164 55.827484 3.0978913 10.0325
70.044006 56.084972 2.8594122 10.123
70.259201 56.766655 3.0950422 9.0209999
70.119286 56.852646 3.105746 10.545125
70.326897 59.364658 3.1599972 10.138
70.099152 55.173912 3.2008076 11.0565
70.208824 55.417316 3.3568196 11.058167
70.290161 55.824608 3.2848096 10.033
70.194489 56.146011 3.3718216 10.712166
70.182983 56.663574 3.3450549 10.368
70.174751 56.853661 3.3112152 11.059
70.398842 52.593914 3.6380036 9.1709995
70.311699 53.474796 3.75353 11.062167
70.242683 53.750401 3.8438675 10.716166
70.340523 54.188396 3.7667117 10.02
70.253319 54.533665 3.9518116 10.54275
70.152763 54.960453 3.9104862 11.065
70.153145 55.729481 3.8813827 10.82625
70.068947 56.188404 3.9226584 11.04575
70.194702 56.551132 3.7379072 11.04675
70.296173 56.872383 3.8597026 11.03
70.171135 51.413948 4.373034 11.124
70.171906 52.349995 4.2164183 11.1185
70.279671 53.669106 4.0866556 11.078
70.357765 54.156277 4.1777768 11.08275
70.309097 54.689014 4.152657 11.30775
70.246017 54.964451 4.189959 11.572437
70.225166 55.297859 4.2437782 11.78875
70.302521 55.898899 4.1608849 11.077499
70.275146 56.114525 4.1951694 11.064835
70.291031 56.541203 4.1798735 11.016334
70.384079 56.913517 4.2657804 12.054833
70.385284 57.911713 4.2162967 11.076
70.377441 51.559345 4.7959318 10.166
70.194756 52.222317 4.4058571 11.1355
70.190048 53.477482 4.7025609 10.03825
70.282974 54.26207 4.5856357 10.717167
70.170319 54.52486 4.4702702 11.053
70.353485 55.007664 4.5367084 11.0355
70.115601 55.435249 4.6208506 10.276
70.362099 55.79015 4.6193867 10.0205
70.365204 56.867447 4.5556583 12.06
70.008858 58.313366 4.4071484 11.1185
70.210846 58.725422 4.5916619 11.121
70.31707 53.510044 4.9486303 11.535875
70.334709 53.7421 4.8816967 10.679001
70.264481 55.532497 5.1651073 10.02
70.020752 55.695606 5.1929207 13
70.374146 58.498638 4.9220972 11.1335
70.22982 50.168934 5.5404515 12.0575
70.322617 53.104279 5.3758245 13.05225
70.155792 55.506344 5.2353501 12.026
70.20636 54.984215 5.7904477 10.1705
70.166939 55.227962 5.9515429 12
70.217438 53.702206 6.356256 10.1715
70.285706 54.368732 6.1104517 12
70.311317 54.577213 6.1963291 11.0855
70.235291 53.795391 6.4841843 10.1695
70.365578 54.663818 6.4779429 10.1715
70.642311 42.492783 -1.3288095 6
70.488289 30.883429 -0.81489128 6
70.444839 37.87759 -0.93715316 7
70.549019 30.294844 -0.70763278 6
70.525665 30.455891 -0.7424323 6
70.694443 43.109257 -0.46050432 7
70.684441 43.595207 -0.54198736 7
70.671242 43.673038 -0.4684335 7
70.682281 44.247246 -0.60962814 7
70.675301 53.518757 2.1507828 9
70.537842 52.671036 2.5726917 10.11725
70.709099 53.102016 2.7889307 10.1215
70.648918 53.740063 2.5100036 10.0352
70.464088 54.261013 2.5417385 10
70.47081 55.040394 2.710638 10.1195
70.41243 55.375397 2.7184362 10.095
70.460037 56.308651 2.7714198 10.0915
70.738823 56.485001 2.501164 10.115
70.705849 57.038654 2.7864301 10
70.79351 58.611805 2.7449293 10.084
70.656097 53.466415 3.188623 10.022
70.525085 55.382393 3.042541 10.537583
70.443825 55.740143 3.1683333 11
70.550949 59.607529 3.1553197 10.127
70.5504 52.713783 3.3125761 9.1684999
70.577332 53.55978 3.2972176 9.5096254
70.586456 53.72591 3.485112 10.539249
70.443001 54.549473 3.2736809 9.1680002
70.553871 55.198742 3.342243 11.0575
70.609581 55.28347 3.3502779 11.055833
70.506401 55.788822 3.4106574 11.0305
70.792274 56.641048 3.5167098 10.0215
70.454063 59.349468 3.2312858 10.147
70.769226 50.658951 3.9747889 11
70.423065 53.450359 3.6958094 11.03075
70.609322 53.784225 3.8040094 10.358167
70.616753 54.286552 3.8259373 10.695
70.669403 54.614212 3.7996109 11.016
70.59967 55.154995 3.8766294 10.1105
70.668922 55.276524 3.9220109 9.0129995
70.590508 55.764004 3.8803303 11.0645
70.54937 56.15551 3.88714 10.523
70.539909 56.914654 3.7052457 9.0139999
70.720963 50.037037 4.2900658 11.1265
70.656776 50.818882 4.376338 11.1235
70.472061 51.966595 4.1010089 11
70.51001 52.328602 4.0772653 11.056749
70.406693 53.147343 4.2610979 11.094
70.681404 53.443279 4.2514625 11.2935
70.563942 53.841633 4.2292714 11.209416
70.663017 54.214592 4.3021317 11.551583
70.633278 54.613644 4.2194433 11.644199
70.62326 54.922489 4.2363434 11.02425
70.710136 55.47081 4.299943 11.163751
70.603043 55.777786 4.2713499 11.273875
70.793312 56.356026 4.123004 11.0245
70.546501 56.606537 4.1903267 11
70.410782 56.844463 4.1956697 10.021
70.767464 58.049751 4.3260241 11.10475
70.407822 51.884472 4.4574752 11.131
70.686058 53.056911 4.6619873 11.013
70.705902 53.391209 4.5042462 11.047666
70.580399 53.780197 4.6568708 11.466299
70.506325 54.4212 4.597209 11.59375
70.7612 55.391777 4.5313148 11.0225
70.531685 55.780182 4.5703826 11.289625
70.493851 56.288441 4.6310034 11.706668
70.435959 56.572197 4.6236773 10.701
70.487381 52.827179 5.1575532 10.018
70.585022 53.377296 5.0498452 11.381001
70.647911 53.663742 5.102582 11.5425
70.691582 54.88372 4.9923019 10.1665
70.422661 55.519997 4.8217158 10.02
70.554749 58.281803 4.904449 11.142
70.423538 58.526127 4.8289356 11.13
70.544853 50.151691 5.5407557 12
70.546089 53.041126 5.4346557 12.061334
70.600815 53.352474 5.3596911 12.6521
70.774139 56.309513 5.5040665 12.01225
70.752762 56.598309 5.3651342 13.0535
70.698769 49.812992 5.6434598 12.0585
70.754128 50.285233 5.6373973 12
70.729378 50.707321 5.760323 12.1175
70.47023 52.618977 5.7424097 12.11475
70.664795 52.96822 5.6395311 12.02375
70.758987 56.553764 5.6750164 12.0755
70.732025 53.228821 6.3371172 10.171
70.737213 53.798477 6.2371426 10.17
70.550438 54.257385 6.1557045 11.715
70.46476 54.641998 6.375082 10.1715
70.624619 54.965523 6.21698 12.12575
70.580063 56.796413 6.2416954 12
70.459435 53.707867 6.6502566 10.169
70.768929 48.860374 7.1156592 13
71.019562 35.359627 -0.97841972 7
71.005333 46.34507 -0.67904395 7
71.012421 31.149887 -0.14287262 7
70.934143 55.569977 1.9960746 9
71.085968 55.774811 1.9572831 9.0183334
71.049591 50.459244 2.3708398 10
70.986504 53.469883 2.1714451 9
71.040138 53.890347 2.3062687 9.0205002
71.115082 54.023865 2.2598546 10.054
71.008392 55.357239 2.0235233 9.0279999
71.03791 55.68248 2.1760106 10.025
71.064949 59.009254 2.3877859 9.0209999
71.016388 51.511864 2.7821536 10.093
70.880508 52.592331 2.7357178 9.1660004
71.017059 53.467018 2.6489496 10
71.041878 53.873901 2.5602219 9.7133331
71.187241 54.735111 2.6465313 10.108
70.991196 54.94426 2.730478 10.049
70.811317 55.586876 2.6352298 10.1085
71.185074 56.094471 2.7656336 10.067
70.927605 58.784386 2.7282767 10.0255
71.041672 58.960129 2.6400025 9.9382763
70.898048 59.356819 2.6491964 10.11725
71.096451 51.533173 3.1901522 9.0190001
71.163681 51.682976 3.1021028 9.0214996
71.138275 54.695934 3.0061119 10.13825
71.007195 55.037682 2.9741602 10.096375
70.901962 55.355606 2.9815304 10.012751
70.920799 55.780479 3.0267372 10.1365
71.101242 56.56588 3.0015929 10.0495
71.099548 57.098156 2.8082409 10
71.070549 58.679638 2.9671912 9.0048456
71.174675 58.988598 2.9183965 9.1644287
71.015251 59.710548 2.8918869 10.121
71.086082 51.423664 3.3617425 10.504375
71.143059 51.657513 3.3919718 10.009375
71.125763 52.644203 3.5396595 10.54175
71.133942 52.990849 3.400991 9.7720461
71.055748 54.299801 3.5551455 11
70.932602 54.66119 3.3293517 9.1695004
70.936249 54.958267 3.4816735 10.514626
70.884384 55.588238 3.3712976 10
70.834961 55.738506 3.2320976 9.3596668
71.019661 56.105103 3.2545784 11.017334
70.934883 56.554996 3.3456752 10.797375
71.174049 56.829124 3.47299 10
71.084038 59.102196 3.3827775 10.011499
71.152588 59.257912 3.4867802 10
71.021072 50.562248 3.9901125 11
71.152565 52.219833 3.8436322 10.54125
71.09742 52.483963 3.7564228 11.0605
70.99408 52.974274 3.7385237 10.584
70.99147 54.151268 3.6908185 11.02975
71.051224 54.644562 3.7155991 10.8041
70.929611 55.02652 3.6947501 11.0125
70.953789 55.807598 3.8239827 10.377833
70.99971 56.492981 3.9271684 10.684167
71.049339 56.875366 3.755547 10
70.91275 57.240868 3.9403038 11.0645
71.066521 59.72728 3.82054 11.01475
71.160393 47.959679 4.1999755 11
71.131241 48.269859 4.1735878 11
70.90126 49.449829 4.0156622 11
70.913063 49.96196 4.346817 11.123
70.997993 50.617821 4.1343389 11
71.093498 50.881397 4.3121023 11
71.011497 51.792057 4.2647414 10.8075
71.023689 52.258373 4.0986733 11.051333
70.965263 52.484333 4.0572109 10.399001
70.901749 53.365059 4.3147945 12.0505
71.064857 53.8554 4.3176513 11.4384
70.995033 54.062931 4.288703 11.699333
70.942261 54.597485 4.3541112 11.720833
70.826874 55.103783 4.1085534 11.0245
70.845421 55.569931 4.290194 11.525499
70.873032 55.732929 4.27666 11.530625
71.041252 56.163864 4.3095531 11.355055
70.944435 56.684021 4.2183704 11.166667
71.014793 57.068199 4.0562849 10.546249
71.174644 57.339859 4.2199979 11.0295
70.98661 57.795387 4.2575183 11.561875
71.096672 58.35379 4.2810788 12.0535
70.878334 59.931446 4.158505 11.068
70.948273 47.99099 4.6309562 10.165
71.046906 49.937424 4.6307139 11.109
71.099152 50.566795 4.5966277 11.59375
70.930939 51.024078 4.6971731 12.057
71.089577 51.462624 4.5661569 11.438001
71.044128 51.696102 4.5473619 12.028084
71.049652 52.423946 4.4072132 12.0525
70.891632 53.367142 4.6253395 11.007333
71.010902 53.745785 4.696219 11.3405
71.018364 54.21973 4.6680846 11.359333
70.891571 54.775864 4.6119947 11.5
71.110657 55.098602 4.5930204 11.5
70.979271 57.069077 4.6390181 11.01125
71.0485 57.48344 4.5583982 10.805375
70.92643 57.78635 4.5763316 11.29025
71.101158 58.187828 4.6407285 10.52225
71.084183 49.731606 5.0487833 10.166
71.006119 50.724434 5.0109973 11.05925
71.009926 51.026459 4.9991722 11.0385
71.096329 51.444935 4.8945298 11.7285
70.958191 51.730583 4.8782835 11.0395
71.065956 54.381569 4.9941297 12.0305
70.983788 54.694912 5.0231791 11.786611
71.126022 54.938896 4.9289784 11.75525
71.102356 55.238041 4.9048243 11.51075
70.955116 56.86216 4.9944539 11.54275
71.02948 57.360523 5.0813909 11.301125
70.954025 57.771603 5.0107446 11.405167
71.184273 58.201706 4.8567281 12.0615
70.990784 47.775787 5.4909272 12.1135
71.032356 48.954151 5.521029 12.582251
71.176704 49.599174 5.5024223 13.051
71.015976 49.757568 5.5180879 12.525
71.166168 51.214649 5.4849081 13.05
70.83075 52.948185 5.4460897 13.053
71.082802 55.005016 5.4844823 12.215
71.068504 55.427471 5.4517779 12.2466
71.03614 55.713875 5.5543156 13.0565
70.950294 56.294315 5.388104 12.048625
71.044739 56.626823 5.465486 12.525687
70.908836 57.001301 5.3426108 11.770375
71.183708 57.327717 5.436357 13.0535
71.053764 57.631798 5.4554067 12.066
71.198692 47.2575 5.6962562 12.1285
71.075119 47.805359 5.6421709 12
71.187256 48.548798 5.8180156 10.17
71.096298 49.173409 5.7246203 12
70.949638 49.40469 5.7236876 11.8305
70.899849 49.761948 5.7014589 12
70.915359 50.58445 5.7716756 12
70.998184 50.955032 5.8516126 12
70.985001 51.42347 5.7435899 12
70.895294 51.816555 5.728045 12
70.909241 52.538528 5.8177681 12
71.07888 53.976562 5.7693286 10.17
71.154167 54.091496 5.9458404 10.1705
71.100533 54.697071 5.7455912 12.056333
71.157387 54.936153 5.8426061 12.689667
70.940376 55.508389 5.6480832 12.0765
71.069885 55.74226 5.6935372 12.077
71.044212 56.386395 5.6378946 12.566
70.947342 56.744186 5.7064195 13.0585
71.180794 57.013485 5.6224637 13.0575
70.82412 47.853512 6.0433517 10.1695
70.977455 53.313065 6.2637353 10.65875
70.826401 54.296741 6.2178674 13
71.032265 54.584789 6.1892257 11.8365
70.983925 54.906506 6.1830945 12.833333
70.964836 55.238239 6.0205159 12.366
71.091568 53.207134 6.7226338 11.06
70.99192 48.812828 7.1404443 13.114
70.99704 53.918968 7.1422744 13.023
71.163132 54.289299 6.8266945 14
71.066605 55.228714 7.7812023 13
71.485344 34.698788 -1.4018264 7
71.470863 32.141983 -1.0455165 7
71.384506 39.724964 -0.93714553 7
71.421677 46.544258 -0.81885928 7
71.515312 57.891853 1.2809017 9.0874996
71.400185 58.080208 1.411431 9.0504999
71.547676 53.511185 1.8280174 9.0244999
71.560768 58.075218 1.8152475 9.0240002
71.240372 50.414101 2.3799 10
71.481064 53.565388 2.3786473 10.057
71.253632 53.716766 2.137363 9.0263338
71.289589 54.033905 2.1526349 9.0214996
71.247047 55.455658 2.2428 10.054
71.509895 56.491234 2.0944877 9
71.465111 58.498734 2.1470547 9
71.537735 50.177498 2.4979982 10.05725
71.404541 50.624874 2.5010049 10
71.598198 51.477989 2.7839682 10
71.422249 51.844147 2.6394117 9.4076662
71.505829 52.159607 2.7450609 9.5480003
71.314621 52.896149 2.5505357 10
71.470848 53.437969 2.5436943 10.039666
71.370934 53.716671 2.6065745 10.045501
71.408264 54.580929 2.6617332 10
71.422531 54.917587 2.7127955 10.058499
71.5196 56.378857 2.7546473 10.031
71.38726 57.200874 2.6693196 10.1175
71.376038 58.732296 2.6462877 10.058624
71.414398 58.989891 2.6759851 9.8500996
71.444374 59.272869 2.6436372 10.0303
71.402275 52.852154 3.1842489 10.024
71.571892 53.2267 3.0696378 9.1665001
71.335205 53.864079 2.9724832 10.1245
71.375992 54.222607 2.9536967 10.079167
71.39592 54.634762 3.0104465 9.7893753
71.401306 55.021217 2.9006774 10.044001
71.357826 55.246235 2.9450057 10
71.428818 56.295528 3.0264041 9.6886663
71.509621 56.508755 3.0831332 9.2792492
71.394844 59.007538 2.9044905 9.8151255
71.412331 51.086475 3.3994713 10.0105
71.308517 51.429504 3.3715098 10.90985
71.44886 51.819775 3.4000616 10.585286
71.422554 52.163754 3.4251802 10.395416
71.396904 52.769951 3.2891612 9.1689997
71.459862 52.921242 3.3867288 10.034
71.468552 54.172779 3.2916243 9.0200005
71.338196 54.796524 3.5976009 11.059
71.408836 54.944248 3.4281774 10.542375
71.474915 56.716587 3.4037089 10.0225
71.279831 56.925194 3.469177 10
71.234566 58.668507 3.5595658 10
71.38324 59.036224 3.3093557 10.798876
71.456757 59.714191 3.357708 10.886001
71.430138 48.114304 4.0000501 11.1135
71.381569 49.055851 3.953407 11.1115
71.52903 51.477207 3.9706612 11.062167
71.281265 52.207718 3.875931 10.563001
71.491119 52.929844 3.8961892 11.0615
71.43766 54.602608 3.6684599 11.030251
71.354477 56.480637 3.8906553 11.031
71.405807 57.042515 3.8906753 10.591287
71.358147 57.750984 3.8029068 10.6387
71.506554 58.283852 3.6146784 10.0225
71.424934 58.65947 3.8470249 11.04525
71.442375 59.037239 3.8063025 11
71.565102 59.50481 3.8532939 11.0635
71.39534 59.758003 3.9210248 11.044
71.500893 46.116005 4.0197897 11.115
71.483452 47.51408 4.2599416 11.06425
71.472549 47.879955 4.2165508 11
71.315872 48.12027 4.1380901 11
71.282761 48.645252 4.0114388 11
71.428642 49.80801 4.2491651 11
71.45874 50.229836 4.0781689 10.805625
71.296448 50.654518 4.2104282 11
71.484612 51.148575 4.316505 11.096
71.462997 51.485645 4.2892985 11.105625
71.434196 51.775177 4.2220793 11.215751
71.480202 52.089581 4.1294279 11.041499
71.300735 53.847095 4.2258778 11
71.325256 54.637367 4.3014894 11.1165
71.284431 54.95554 4.3850026 11
71.376236 56.733147 4.0204921 11
71.371605 57.045437 4.1125078 11.01225
71.286812 57.420643 4.1797967 11.0267
71.409462 57.793629 4.239378 10.873416
71.437683 58.669098 4.1251001 10.704166
71.536827 58.991295 4.1693559 11.0665
71.480209 59.512901 4.2908597 11.0685
71.29818 59.822254 4.2973313 10.023
71.556099 47.025509 4.6606069 10.1635
71.431541 49.418419 4.6482072 12.053875
71.434464 49.924107 4.6211572 12.05375
71.558861 50.180939 4.4927359 12.0515
71.579491 50.765656 4.584012 12
71.34082 51.025517 4.664629 11.3405
71.480675 51.45219 4.5585332 11.7295
71.490608 51.768906 4.4550219 11.846583
71.334938 52.215393 4.5875559 12.055
71.322311 52.492329 4.4639034 11.128
71.213661 54.210854 4.5555139 12
71.30117 54.897488 4.5451469 11.528999
71.332443 55.234074 4.7439041 10.5725
71.314995 57.849155 4.5264544 11.068667
71.272369 58.016846 4.4575486 11.099
71.524544 59.121101 4.560801 11
71.476952 59.479778 4.5652685 11.51775
71.420334 59.936604 4.5342321 11.697833
71.422729 46.981689 5.0057974 12.058001
71.570099 49.529205 5.0313749 12.059
71.400093 49.87431 4.8864732 12.0575
71.581528 50.31139 5.1515145 12.0605
71.241104 51.047943 5.1572289 11.04
71.295418 51.410625 4.9504485 11.428333
71.368286 51.610428 5.1696396 12.0615
71.505264 52.266636 5.1110182 12.061
71.583427 53.050392 5.1517086 12.0615
71.329575 54.66037 5.1738129 12
71.203751 55.090851 4.9316449 12
71.205284 57.050034 4.8791041 11
71.255684 57.259861 4.9274282 11.022
71.234207 57.752811 5.0147676 11.738334
71.546043 58.057899 5.0954266 10.6524
71.494118 59.219597 5.0359092 12
71.272224 59.925949 4.8148532 12
71.318344 46.180641 5.5026331 12.115
71.508827 47.077702 5.419353 11.019
71.437119 47.556351 5.27213 10.168
71.378654 48.700245 5.2167721 10.1665
71.304451 48.912926 5.412611 10.168249
71.331032 49.566372 5.5098896 11.0085
71.210464 49.617783 5.3844867 10.1685
71.470985 50.279205 5.2367854 11.02
71.397629 51.121033 5.4099584 12.030429
71.317734 51.368294 5.4877968 12.1126
71.593468 51.886326 5.5845375 13.053
71.443329 52.222427 5.5580845 13.05275
71.498405 52.993713 5.4305005 12.374167
71.476326 53.225269 5.4512553 11.717999
71.493355 54.330822 5.4863644 12.527
71.359161 54.638779 5.4937572 12.034
71.384132 54.926105 5.4569178 12.792624
71.284088 56.3545 5.5106282 13
71.215096 56.436916 5.464026 13
71.312347 57.085052 5.2976627 10.80245
71.40876 57.288544 5.4563179 12.0295
71.554504 57.737041 5.507771 12.025
71.339294 58.04998 5.3114185 11.02775
71.582047 47.408226 5.6586061 13.044
71.2267 47.767925 5.6697397 12
71.481041 48.342659 5.656323 12.525499
71.478348 48.61721 5.7549949 12.2361
71.387032 48.96349 5.7455993 12.436937
71.352791 49.323833 5.6820703 11.76775
71.467049 49.92601 5.6376271 13.0525
71.375496 50.762596 5.9548454 12.1265
71.235802 50.937775 5.9181232 12
71.487854 51.845741 5.8367214 12.764375
71.473587 52.16259 5.6639657 13.0545
71.531693 52.511482 5.8791461 12.1155
71.501236 53.112396 5.7487388 12.0235
71.549706 53.358482 5.7027717 13.0555
71.472214 54.213036 5.930325 12
71.429779 54.56823 5.8602715 12.205591
71.354401 54.945343 5.8001981 12.024667
71.257919 55.43499 5.7904124 12.332429
71.359886 55.744423 5.8311853 12.54025
71.422218 56.767784 5.8010521 12.0235
71.593758 57.447552 5.7300267 12.024
71.425499 48.078651 6.0706244 10.17
71.242142 48.741989 6.1268024 13.0585
71.466782 51.445019 6.2262435 11.07
71.337173 53.132889 6.374074 10.171
71.240005 53.225735 6.3257985 10.171
71.511536 53.992073 6.2508574 13.0605
71.53273 54.281509 6.228981 12.1215
71.451805 54.52486 6.1293817 12.391
71.323593 55.01849 6.15451 12.303429
71.345032 55.358246 6.1716552 12.030199
71.502312 46.629841 6.7130365 14
71.463036 47.010353 6.7287755 14.0097
71.444656 47.379276 6.7197313 14.049666
71.442131 47.802116 6.5516596 13.033501
71.443726 48.77774 6.6403008 14
71.24276 51.059242 6.663301 10.0505
71.470947 53.420036 6.6157913 13.026349
71.442734 53.700405 6.5456052 12.055929
71.446396 54.284313 6.6453505 12.224501
71.419601 54.587307 6.5541086 12.87
71.414078 54.960903 6.5256147 12.162429
71.486855 55.820312 6.4332929 11.0625
71.446358 56.244015 6.5696898 12.081249
71.344467 56.540504 6.4638176 12.124001
71.443428 58.247574 6.6912398 12.137
71.420998 58.772129 6.5969319 12.125
71.549751 47.047462 7.0249572 14.028
71.487755 47.599739 7.1739936 13.098
71.372459 47.913181 6.9766273 13.582001
71.411072 48.608875 7.1219707 12.08275
71.554153 53.190975 6.9961176 11.0185
71.456116 53.333061 7.0117011 12.4254
71.44136 53.809441 6.9786291 13.792749
71.343246 54.166809 6.9145155 12.517125
71.40229 54.513699 6.9520783 13.033501
71.496391 57.687622 6.9818001 13.0665
71.516907 48.58791 7.2815051 13
71.44532 52.96006 7.2800303 14.059
71.522751 53.317192 7.2143178 14
71.480331 54.90863 7.8991976 13
71.67852 30.953827 -0.98279876 7
71.704353 31.281668 -0.95376962 7
71.662674 33.94912 -0.94186407 7
71.651314 34.846962 -0.40733433 7
71.72583 44.195969 -0.7727989 7
71.883629 56.310486 -0.65172881 8.1195002
71.612373 32.328281 -0.077335835 7
71.707764 34.538162 -0.21926594 7
71.870361 34.918335 -0.22672689 7
71.742126 56.995243 -0.33319089 8.1329994
71.618385 57.876945 1.1122003 9.0955
71.756393 58.129059 1.0398825 9.099
71.796059 54.257957 1.216547 9.1215
71.836395 58.12027 1.4081036 8.8566999
71.802567 58.599472 1.3935801 9.1277504
71.603851 53.564247 1.8939587 9.0279999
71.656319 56.255402 1.9443491 9.0096664
71.844986 58.197704 1.8350208 9.0305004
71.788483 49.907429 2.3986022 10
71.744514 53.79594 2.2361345 9.7203331
71.895744 54.118565 2.315556 9.0209999
71.771858 55.494385 2.1789575 9.0502501
71.804909 55.627773 2.0439939 9.0284996
71.842484 56.221642 2.2238863 9.7956247
71.716591 56.57859 2.184931 9.5279999
71.651947 58.554253 2.193296 9.5287495
71.902596 47.623451 2.4666049 10
71.977509 48.484146 2.6647508 10
71.845062 49.03334 2.7969792 10.1255
71.744293 50.644798 2.7671902 10.059999
71.629791 51.147987 2.7175887 10
71.658119 51.51915 2.4396904 10
71.631714 51.713852 2.7674854 9.6429996
71.779587 52.280651 2.6258397 10
71.809525 52.53392 2.5119462 10
71.803024 53.062412 2.6121814 10.064072
71.682114 53.243393 2.5883467 10
71.833061 53.731667 2.56178 10.056749
71.838303 54.192894 2.6202784 9.5640001
71.723137 54.440742 2.7700045 10.0975
71.813881 55.566956 2.628603 10.06875
71.783592 55.882915 2.4039009 9
71.962585 56.752995 2.7807405 10.0645
71.804436 58.625458 2.6624775 10.045626
71.786156 58.902267 2.7250395 10.091499
71.836143 59.304535 2.6705866 9.52775
71.773781 59.818882 2.6703691 10.029
71.901543 50.615417 2.9548283 10.1215
71.802292 51.148975 2.9052186 10.12825
71.820732 51.238922 3.0272446 9.1660004
71.683556 51.734894 2.9060981 10.129
71.69632 52.086018 3.1307037 10.023
71.663467 52.523926 2.8694212 10.085
71.76342 53.088493 2.9072742 10.122499
71.812759 53.442875 2.8025184 10.035
71.690987 54.29467 2.9157796 10.017715
71.852333 54.613377 2.9022079 9.78475
71.865929 54.961391 2.8922961 10
71.621552 55.352295 2.9365685 10.040333
71.967712 55.874359 2.8399727 10.0255
71.684021 56.55315 3.1293736 9.173667
71.917007 58.793198 2.8648753 10.0725
71.7537 59.011482 2.9686744 10.044001
71.78006 59.453117 2.9332094 10.01425
71.760071 59.685062 2.9781642 10.018333
71.714203 51.472931 3.3221552 10
71.691376 51.863441 3.3496461 10.5
71.694855 52.177887 3.3433521 10.646937
71.77877 52.638138 3.4936023 10.367833
71.605057 52.939014 3.4674051 10.0215
71.924866 53.437504 3.3560305 10.0355
71.948807 53.714912 3.4294438 11.054
71.67292 54.383358 3.3765454 10.0275
71.81189 54.586327 3.3928146 10.141125
71.869553 54.951374 3.3880324 11.036334
71.846558 55.353752 3.3313522 10.282812
71.970337 55.606918 3.278193 10.0285
71.915337 56.670563 3.5843158 10.022
71.873825 56.98275 3.4951024 10.0225
71.738434 59.123055 3.416187 11.0575
71.622154 59.316032 3.5535438 10.528749
71.980362 59.841179 3.3791769 10.539
71.961563 47.502052 3.9380121 11
71.696419 48.292694 3.9476676 11.111
71.907181 48.708038 3.731184 10.02
71.85923 51.391518 3.7066939 10.0255
71.726883 51.89753 3.7663753 11.014375
71.872498 52.279465 3.8390617 11.06
71.847504 52.504086 3.7548702 11.058625
71.836685 54.414955 3.6508682 11.0585
71.751137 57.402229 3.861867 10.526501
71.642113 57.769073 3.9905193 9.0085001
71.696854 58.201706 3.9243832 11.039833
71.814865 58.676128 3.8592002 11.040916
71.852058 59.045906 3.7161822 11
71.745056 59.461178 3.7998781 11.0295
71.627876 59.660156 3.7855942 11.063
71.723976 47.517822 4.1440845 11.057751
71.732788 47.765869 4.1407657 11
71.821045 48.795937 4.1043983 11.0745
71.880539 48.950939 4.3020964 11.117665
71.773041 49.553787 4.2929282 10.5675
71.844299 49.747677 4.2072768 10.71695
71.79554 50.042301 4.0285425 11
71.696091 50.584496 4.3755207 11.127
71.634682 51.047714 4.3101797 11.0885
71.782738 51.458168 4.3011422 11.046249
71.734711 51.938408 4.161118 10.552999
71.734207 52.206043 4.287137 10.702834
71.785332 52.567108 4.2785268 10.1065
71.852043 53.952759 4.2170362 11
71.823883 54.167473 4.1434016 11.028312
71.76046 54.524231 4.2204061 11.0705
71.834908 57.570877 4.3683267 10.511
71.868439 57.706024 4.198422 10.8099
71.746666 58.770412 4.1663923 10.704833
71.760536 58.962135 4.1761608 11.042625
71.878365 43.745205 4.4741626 10.163
71.735512 45.42392 4.578413 10.163
71.689461 45.894234 4.5605903 10.1635
71.897057 47.567478 4.581183 10.060249
71.859436 47.870697 4.6399975 11.402833
71.791542 49.902851 4.5696812 11.479429
71.799202 50.25153 4.657608 12.054
71.871498 50.667683 4.6851211 11.519751
71.759018 51.016426 4.5485964 11.767875
71.736061 51.399887 4.5963502 11.772751
71.72274 51.754814 4.5508251 11.6
71.87674 52.202667 4.5199027 11.675667
71.733238 52.579559 4.4435468 12.012
71.661072 54.147419 4.5010557 12.055
71.854195 54.645908 4.5165653 10.376583
71.812927 54.96257 4.488585 11
71.829254 55.315189 4.6059895 11.025666
71.771271 56.513405 4.625175 10.565
71.876862 57.511612 4.7027392 10.02075
71.89698 57.847672 4.7113566 11.04
71.809929 58.745708 4.4993062 11.570499
71.903015 58.939941 4.4552245 11.0245
71.830902 59.353676 4.5975862 11.916071
71.735985 59.859715 4.5846682 11.573167
71.912674 44.726723 4.8108959 10.1645
71.807816 45.660408 5.1705832 10.167
71.810341 47.30706 5.057426 11.03875
71.940926 47.715199 5.1259041 12
71.805061 48.041992 4.8493376 12
71.942451 48.452339 5.1018023 11
71.8601 49.483704 4.9469123 12.057
71.794708 49.698502 4.9302692 11.711833
71.759651 50.244602 4.9574461 12.058
71.779312 50.591473 4.919858 12.0575
71.957382 51.137897 5.1352983 12.06
71.792961 51.344776 5.1742301 10.019
71.674423 51.820999 4.8639688 10.5935
71.718658 52.05761 4.9437976 10.52025
71.722427 52.917091 5.0629597 9.0515003
71.987885 56.198471 4.9870787 12.0605
71.704453 57.060303 5.1705785 12.0625
71.934502 57.460411 5.1186738 12.062
71.830902 57.837559 4.9832067 11.027333
71.792122 58.151909 5.1575685 10.23856
71.839485 58.685467 5.1119037 11.676333
71.691856 58.988358 5.0142856 12
71.847954 59.330921 5.0071354 11.695
71.896812 45.838078 5.474061 12
71.974976 46.630592 5.5300674 12.1125
71.985344 46.87154 5.5470476 12
71.837456 47.408188 5.4151764 12.024583
71.741112 47.704437 5.303328 12.0665
71.98642 48.188171 5.4376903 10.0835
71.891983 48.978294 5.318172 10.50875
71.827812 49.334816 5.458168 12.080126
71.895027 49.793144 5.4902258 12.075
71.902451 50.608757 5.4273572 11.792875
71.790405 50.949001 5.4686384 12.612857
71.809113 51.509323 5.5462623 12.54875
71.794609 51.778709 5.5438442 13
71.672409 52.212769 5.2701659 12.0625
71.828545 52.614323 5.4579139 12.3545
71.753159 52.899303 5.473278 12.683833
71.690285 53.297035 5.4351325 11.0445
71.731735 53.820633 5.2676129 12.031
71.711617 54.132229 5.4029965 12
71.745285 54.66367 5.4974184 11.800667
71.893333 55.085999 5.4604235 10.511084
71.784424 55.464348 5.4967237 11.021
71.874825 55.702789 5.4719 10.50675
71.871185 57.149277 5.4492764 12.026251
71.825867 57.78017 5.4327478 12.028501
71.85601 58.27578 5.3819222 12.012751
71.974136 46.693825 5.7376323 13
71.877914 46.877033 5.8419719 12.005501
71.637764 47.456093 5.6800461 13.043
71.819328 47.909447 5.7684908 12
71.87027 48.182919 5.7800612 12.333333
71.81707 48.57608 5.811738 12.614715
71.816757 48.944035 5.6989613 12.6
71.77549 49.375706 5.7639222 12.177813
71.847572 49.742725 5.7677593 12.643749
71.879517 50.333405 5.7858281 13.054
71.783096 50.662716 5.7674646 12.735499
71.843048 50.986515 5.791532 13.0185
71.675186 51.442116 5.636621 12.035999
71.902756 51.901718 5.9255037 12.52825
71.889999 52.042465 5.8809772 12.1
71.815063 52.562767 5.6437259 12.5
71.691658 53.070648 5.6507888 12.5675
71.738785 53.494194 5.9167495 11.059
71.856316 53.743187 5.9585042 12
71.786362 54.136547 5.7127547 12.5
71.769585 54.472218 5.8655424 13.0575
71.681831 54.805641 5.6467533 13.0555
71.711609 55.84441 5.6663737 12.0405
71.813919 56.310608 5.6947699 13.0555
71.796547 56.603382 5.8374243 12.049167
71.88752 57.54377 5.7429099 12
71.916214 46.682281 6.1578889 13
71.829674 46.960297 6.2062769 12.502917
71.894798 48.19944 6.1812844 12.321375
71.762581 48.682507 6.3583717 12
71.908516 48.938225 6.1003385 13.0565
71.795982 49.819511 6.144691 13.057751
71.810349 50.141922 6.1382833 12.53975
71.913765 50.41716 6.2628212 13.059
71.792068 51.130436 6.0362463 12
71.81321 51.287422 6.0185676 12
71.8377 51.755402 6.1143169 12
71.767685 52.508163 6.3377695 10.1695
71.872101 53.514061 6.2219052 12.07675
71.842285 53.86459 6.1490664 12.386001
71.957077 54.202282 6.1457076 12.58875
71.820961 54.531933 6.1996207 12.737167
71.815956 55.579178 6.0645342 11.021
71.757797 55.827896 6.2533541 11.289
71.710762 46.673218 6.7741961 14
71.760551 47.423199 6.7242274 13.005834
71.818245 47.742352 6.6527281 13.578428
71.820129 48.308403 6.6915374 13.775875
71.819893 48.58075 6.7427516 14
71.842232 48.9417 6.7262497 13.0705
71.834946 52.748512 6.6933646 12.0415
71.833488 52.860382 6.573689 13.531
71.662056 53.588383 6.6322989 14.051
71.777084 53.990585 6.7202072 14
71.838043 54.221577 6.7075577 13.8675
71.655594 54.582687 6.7360077 14.0535
71.712608 55.043419 6.6540723 14.026125
71.688942 55.899464 6.4414644 12.0485
71.808144 56.105183 6.6571269 12.691501
71.780388 57.734558 6.6337991 12.129
71.666924 58.37719 6.6060114 12.123
71.74588 59.528358 6.4546194 12
71.753639 46.953976 7.0098228 13.5
71.762146 47.428421 7.0047278 13.783722
71.843567 47.806511 6.9411936 13.725429
71.76017 48.188728 7.1537137 11.009
71.763489 48.576073 7.0391583 13.039249
71.915291 52.591843 6.8114967 14
71.942001 52.975422 6.9175248 14.055
71.797363 53.384441 7.0138583 13.0436
71.871529 53.808731 7.0212693 13.07
71.807434 54.258366 6.9526887 13.54
71.723381 54.594475 6.9169421 13.025249
71.907112 54.918922 6.8379798 12.021
71.991341 55.646042 7.0494657 13.0245
71.790443 56.346359 6.8534107 14.0555
71.831589 57.920528 7.0532517 13.06625
71.774651 47.395519 7.225389 12.5
71.869835 47.807377 7.321115 13.666667
71.925247 48.168732 7.2577481 13.5
71.734726 48.463005 7.3374157 13
71.732536 52.964249 7.4209905 13.0255
71.815735 53.40337 7.310297 12.6291
71.938782 54.284081 7.2948518 13.03975
71.782257 54.531937 7.454957 14.06
71.788086 55.208298 7.2569895 14.059
71.937317 55.740059 7.3107405 13.078
71.960022 56.873108 7.3468995 13.075
71.919991 57.929844 7.2851877 14.06
71.862625 52.989319 7.7794528 14.518625
71.828064 53.286453 7.8289208 11.02
71.931122 54.323586 7.6043501 14.0605
71.8573 54.619255 7.660131 12.614
71.684418 54.880203 7.9217615 13
71.840286 55.384193 7.9947243 13.119
71.992332 55.645317 7.9379196 13.1165
71.986008 53.406898 8.0110998 11.02
71.646965 54.187027 8.038312 11
71.778458 56.678711 8.0197001 13.117
72.303619 55.647911 -1.8436757 7
72.300804 36.679005 -0.81487525 7
72.314545 33.052029 -0.50076103 7
72.390656 36.579704 -0.72630525 7
72.362221 56.148201 -0.48012015 8.1219997
72.268333 30.225868 -0.014815396 7
72.369003 30.93992 -0.067525089 7
72.089432 31.61956 -0.19445741 7
72.367226 32.573158 -0.14691442 7
72.321716 33.063782 -0.13250929 7
72.251091 56.26049 -0.35023937 8
72.136444 56.531242 -0.25409594 8.132
72.385841 56.23127 0.38851425 8.0275002
72.297249 56.640968 0.062132809 8.0597496
72.239128 30.106277 0.66093856 7
72.355812 31.173458 0.6583643 7
72.277992 52.974548 0.62161326 8.1654997
72.19165 53.022377 0.91946173 9
72.040726 53.464424 0.91523045 9
72.017693 58.07962 1.0983541 9.1199999
72.152542 58.651833 1.0321211 8.1680002
72.214584 53.708168 1.3909824 9.1329994
72.3479 56.534187 1.3677899 9
72.154846 57.378716 1.3988092 9.1254997
72.154808 57.703384 1.4127325 9.1350002
72.295525 58.189995 1.5817388 9.0279999
72.068604 58.79335 1.4307925 9.1370001
72.106964 58.130886 1.8158457 9.0295
72.350037 52.222527 2.1748033 9.1059999
72.390709 53.634754 2.3482151 10.0545
72.09301 54.081955 2.2523234 9.0672503
72.244301 58.124249 2.1465316 9.1110001
72.302116 58.492958 2.1741009 9.0229998
72.134628 48.236637 2.7040987 9.8329
72.014297 48.585457 2.4912035 10.1135
72.189125 48.978848 2.7065074 9.7610006
72.157867 49.503803 2.6745651 9.5201874
72.242371 49.777351 2.5522454 9.9118576
72.220634 50.212254 2.6484089 9.8763571
72.212875 51.799965 2.5547926 10.05625
72.258698 52.132896 2.62714 10.0322
72.094719 52.548912 2.6470251 9.5100002
72.219666 53.403149 2.6018677 10.0734
72.134468 55.35051 2.64203 10.062
72.297806 56.333752 2.7868881 10.0655
72.008911 56.749382 2.7112811 10.051001
72.130402 58.641399 2.6893175 9.8581667
72.202957 59.065197 2.5698168 9.5266666
72.230988 59.414452 2.6820643 10.02725
72.247688 59.741524 2.6171401 10.0321
72.1558 48.148174 2.9781995 9.5830002
72.173775 48.594692 2.933754 9.6056252
72.343987 48.853432 3.0338914 10.108
72.302193 49.510483 2.8347681 10
72.321716 49.7229 2.823004 10.026334
72.154869 50.27935 3.0091286 9.6172504
72.179367 50.562267 2.8183725 10.035749
72.073227 51.125175 2.9188259 10.123
72.237411 51.57494 2.8149762 10.096
72.20871 52.65509 2.961107 10.046801
72.185669 52.846802 2.8094418 10
72.100502 53.391972 3.0113657 10.041667
72.323013 53.838562 2.8137062 10
72.28968 54.138184 2.8471982 10
72.233467 56.346729 2.9047303 10.057
72.127914 56.581799 2.9163663 9.8409166
72.167496 58.917816 2.8519444 10.084499
72.063713 48.19717 3.211025 9.1669998
72.321342 50.714287 3.5455885 11
72.245636 50.994648 3.4595079 10.553249
72.209465 51.479176 3.50964 11
72.199753 51.768494 3.2851171 9.1684999
72.168098 52.618732 3.3947947 10.34
72.171516 53.01619 3.3114145 10.536875
72.098763 53.363728 3.3593297 10.363667
72.05468 53.646713 3.3938351 11.0495
72.19516 54.579094 3.4542842 11.0535
72.10041 54.802818 3.3287716 11.049
72.096687 55.34655 3.3009975 10.282625
72.260658 56.126961 3.5028944 10
72.217285 57.453186 3.4951758 10.01125
72.368668 58.288437 3.431318 11.0555
72.258179 58.665607 3.5218141 10.686501
72.316338 58.848427 3.4567804 11.042125
72.117096 45.786011 3.9667432 11
72.290741 47.368904 3.8722212 10.004375
72.32103 48.37429 3.78427 10
72.250336 48.523975 3.9461882 10.687751
72.213547 48.93737 3.7533188 9.0179996
72.053032 50.786957 3.6669056 11.0555
72.205185 50.899082 3.7626107 10.844701
72.296265 51.308887 3.8770714 11.05875
72.195114 51.8008 3.8502674 11.0237
72.116959 52.686234 3.6374609 9.0244999
72.222488 54.344688 3.8863139 11.0605
72.243492 57.408562 3.8273807 11.033
72.176987 58.63501 3.6727798 11.047251
72.262482 59.831192 3.8076756 11.030833
72.095688 45.052361 4.1010394 11.117
72.284431 45.284527 4.1439147 10.411166
72.056313 45.852016 4.0964937 11
72.364174 46.779823 4.0525541 9.0174999
72.237167 47.009315 4.1766667 10.6563
72.281349 47.377556 4.2653575 10.399115
72.176476 47.777691 4.1848812 11.021626
72.180824 48.638504 4.3223267 10.5
72.157837 48.936729 4.2182293 11.034375
72.236046 49.428185 4.3354626 11.022875
72.196655 49.877411 4.1689024 10.6198
72.268028 50.071789 4.2666979 11.059167
72.151917 50.66468 4.347424 11
72.263802 51.014866 4.2858849 11.031501
72.177917 51.273079 4.1469784 11.0305
72.205551 51.958183 4.3934865 11
72.064293 52.447849 4.0464826 11.0625
72.172112 53.016239 4.1471972 11
72.250473 53.860603 4.2775168 11.0154
72.218483 54.224392 4.2370181 11.044833
72.275681 56.684738 4.0637059 11.0635
72.161781 57.138565 4.0714941 11.028
72.129204 57.498016 4.3177996 11.0345
72.209846 57.759834 4.2552176 11.0065
72.167122 58.91423 4.0688515 11.02725
72.050392 59.85733 4.2344203 11.066
72.060341 44.602959 4.5095568 10.163
72.288132 46.706165 4.7251992 12
72.266479 46.930214 4.6983962 11.691444
72.234818 47.402843 4.6384897 11.165358
72.180443 47.751575 4.6809754 12.013667
72.176437 48.074207 4.7286077 12
72.222145 48.589607 4.687788 11.5795
72.23613 49.418907 4.6277018 12.01355
72.286469 49.745907 4.5811467 11.841416
72.186005 50.290649 4.6215677 11.8321
72.229393 50.608295 4.6227531 12.006571
72.247215 50.938271 4.632575 12.005549
72.093361 51.400784 4.5888333 11.761126
72.304367 51.774403 4.6742721 11.01225
72.072868 52.219002 4.4969053 12.02375
72.373466 53.977287 4.4552488 11
72.287476 54.21843 4.5358105 11.352
72.024551 54.6628 4.7222157 11.1245
72.107597 55.467438 4.6338654 10.51025
72.202675 55.836426 4.6531959 10.021
72.274513 56.176571 4.4042377 10.0215
72.164856 56.428802 4.5009298 11.0865
72.334213 57.101185 4.6361866 12.056
72.297684 57.473404 4.6307902 11.0425
72.124908 58.766045 4.6427908 12.0585
72.176674 59.405571 4.6008129 11.5295
72.278679 44.573353 5.1374536 10.167
72.102737 45.624062 5.0648313 10.1655
72.332695 46.344559 5.1328101 12
72.222427 46.537724 5.1388173 12
72.253365 47.008514 4.9362659 11.813778
72.319069 47.257023 4.9013309 12.01375
72.208626 47.878407 5.0132952 11.804399
72.194542 48.11792 4.9589753 12.01375
72.255989 48.457748 5.1582804 12
72.098534 49.572197 5.172719 11.51025
72.004005 49.754555 5.1731892 12
72.11747 51.101105 5.0557942 12.059
72.28447 53.728416 5.1201468 12.06
72.21212 54.805107 5.0593891 10.0195
72.336456 56.240997 5.0598488 10.5105
72.181694 57.72924 4.8813744 11
72.212807 58.169685 5.0319023 11.01125
72.069283 59.175903 5.0164003 12
72.050392 59.329994 4.8710666 12.061
72.290451 43.468723 5.4183059 12
72.191948 44.913654 5.4540048 12.1115
72.179497 45.402515 5.3730011 11.2514
72.103935 45.76482 5.5003667 12.0365
72.228867 46.397095 5.4080181 12
72.386894 46.67271 5.2124376 11.0215
72.191727 47.050598 5.4216619 11.4114
72.193764 47.373779 5.3947458 11.2162
72.107063 47.874634 5.4589453 10.1685
72.265137 48.191837 5.2267437 10.166
72.209511 48.622372 5.2001028 12
72.108879 49.105495 5.5755496 10.018
72.137428 49.408432 5.3090763 11.244299
72.099815 50.552048 5.5188198 12
72.101562 50.889469 5.5431066 12.017875
72.222206 51.518333 5.5182428 11.02025
72.193344 51.658775 5.4258571 10.0195
72.332504 52.160572 5.3931966 12.063
72.064369 53.742722 5.3536758 12
72.05014 54.271557 5.5648623 13.05
72.116768 55.061661 5.394248 11.524
72.195602 55.569473 5.2380819 11.0215
72.019241 55.896896 5.481339 12.0255
72.126579 57.584885 5.5913825 12
72.26226 57.78244 5.4823847 12.0052
72.294693 58.272842 5.3607488 12.028
72.300163 58.442547 5.3895187 12.0265
72.342926 43.078808 5.8285265 10.1685
72.014366 45.114349 5.9333611 13.0515
72.233612 45.367397 5.8769574 12.470215
72.357735 45.907166 5.6661291 12
72.302681 46.08741 5.7984881 11.084499
72.21946 46.534943 5.7628398 12.563749
72.161789 47.010956 5.7598758 11.643394
72.254906 47.362671 5.8034253 12.187917
72.212341 47.831684 5.7717152 12.166667
72.229225 48.234043 5.7957525 12.721749
72.240219 48.619133 5.7308865 12.662545
72.130531 48.983925 5.7151079 12.65625
