# .PCD v0.7 - Point Cloud Data file format
VERSION 0.7
FIELDS x y z intensity
SIZE 4 4 4 4
TYPE F F F F
COUNT 1 1 1 1
WIDTH 70
HEIGHT 1
VIEWPOINT 0 0 0 1 0 0 0
POINTS 70
DATA ascii
90.389023 -0.46827999 4.0118709 9.1455002
90.093613 -16.208195 9.5204124 10.02
90.224548 -14.40589 12.675653 14.122
90.618896 -0.12828679 2.235652 8.1459999
90.530174 -1.0082105 3.9186521 9.1455002
90.957901 -0.32171479 1.5035889 8.1269999
91.138618 -14.287261 12.86513 14
90.864815 -14.256848 14.36425 13.069
91.010201 -13.880546 14.565244 13.0655
90.840424 -14.109136 16.674341 14.069
91.363029 -9.7413416 -0.042023882 7
91.312393 -10.501727 0.20896587 7
91.426613 -14.707264 3.9053576 9.1260004
91.452965 -14.560932 5.5793004 10
91.444427 -14.449622 7.3694577 11
91.477249 -14.373253 7.3898029 11
91.401367 -14.424849 9.1749697 12
91.456161 -14.357763 9.2143812 12
91.375046 -14.456607 10.87199 13.1235
91.341476 -14.33574 11.015458 13
91.31263 -16.695152 11.939182 13.1485
91.458603 -17.888048 12.235045 14.138
91.349022 -17.355335 12.251822 14.136
91.370674 -17.090963 12.226867 14.1385
91.316559 -16.27566 12.230085 14.139
91.249374 -14.660823 12.293653 14.1245
91.326073 -18.583357 12.675479 14.141
91.323952 -17.889933 12.760352 14.143
91.241798 -16.463564 12.711552 14.143
91.340141 -14.438672 12.704857 14.1235
91.365318 -17.523251 12.919713 14.144
91.250023 -16.206984 12.915336 13.64775
91.383514 -14.266583 12.871439 14
91.602631 -15.768133 1.8859636 7
91.875801 -0.5274049 3.3781414 8.0585003
91.678589 -15.171041 11.880691 11.021
92.151642 -14.998564 9.4045038 10.0215
92.134064 -14.56666 9.2333355 10.022
92.364357 -14.397862 13.141064 14.1225
93.248596 -15.014065 12.005544 11.0215
95.46067 -14.888999 12.247133 11.022
96.319778 -1.1134129 2.3055542 8.0594997
96.395821 -14.499271 7.8758702 11.1245
96.713264 -0.86691815 3.5406218 8.0469999
97.401215 -0.15935656 1.6679926 8.1280003
97.373238 -0.14158861 3.5352056 9.1280003
98.372101 -14.293171 10.244173 12.1245
98.402863 -14.182549 10.128954 12.125
99.620087 -18.667086 1.0109543 7
103.82934 -1.1932764 2.8173749 8.1424999
105.12551 -7.4222441 0.31763074 7
107.99034 -12.610981 9.7943468 11.1375
107.96252 -10.984059 9.7183123 11
108.18097 -13.727043 3.0733941 8
108.15957 -13.289064 3.0627172 8
108.091 -11.210409 3.0878594 8
108.15342 -13.795656 5.2714491 9
108.07404 -11.836017 5.305109 9
108.04099 -11.507963 5.2958965 9
108.02683 -11.067419 5.285708 9
108.11043 -13.765987 7.4739976 10
108.00162 -11.461721 7.5035229 10
108.01316 -11.018459 7.4969759 10
108.17918 -13.473877 11.336559 12.127
108.99478 -0.51416481 3.7086825 8.026
108.84127 -0.30591264 3.7172027 8.0264997
109.21452 -15.122487 13.491408 11.026
109.86094 -13.015263 7.6360054 10.1375
115.14614 -1.6561861 4.0479398 8.0290003
115.84262 -20.725416 2.6808829 8.125
