# .PCD v0.7 - Point Cloud Data file format
VERSION 0.7
FIELDS x y z intensity
SIZE 4 4 4 4
TYPE F F F F
COUNT 1 1 1 1
WIDTH 368
HEIGHT 1
VIEWPOINT 0 0 0 1 0 0 0
POINTS 368
DATA ascii
90.307709 -88.240387 5.2659111 8.1490002
90.079964 -65.325012 5.2535276 8.1724997
90.120453 -67.635284 5.9571295 9.1455002
90.240913 -84.694389 6.8079515 9.1549997
90.070221 -65.025894 10.620126 10.841666
90.041328 -65.170937 11.888624 12.17425
90.246826 -82.680595 12.659939 12.1635
90.056091 -64.928314 12.602885 12.174832
90.034508 -83.088257 12.976963 12.582
90.258263 -82.654495 13.050026 12.768666
90.148186 -64.655113 13.090147 11
90.255989 -83.469719 13.405718 13.1535
90.224045 -84.632408 13.852435 13.158
90.282349 -83.840263 13.895777 13.1605
90.190903 -82.954536 13.793781 13.161
90.051628 -65.065086 13.634317 13.1745
90.223915 -85.808647 15.063484 13.652
90.327148 -84.893936 14.903191 13.163
90.259254 -84.622086 15.058354 14.1305
90.112778 -64.802101 14.821165 13.1775
90.258034 -88.277161 15.590303 14.1325
90.110817 -64.976685 15.45971 14.1745
90.014252 -64.58979 16.760672 14.1725
90.01255 -64.495667 18.769228 15.1725
90.042145 -64.42289 18.948008 15.1775
90.192879 -64.684982 19.541321 13.1755
90.279312 -64.124245 25.386992 15.174
90.458252 -67.037338 7.5242805 10.1535
90.777145 -82.860985 11.549356 12.1395
90.664581 -83.590462 13.064839 12.164
90.484589 -82.328476 12.86708 12.1645
90.517982 -82.61779 13.378567 12.495667
90.760986 -82.709801 13.957725 11.1765
90.719421 -82.147118 13.623915 12.1665
90.717827 -85.530243 15.186056 13.163
90.5205 -82.928993 14.893814 14.06775
90.79071 -85.313759 15.443715 14.1525
90.670052 -87.99482 15.790877 14.153
90.407875 -64.549767 20.509827 13.1795
91.11203 -65.614357 1.2463566 7
91.045074 -64.681412 5.0900025 8
91.00901 -87.589989 5.3213739 8.1274996
91.134773 -83.108131 6.6839299 9.1435003
91.104034 -83.056938 6.810092 9.1324997
91.08696 -64.465767 7.7043037 9
91.168419 -65.067184 9.8153448 10.006
91.198845 -65.126602 10.224242 10.0055
90.912018 -82.894196 11.450043 11.7215
91.157143 -64.940712 11.255757 10.002501
90.931778 -83.362228 11.710343 12.1355
91.182373 -64.948967 12.09997 11.006
91.060944 -82.044388 13.06698 12.165
90.842361 -81.994843 13.083566 12.1645
90.829483 -84.532364 14.745202 13.1625
91.108597 -84.607986 15.157974 13.489833
90.958458 -84.260506 15.077328 13.64625
90.83564 -86.182533 15.486497 14.15
91.050117 -85.284401 15.2644 14.142
91.189369 -64.813377 15.533006 14.1745
90.883537 -87.943359 15.612659 14.125
91.013771 -86.302177 15.668807 14.154
90.905449 -85.658897 15.886846 14.1575
91.183006 -87.64875 16.31217 14.1585
91.189423 -64.727806 17.383005 15.1745
91.166985 -63.785324 18.530592 13.169
91.547333 -87.824821 5.475884 8.1134996
91.418434 -82.835823 6.7901731 9.1359997
91.248444 -65.073868 7.9037981 9
91.31575 -64.994072 8.1463947 9
91.278442 -65.778503 9.3542337 11.1665
91.265282 -65.090996 9.6189756 10
91.282623 -65.191917 10.111128 10
91.271393 -65.733986 11.014386 12.1665
91.413803 -64.884949 11.247419 10
91.277519 -64.840553 11.740516 11
91.438705 -83.28067 12.184247 12.159
91.242561 -65.322601 12.338076 13.1545
91.320274 -64.976768 12.157725 11
91.304626 -65.045753 12.579387 11
91.235222 -64.763664 13.050999 12.1725
91.314079 -64.717102 13.475302 11.086
91.285553 -83.173531 13.911845 13.159
91.409233 -82.341515 13.916734 12.499833
91.237961 -64.927315 13.970818 13.174
91.355118 -64.665268 13.649658 11
91.306015 -64.900932 15.068549 12
91.378273 -84.112633 15.274596 14.135
91.266113 -64.821236 15.303967 12.0055
91.390633 -87.309547 15.803909 14.1515
91.242096 -64.829323 15.842894 14.174
91.335625 -64.440697 15.950261 12
91.328789 -87.606384 16.214199 14.1565
91.426064 -86.810677 16.26524 14.159
91.221848 -64.34082 16.124481 12
91.379242 -64.599091 16.590942 12.2945
91.23175 -64.452522 16.877426 14.1755
91.269821 -64.728729 17.688278 15.17425
91.303162 -64.267067 19.041292 14.087749
91.970352 -64.762398 5.0702572 8
91.958298 -64.391266 7.7689772 9
91.991753 -64.265663 10.368999 10
91.988472 -64.252525 10.453584 10
91.716423 -83.066856 11.901642 12.154
91.772163 -82.519241 11.71899 11.1625
91.985527 -81.554398 11.789712 11.1625
91.844269 -82.532784 12.2323 12.1605
91.715668 -83.80864 15.296691 14.1295
91.983688 -86.060905 16.302477 14.1595
92.053452 -66.001427 0.47400841 7
92.031357 -65.751793 0.61356956 7
92.327827 -66.402451 4.7620263 8.1750002
92.169418 -65.854294 4.4707179 8.0025005
92.182556 -65.377556 4.4937024 8
92.231972 -65.907562 4.9339094 8.1175003
92.078194 -65.348633 5.0834279 8.0592499
92.011787 -65.026665 5.0886011 8
92.325089 -88.114235 5.2963037 8.1494999
92.163834 -65.797127 5.3236871 8.0860004
92.14344 -65.375076 5.3961654 8.0857506
92.232803 -65.833839 6.0475402 9.0812502
92.236755 -65.316933 6.0238781 9
92.225998 -66.166695 6.7626085 9.1739998
92.111336 -85.157684 6.8403354 9.1424999
92.241592 -66.05233 6.8049512 9.1735001
92.162506 -65.759079 6.9688663 9.1727505
92.243408 -66.555664 7.8145056 10.166
92.203117 -65.747581 7.7607503 10.111333
92.066971 -65.491501 7.8424368 9
92.211288 -65.195137 7.6240015 10
92.347191 -65.854866 8.0976191 9
92.241425 -65.481499 8.1427679 9
92.195801 -65.442322 9.2907887 10.502251
92.2034 -65.156013 9.2371321 11
92.262711 -65.716614 9.8268385 10
92.235039 -65.438629 9.7624063 10
92.215103 -65.086304 9.8219652 10
92.111465 -81.60244 10.081213 11.1335
92.256493 -65.725471 10.111291 10
92.197151 -65.360832 10.120019 10.001101
92.185181 -64.9674 10.337184 10.25
92.02462 -64.642776 10.377455 10
92.191154 -65.607491 10.624733 11
92.289894 -65.258682 10.421912 10
92.095016 -64.968704 10.46209 10
92.020782 -64.581001 10.464774 10
92.138359 -65.704842 10.894588 11.171
92.257416 -65.426971 10.980431 10.724999
92.212158 -65.056122 11.102295 11.666667
92.235291 -81.440659 11.375783 11.16525
92.233025 -65.674995 11.251934 11.172
92.194572 -65.402115 11.356421 10.697917
92.152596 -65.12941 11.327544 10.585751
92.270065 -82.337395 11.930717 12.1545
92.20211 -81.373192 11.744853 11.163
92.339943 -80.652397 11.770778 11.163
92.239456 -65.603127 11.901156 12
92.228905 -65.338158 11.887571 11.5
92.199875 -64.971985 11.910594 11.333333
92.014389 -81.670883 12.141764 12.16
92.200005 -65.739922 12.286274 12
92.198364 -65.368423 12.219603 11.555555
92.202507 -65.010529 12.200665 11.333333
92.227661 -65.447998 12.54178 11.714286
92.180199 -65.00074 12.556275 12
92.211693 -65.619667 12.839992 12.5855
92.217148 -65.3722 12.98642 13
92.165512 -64.911232 13.017415 12.6
92.119164 -64.662079 13.15483 11.333333
92.058594 -64.231293 13.132787 11
92.047897 -63.987194 13.181227 11
92.259903 -65.28476 13.325706 11
92.247681 -64.964714 13.364326 11
92.22374 -64.694496 13.384924 11
92.082184 -64.388451 13.206024 11
92.267746 -65.348572 13.748199 12.166667
92.237976 -64.961021 13.776398 12.333333
92.307991 -64.789513 13.761604 11
92.212387 -65.289413 14.168225 13
92.183174 -64.957253 14.187966 13
92.188133 -64.750099 14.382518 14
92.213554 -65.327286 14.628648 12.875
92.211807 -64.951691 14.650649 12.444445
92.273903 -64.666443 14.484297 12.5
92.214645 -65.045235 14.965083 12.8
92.190063 -64.708672 14.919818 13
92.133316 -65.645012 15.333092 13
92.221199 -65.349174 15.299809 13
92.227196 -64.995506 15.330557 13
92.190926 -64.559349 15.364273 13.5
92.243965 -84.88401 15.720154 14.153
92.205299 -65.211624 15.880712 15
92.142883 -64.924454 15.947422 14.2
92.137527 -64.565163 15.863909 12.428572
92.071625 -64.163383 15.872059 12
92.058914 -63.822834 15.931639 12
92.004219 -85.098869 16.069382 14.158
92.22403 -65.378639 16.202219 14.2
92.245583 -65.006775 16.162155 13.1
92.217995 -64.65715 16.179008 13.375
92.207779 -65.296867 16.610218 14.723666
92.278397 -64.964424 16.614735 13.5
92.221725 -64.580582 16.564234 13.4
92.382271 -65.270981 16.844671 12
92.251343 -64.954857 17.005861 13
92.262344 -64.658699 17.038855 12.875
92.167953 -64.368111 17.090727 14
92.221352 -65.050331 17.362684 14.2
92.1903 -64.61087 17.348761 14.4
92.191788 -65.307404 17.811588 15
92.155708 -64.883522 17.886141 15
92.207642 -64.721054 17.617424 15
92.225891 -65.39016 18.194136 15
92.168777 -65.05172 18.170444 15
92.151337 -64.706779 18.158163 15
92.1474 -65.124313 18.749575 15.171
92.157539 -64.46093 18.669504 13
92.108185 -64.140411 18.679289 13
92.096901 -63.759174 18.649082 13
92.261642 -64.969414 18.984657 13
92.249016 -64.546844 18.968569 13
92.231636 -64.139786 19.002819 13
92.208054 -64.950966 19.36511 15
92.218071 -64.634514 19.350279 14.666667
92.194748 -64.30323 19.360636 14.6
92.363853 -64.904518 19.776314 13
92.34697 -64.668182 19.735344 13
92.309937 -64.297691 19.781096 13
92.158112 -64.091423 21.486998 14
92.149185 -63.789562 21.473907 14
92.137108 -63.527046 21.517536 14
92.339096 -64.820648 21.922457 14
92.2714 -64.637337 21.910988 14
92.265488 -64.231041 21.919107 14
92.37709 -64.880295 22.04315 13.005
92.304245 -64.607674 22.212088 13.502501
92.2855 -64.036682 22.292831 14
92.364632 -64.615074 22.725149 14
92.38147 -64.174614 22.724804 14
92.330673 -63.984501 22.672098 14
92.22345 -64.108467 24.154402 15
92.211479 -63.800491 24.226664 15
92.165001 -63.472916 24.203432 15
92.265366 -64.216522 24.787577 15
92.26078 -63.813896 24.563892 15
92.203316 -63.418594 24.452168 15
92.359566 -64.25901 24.934198 15
92.314827 -63.857719 24.935291 15
92.336662 -64.20002 25.379625 15
92.356644 -63.752842 25.382803 15
92.396141 -64.588806 25.819574 14.005
92.388947 -64.142212 25.799543 15
92.459503 -81.80275 12.317904 12.162
92.437607 -80.908485 12.244815 12.1625
92.533859 -65.598137 12.248446 10
92.404053 -64.989265 12.385187 10
92.482971 -65.61232 12.513484 10.014
92.436691 -65.408684 12.422922 10.004167
92.671173 -82.55703 13.539567 13.14
92.408501 -65.200981 14.421515 11
92.400185 -64.888527 14.414004 11
92.678391 -84.134827 15.487533 13.490166
92.563858 -64.962105 16.396345 11
92.560135 -64.75502 16.347452 11
92.505112 -64.387794 16.33082 11
92.655815 -65.273636 16.505198 11.004167
92.597725 -64.931458 16.586931 11.009999
92.600861 -64.468346 16.473043 11.006
92.455223 -65.077721 17.140011 12
92.454208 -65.076195 17.567291 12
92.424271 -64.626167 17.556259 12
92.446365 -64.950157 20.271486 13
92.493019 -64.631233 20.27598 13
92.419754 -64.319298 20.258602 13
92.532936 -64.959419 20.756386 13
92.539665 -64.643639 20.755039 13
92.502777 -64.335907 20.745815 13
92.413971 -64.371666 22.774195 14
92.489021 -64.691475 23.085344 14
92.42025 -64.091408 23.065203 14
92.594048 -64.806679 23.47801 14
92.540184 -64.50647 23.464127 14
92.482475 -64.191444 23.44956 14
92.588539 -64.530334 23.987568 14
92.601463 -64.212723 23.990101 14
92.485672 -64.423409 25.824867 15
92.422295 -64.230049 25.922873 15
92.42057 -63.896938 25.864534 15
92.528282 -64.561363 26.280657 15
92.461632 -64.114174 26.262671 15
92.656029 -64.350456 26.723297 15
92.786011 -64.232727 27.109934 14.005
92.697533 -64.403091 27.290306 15
92.736549 -64.079918 27.302183 15
92.676445 -63.760166 27.288723 15
93.172348 -82.504715 8.5553741 10.1365
93.139015 -81.992874 8.5429831 10.1335
93.100189 -82.970184 11.483524 11.1645
93.072151 -82.739044 11.890738 12.14
92.895836 -81.454987 12.992854 12.1645
93.143463 -81.315384 13.41223 12.165
93.086823 -82.486549 13.644738 13.144
93.050957 -84.051628 15.441043 13.164
93.100616 -83.515923 15.494074 14.1395
92.921524 -64.198441 24.025934 13.0055
92.884392 -64.902565 24.626728 13.0125
93.29361 -87.516678 7.1171522 9.1540003
93.280418 -86.759872 7.0770779 9.1285
93.549568 -81.734398 8.5363503 10.137
93.259644 -81.781502 10.165108 11.13875
93.227539 -82.533859 13.824049 13.1525
93.365669 -81.808754 13.712052 12.1635
93.528191 -81.947449 14.231066 13.16
93.308174 -83.300507 15.115641 13.1635
93.396347 -83.814163 15.409583 13.164
93.723122 -80.927177 8.4981899 10.1375
93.697807 -81.12854 13.450812 12.65325
93.764191 -81.755623 13.986949 13.157
93.870346 -81.762283 14.06686 12.1625
94.028969 -81.990288 8.5720425 10.153
94.382576 -81.625038 11.575217 11.1655
94.291077 -81.345062 11.513292 11.1655
94.100182 -81.066376 11.801011 11.164
94.028915 -81.83844 13.917405 13.153
94.2341 -80.997269 13.791345 12.164
94.202942 -82.755684 14.153859 13.1565
94.080505 -82.080414 14.464408 13.162
94.123512 -83.497261 15.744893 13.814667
94.436447 -80.846771 11.636717 11.1655
94.740135 -80.448044 12.576239 12.163
94.902016 -78.598511 3.3055227 7
94.875366 -89.087303 5.4186592 8.1534996
95.065971 -88.532524 5.6137114 8.1569996
95.052139 -81.410431 12.601561 12.1605
95.72538 -80.632217 10.422855 10.1645
95.690147 -81.614571 10.877744 11.1615
95.848747 -82.99839 11.94421 11.164833
96.721062 -83.815208 16.266373 13.489499
96.737144 -83.583122 16.063864 13.1645
97.079727 -81.599731 12.683871 12.1575
97.068138 -83.347313 16.452759 14.1365
97.560707 -87.524818 5.5379639 8.1315002
97.318054 -83.219475 15.912791 13.164
97.52179 -82.747116 16.143583 13.165
97.546852 -83.713219 16.547255 14.144
97.685631 -89.793587 9.4316301 10.128
97.680367 -83.285965 16.378571 13.165
97.665512 -83.052223 16.279367 13.165
97.76899 -83.022537 16.447157 13.1645
98.047577 -81.078865 3.9573054 7
98.72213 -80.816048 10.291003 10.1645
98.600578 -81.126076 10.816031 11.138
98.837051 -86.016815 5.4959016 8.1324997
99.296013 -81.514908 11.039503 10.1635
99.83017 -79.631577 5.1220036 8.1590004
99.615448 -78.591942 7.1826816 9.1625004
99.773705 -81.422249 11.409228 11.163
100.19161 -80.432785 7.1271229 9.1584997
100.50784 -88.784645 7.5048232 9.1505003
100.61326 -88.744652 7.6638131 9.1315002
100.96558 -89.976883 7.7573843 9.1309996
102.23972 -81.699669 5.9845161 8.1654997
103.01225 -83.290443 5.3303337 8.1575003
102.94822 -83.222107 7.4062014 9.1575003
103.99258 -87.066994 5.7172527 8.1590004
104.26041 -86.032204 5.6722903 8.1595001
104.37704 -85.844917 5.6488948 8.1475
104.22 -86.486938 6.3046803 8.1634998
104.7494 -84.345299 6.1994743 8.1645002
