# .PCD v0.7 - Point Cloud Data file format
VERSION 0.7
FIELDS x y z intensity
SIZE 4 4 4 4
TYPE F F F F
COUNT 1 1 1 1
WIDTH 1370
HEIGHT 1
VIEWPOINT 0 0 0 1 0 0 0
POINTS 1370
DATA ascii
113.47559 27.262512 24.017277 15
113.44874 27.88772 24.311583 15
113.29681 28.173584 24.263842 15
113.71401 3.8310049 4.5899973 9.1342497
113.96365 27.06986 7.5412135 10
113.94291 27.265568 7.5305052 10
113.96706 23.361828 9.1583786 11
113.93224 26.794243 9.1880741 11
113.79453 27.137924 9.1752892 11
113.91795 22.907473 9.3656683 11
113.71046 23.353889 9.333868 11
113.98602 26.352079 9.3313713 11
113.88433 26.592199 9.4615231 11
113.71167 26.996349 9.4176083 11
113.60378 27.289841 9.4821758 11
113.93021 27.121115 9.8019838 10.546
113.91805 27.399733 9.9615955 11
113.93581 27.601973 9.9552355 11
113.87976 22.837648 10.363898 11
113.98168 23.587723 10.217663 11
113.92828 23.807858 10.241415 11
113.9746 27.160946 10.160318 11
113.93934 27.379627 10.057991 11
113.85807 23.008152 10.671593 11
113.76753 23.38405 10.677624 11
113.89573 23.73875 10.490226 11
113.88886 24.35183 10.678261 10
113.87334 24.668655 10.676497 10
113.86078 26.16526 10.410569 10
113.74001 26.636486 10.409161 10
113.66718 27.068434 10.635152 11
113.61469 27.389858 10.793963 11
113.72401 28.567717 10.647192 11
113.81319 29.030611 10.593815 11.030499
113.96141 22.733299 10.939197 11
113.91352 22.918663 10.859056 10.666667
113.75685 23.348572 10.885169 11.04425
113.6601 23.703247 10.83914 11.0895
113.85348 24.969582 11.066769 10
113.69562 25.305021 10.823489 10
113.88783 26.776146 10.834505 11
113.7308 27.10956 10.808597 11
113.95148 28.621651 10.801347 11
113.98855 22.663258 11.36438 11.087
113.91872 25.438377 11.321377 10
113.86658 26.968559 11.365249 11.0365
113.65565 27.333471 11.25205 11
113.95667 22.768654 11.860677 12
113.86895 22.971437 11.911468 12
113.7264 23.395905 11.847465 12
113.72008 23.781612 11.765592 11.53825
113.88451 25.691568 11.7065 10
113.95142 26.366077 11.937791 12
113.87708 26.539753 11.868558 12
113.74922 26.933859 11.850151 11.875
113.71003 27.370049 11.711761 11.269375
113.79427 28.662781 11.848545 12
113.65099 28.999516 11.835454 12
113.62942 23.028584 12.13974 11.0545
113.77792 23.897163 12.113923 11.068
113.95795 26.348059 12.072742 12
113.84917 26.584084 12.111564 11.881937
113.77128 27.000088 12.162599 11.90555
113.77065 27.320528 12.186603 11.4138
113.90871 21.65361 12.403917 11.0595
113.91614 22.995155 12.693437 12
113.92137 23.394539 12.590633 12
113.91316 23.731152 12.641973 12
113.89114 26.628883 12.625182 12
113.83264 27.103901 12.646271 12
113.91805 27.420111 12.571414 12
113.94817 27.62149 12.534142 12
113.94913 22.698238 13.14832 12
113.77696 23.105721 12.999675 12
113.63085 23.508438 12.85498 12
113.91192 23.754211 12.966584 12.00355
113.95255 26.264193 13.082013 12
113.81158 26.648756 12.899092 12
113.63409 26.987997 13.105971 12
113.94324 27.435841 12.864481 12
113.74941 21.177189 13.496738 11.1495
113.79992 23.035734 13.375355 12
113.61446 23.456852 13.25161 12
113.90909 23.785294 13.237867 12
113.99162 24.315189 13.591599 11.1505
113.86307 24.921154 13.348313 11
113.7979 25.234056 13.34604 11
113.89352 26.36726 13.368867 12
113.76921 26.647884 13.344045 12
113.6704 26.964674 13.447493 12
113.90469 22.60372 13.807023 13
113.83062 23.120872 13.799019 12.333333
113.72916 23.424669 13.756661 12
113.66614 23.834194 13.781747 12
113.84326 24.176779 13.903459 11
113.73372 24.647739 13.888088 11
113.77982 25.16012 13.983117 11.053
113.91705 25.939491 13.630754 11
113.90452 26.277777 13.694639 12
113.8056 26.658155 13.729716 12.111111
113.69064 27.053003 13.721342 12.142858
113.70912 27.368793 13.690656 12
113.97267 27.604404 13.921569 12
113.93628 28.147934 13.680302 13
113.77498 28.619026 13.67974 12.333333
113.70134 28.971968 13.880183 12
113.96647 20.826653 14.234799 11.0765
113.68154 21.529736 14.191997 11.061251
113.94695 22.781498 14.131549 11
113.8783 22.977285 14.285583 13.046833
113.76535 23.391111 14.268777 12.8
113.67117 23.808916 14.214099 13
113.91692 24.567099 14.263399 11.024501
113.76505 25.001818 14.201357 11.016999
113.64158 25.414429 14.278622 11.032
113.65169 25.682991 14.151847 11.0545
113.9254 26.368662 14.193995 12.5
113.87717 26.57884 14.109517 12.2
113.78805 26.984522 14.177712 12.555555
113.71978 27.369545 14.223605 13
113.67752 27.709593 14.163715 13
113.88087 28.622122 14.013702 12
113.68288 21.621502 14.458312 11.0665
113.98195 22.7127 14.596016 13
113.87337 23.008869 14.631255 13
113.69795 23.382881 14.612282 13
113.63519 23.686378 14.768785 13
113.92943 24.294445 14.498151 11.0515
113.84213 24.980904 14.526861 11.0675
113.88809 25.383713 14.699478 11
113.93165 26.377121 14.596839 13
113.84929 26.63751 14.656434 12.875
113.67828 27.012049 14.632812 12.875
113.80461 27.361763 14.684612 12.333333
113.93184 27.672058 14.765694 13
113.74728 28.677999 14.568441 13
113.67137 28.918468 14.563678 13
113.94363 23.051462 14.965593 13
113.86917 23.414406 14.983171 13
113.85548 23.802422 15.044888 13
113.87189 24.019985 14.964022 13
113.88743 26.650862 14.897024 12.833333
113.75028 27.009268 14.881517 12.833333
113.87682 27.413889 15.020124 12.756458
113.89967 27.674667 15.053863 12.875
113.78287 28.784714 14.827478 13
113.66586 29.016243 14.837378 13
113.9598 22.783611 15.581943 13
113.83164 23.05702 15.551169 13
113.90296 23.524557 15.468929 13
113.91887 23.820879 15.394458 13
113.88927 24.091579 15.355244 13
113.99546 26.378956 15.232979 12.0815
113.85123 26.691376 15.498808 13
113.76605 27.085566 15.503053 12.5
113.893 27.458763 15.354697 12.719214
113.81721 27.707003 15.424957 12.666667
113.94849 22.609037 15.844355 13
113.8213 23.027405 15.809527 13
113.97771 23.538189 15.661243 13
113.89083 23.822075 15.767406 13.008938
113.9246 24.098251 15.813336 13.01725
113.77582 26.648033 15.866304 13
113.66557 26.923223 15.841042 13
113.95817 22.722857 16.2017 13
113.74856 23.06847 16.152748 13
113.68265 23.394487 16.2847 13
113.96829 23.612793 16.044132 13.034
113.81908 24.05999 16.082291 13.0335
113.94592 26.227261 16.139503 13
113.80801 26.544765 16.210365 13
113.68652 26.979353 16.223915 13
113.9566 22.574533 16.660406 13.419299
113.7797 23.011242 16.618673 13.405624
113.71359 23.392729 16.701897 13.166667
113.66645 23.802984 16.679358 13
113.97015 24.487589 16.535877 12
113.77592 24.961742 16.511086 12
113.95387 26.248161 16.52673 13.5
113.78027 26.68956 16.625917 13.26225
113.71321 27.037434 16.646244 13
113.6969 27.380857 16.581303 13
113.62516 27.742172 16.592119 13
113.91501 28.045155 16.629517 14.0985
113.70067 28.617531 16.75811 13
113.64054 28.930304 16.742208 13
113.94101 22.651756 16.951088 13.358334
113.8327 23.011454 17.030338 13.727273
113.66472 23.373812 17.053011 13.7
113.89594 23.781013 17.105915 13
113.75527 24.161552 17.090717 12.75
113.9549 25.778038 16.859644 12.666667
113.87675 26.233154 16.918835 12.888889
113.75578 26.579836 16.987574 13.090909
113.73191 26.976133 17.110662 13.333333
113.81943 27.437082 17.012903 14.04225
113.84545 27.825747 16.916243 13.333333
113.75606 28.706734 17.173555 13
113.62474 29.005487 17.146999 13
113.96923 22.70776 17.352406 13.6
113.866 23.043325 17.377972 14
113.73994 23.378416 17.350628 13.91715
113.85938 23.794651 17.517118 13.615801
113.79534 24.218868 17.48695 13
113.77151 24.605503 17.500881 12
113.61966 25.063908 17.526085 12
113.61982 25.31929 17.47311 12
113.96077 26.336363 17.302006 13.75
113.85776 26.631054 17.353903 13.642858
113.70078 27.011454 17.36232 13.692307
113.8136 27.415031 17.342905 13.770124
113.87058 27.711845 17.429092 14
113.8681 28.65761 17.20056 13
113.82751 22.756451 17.910965 13.087
113.8753 23.123791 17.787577 14
113.7298 23.471365 17.738192 14.048167
113.91641 23.883749 17.883686 14.010714
113.84986 24.157871 17.835247 13.717
113.659 24.876989 17.641279 12.0735
113.99685 26.089045 17.651531 13.153
113.89568 26.665846 17.744612 13.8
113.74641 27.020918 17.687361 14
113.85649 27.449097 17.813807 13.727273
113.90022 27.778011 17.740683 13.879782
113.93155 23.858587 18.191252 14
113.90937 24.15119 18.187437 14
113.89629 26.531946 18.135744 14
113.70248 27.018391 18.249752 14
113.96596 27.366096 18.154823 12.681999
113.91412 27.731043 18.198631 13.75
113.83469 23.028969 18.615168 14
113.66523 23.222622 18.721588 14
113.93679 23.861275 18.537598 13.8327
113.87361 24.168936 18.721081 14.0345
113.98788 26.335611 18.454121 14
113.84615 26.480261 18.711048 14
113.66987 26.897335 18.66522 14
113.88448 27.424591 18.441217 13.028666
113.92625 27.785505 18.591331 13
113.97519 22.604553 18.951485 14
113.86549 22.818996 19.065262 14
113.62186 23.364046 18.997532 14
113.79012 26.655725 18.99284 14
113.79362 26.943651 19.008696 13.666667
113.70366 27.342278 18.937328 13.333333
113.76767 27.933617 19.138021 14
113.92195 22.351036 19.526127 14.075251
113.92036 22.570444 19.414993 14.287625
113.75924 22.976633 19.427288 14.377445
113.64163 23.366226 19.401909 14.51575
113.70371 23.651939 19.568138 14
113.92692 26.269417 19.4058 14.333333
113.84256 26.598513 19.37845 14.349667
113.75804 26.886478 19.378157 14.4201
113.68642 27.400515 19.503973 14
113.62434 27.699203 19.556164 14
113.92297 22.663887 19.834049 14.414999
113.8185 23.041544 19.787796 14.597088
113.72478 23.389677 19.850124 14.642858
113.62864 23.603979 19.857391 15
113.81549 24.194355 19.831579 14
113.80852 24.701683 19.726866 13
113.70805 24.964806 19.716908 13.06675
113.68475 25.31212 19.712708 13
113.95323 25.90799 19.919935 14
113.87878 26.280119 19.924627 14
113.81043 26.592207 19.847723 14.368001
113.72691 27.004665 19.822096 14.454545
113.82077 27.521978 19.88784 15.028167
113.81424 27.801044 19.927481 14.816099
113.8639 28.047016 19.893034 14
113.64512 28.56752 19.87075 14
113.64145 28.940495 19.864782 14
113.73151 21.600285 20.193644 13.0605
113.91512 23.068722 20.149693 15
113.82935 23.445797 20.189409 14.9083
113.82368 23.800039 20.198921 15.009875
113.84348 24.139605 20.128082 14.3835
113.95368 25.838152 20.216759 13.666667
113.88515 26.224894 20.197882 14.143875
113.81073 26.640091 20.21316 14.666667
113.68826 27.018362 20.198931 14.75
113.98434 27.495155 20.201109 15
113.91142 27.822208 20.269823 15
113.91807 28.051489 20.330254 15
113.91794 23.060196 20.720713 15
113.76964 23.397007 20.597616 14.658
113.80566 23.849112 20.499395 13.666667
113.8942 24.139317 20.60516 15.0075
113.90326 26.599564 20.524767 14.5
113.7531 26.968561 20.50045 14.625
113.76937 27.364704 20.572109 14.8
113.8886 27.798199 20.559214 15.008501
113.88347 24.143534 20.96328 14.34875
113.73312 24.572895 20.802526 13
113.99923 26.362938 20.906517 15.07325
113.91883 26.588924 20.923149 15
113.76139 26.948481 20.913904 15
113.98185 27.384218 20.942762 14.690834
113.88753 27.79924 20.99222 14.378187
113.82104 23.023846 21.421108 15
113.65994 23.434101 21.370544 15
113.87522 26.240364 21.396322 15
113.73109 26.647949 21.35494 15
113.84466 27.785852 21.487356 13.511499
113.94606 23.852238 21.705975 14.092
113.93793 27.48901 21.785515 13.523
113.90896 27.781612 21.695168 14.01175
113.89172 22.996265 22.232878 15
113.68088 23.394785 22.161554 15
113.91906 26.542397 22.135685 15
113.87253 27.016878 22.083483 14.350334
113.60818 27.336445 22.033796 15
113.93156 27.869568 22.250109 13.0535
113.99009 23.059612 22.624985 15
113.77739 23.479221 22.553993 15
113.86774 26.670216 22.499681 15
113.697 27.072943 22.445683 15
113.74503 27.781437 22.451824 13.537
113.70766 28.32225 22.720398 14.023
113.7864 28.404453 22.592262 14.023
113.83188 24.992609 23.080688 14.75
113.79634 25.363083 23.103224 15
113.63422 25.681057 23.12425 15
113.89432 26.227507 23.018661 15
113.74469 26.676538 22.99337 15
113.8308 27.529209 23.136202 15
113.83613 27.813763 23.06254 15
113.86489 28.131989 22.960447 15
113.89993 24.746475 23.207548 15
113.77723 25.009523 23.241104 15
113.64838 25.307081 23.235449 15
113.89904 26.302431 24.091087 15
113.77157 26.559029 24.092577 15
113.63764 26.93058 24.03793 15
113.64657 27.446527 24.375744 15
113.85005 27.004398 24.442068 15
114.09064 2.161423 4.5487499 9.132
114.20267 26.605289 7.5947547 10
114.11337 27.431955 7.5293603 10
114.34198 27.848707 7.4780993 10
114.30785 28.247759 7.4402614 10.012834
114.28411 26.314356 7.6223531 10
114.1881 26.56514 7.6725245 10.032
114.22264 22.545225 9.1856117 11
114.06134 23.016167 9.1679955 11
114.22285 22.171518 9.3664408 11
114.06691 22.517353 9.3497238 11
114.35675 25.461891 9.4889259 11
114.22373 25.790709 9.4892435 11
114.067 26.150358 9.5065165 11
114.10722 26.433788 9.2055359 11
114.31177 26.285994 9.9338512 11
114.13883 26.72547 9.9413147 10.546
114.04964 27.035635 9.9133883 10.848666
114.05517 27.443396 9.8292799 11
114.27586 22.652514 10.251268 11
114.2362 22.963409 10.332235 11
114.08671 23.32152 10.305685 11
114.05824 23.809235 10.324001 11
114.35328 26.318871 10.147786 11
114.23041 26.610985 10.139853 11
114.07742 27.001999 10.062696 11
114.08916 27.469608 10.097193 11
114.19843 27.710281 10.042152 11.013333
114.3834 21.843708 10.452602 11
114.21428 22.201118 10.533245 11
114.17771 22.637075 10.610182 11.005584
114.17137 22.998755 10.483086 11.011333
114.10929 23.313751 10.451369 11.023833
114.0891 23.856104 10.429196 11
114.07162 25.714993 10.422237 10
114.32909 21.851704 10.871721 10.5
114.17585 22.301203 10.859497 10.6965
114.07678 22.561913 10.843369 10.5
114.35213 23.073378 11.144259 11
114.29459 23.519514 10.892486 10.1745
114.23197 27.261154 11.013801 11
114.03407 28.430756 10.833461 11.091
114.18107 22.797882 11.311002 11.0535
114.22272 26.680231 11.213705 11.0585
114.07919 27.578201 11.406372 10.0205
114.37285 21.751026 11.898317 11.542
114.24355 22.129816 11.941751 12
114.15613 22.554676 11.843222 11.816099
114.04291 23.034735 11.678383 12
114.13454 23.339199 11.890972 11.0925
114.10757 23.611835 11.978958 11.0925
114.38709 25.323193 11.921896 12
114.20148 25.810862 11.891301 11.770375
114.08485 26.078129 11.890547 12
114.22256 26.512121 11.868887 11.26825
114.1655 27.00346 11.855124 11
114.04633 27.462925 11.859534 11
114.35191 28.260389 11.751455 11
114.3627 21.393593 12.266052 11.054
114.29381 22.079836 12.130746 12
114.16098 22.601292 12.103644 11.75
114.20731 23.114796 12.285332 11.091499
114.16938 23.385109 12.028559 11
114.28951 24.297176 12.27063 11.064
114.2672 24.947021 12.285656 11.057751
114.24031 25.415529 12.133088 11.509833
114.21262 25.845316 12.147748 12.007857
114.12359 26.217211 12.200822 11.714286
114.22766 26.593676 12.217743 11.437072
114.0993 26.972206 12.178624 11.4
114.07365 27.432278 12.155279 11.4
114.17538 27.768255 12.12588 11.0925
114.28757 28.328167 12.231737 12.028
114.24094 22.169376 12.763986 12
114.2361 22.575871 12.72494 12
114.1582 22.949131 12.58842 12
114.06327 23.435167 12.758055 12
114.3325 26.273443 12.662086 12
114.24126 26.595955 12.667961 12
114.08241 26.957108 12.617719 12
114.12604 27.679684 12.632042 12
114.32864 21.981579 13.005204 12
114.31805 22.682436 13.030571 12
114.19843 23.052002 12.971216 12
114.07915 23.40872 12.915617 12
114.02773 23.854141 12.848082 12
114.23514 25.568005 13.139157 12
114.12167 25.846996 13.116096 12
114.35498 26.302637 12.909494 12
114.22191 26.601885 12.919368 12
114.07259 26.974306 12.863248 12.012
114.20062 19.12693 13.551405 11.16
114.33752 19.604881 13.556286 11.149
114.19453 22.23131 13.286413 12
114.20205 22.709963 13.459796 12.022667
114.16158 23.007486 13.222466 12
114.04687 23.476551 13.298461 12.034
114.30442 23.951756 13.390417 11
114.10104 24.182571 13.304627 11.5
114.02803 24.603579 13.364883 11
114.38196 24.844833 13.580037 12.09
114.27812 25.411615 13.411044 11.75
114.10683 25.866364 13.412229 12
114.00262 26.114742 13.516024 12
114.38519 21.418049 13.932542 13
114.16972 21.72172 13.920898 12.03325
114.16286 22.222406 13.793298 12.164357
114.18363 22.624619 13.882519 11.833333
114.03658 22.889858 13.863659 12
114.20365 23.237164 13.955769 11
114.14798 23.66264 13.907831 11.5
114.36107 24.369328 13.839151 13
114.30215 24.984699 13.660859 11
114.27897 25.440802 13.785812 12
114.17273 25.862982 13.768327 12
114.05128 26.235558 13.735523 12
114.2122 26.582682 13.886786 12
114.20863 27.077396 13.970392 12
114.04192 27.888168 13.926943 12
114.24054 18.572716 14.085976 11.173
114.28223 19.950422 14.299875 11.072
114.11213 20.486298 14.231842 11.073
114.39661 21.488894 14.169872 11
114.32197 21.814215 14.165623 11
114.18094 22.136951 14.151796 11
114.14685 22.548899 14.206291 12.333333
114.22478 23.426346 14.120297 11.543625
114.24523 23.797304 14.288757 11.040666
114.15122 24.047073 14.234218 11.043834
114.3582 25.406717 14.102769 12
114.21852 25.837732 14.124889 12.166667
114.12315 26.156836 14.155724 12.333333
114.08752 26.500851 14.296994 13
114.32145 18.879869 14.407088 11.176
114.22872 19.905529 14.601457 11.042
114.32804 21.913898 14.554046 13
114.21277 22.217566 14.634487 13
114.07934 22.555248 14.617695 13
114.22364 23.428244 14.509418 11.0275
114.16058 23.807003 14.489028 11.030251
114.12187 24.147881 14.405271 11
114.09985 24.519419 14.483988 11.0655
114.35799 25.392237 14.692947 13
114.19084 25.821018 14.696305 12.888889
114.03883 26.199633 14.642138 12.8
114.05139 27.281368 14.78998 12
114.184 28.456074 14.780185 13.028
114.2824 22.21307 15.039314 13
114.21719 22.615353 15.043696 12.8
114.163 22.922506 15.129278 13
114.05717 23.344879 15.117272 13
114.01655 23.965313 15.069556 13
114.35878 25.492447 14.914258 13
114.23527 25.809601 14.914226 13
114.1076 26.221931 14.95164 12.9
114.25467 26.62553 15.018761 12.714286
114.11785 26.987223 15.021049 12.75
114.03002 27.290792 15.03362 12.5
114.10241 27.815739 15.106394 13
114.36011 28.276894 14.900316 12.5
114.31734 28.654955 14.969481 12.5
114.35514 22.672371 15.37634 13
114.24929 23.003942 15.452769 13
114.0906 23.406601 15.428784 13
114.01049 23.649035 15.339736 13
114.09949 24.214787 15.549812 13.019
114.23972 25.852457 15.442211 12.5385
114.2541 26.329908 15.405202 13
114.25772 26.580244 15.393721 12.75365
114.11147 26.997854 15.346821 12.692307
114.00802 27.265648 15.360906 12.678666
114.07797 27.805288 15.38807 13
114.28365 21.956585 15.663605 13
114.17499 22.201426 15.811615 13
114.23575 22.626091 15.678248 13
114.2411 22.981972 15.789906 13
114.08661 23.343313 15.727843 13
114.00347 23.848581 15.835755 13
114.02912 24.193411 15.987454 13
114.34206 25.383455 15.781219 13
114.27757 25.801083 15.752443 12.5
114.2242 26.151232 15.755731 12.678333
114.24137 26.668236 15.764337 13.023334
114.18974 26.94158 15.658049 13
114.07561 27.71196 15.644022 11.0205
114.23952 21.869858 16.276817 13
114.17192 22.36731 16.283018 13.011001
114.26421 22.872166 16.161131 13.034
114.38302 25.152025 16.344608 13
114.31561 25.390285 16.224724 13
114.15244 25.832493 16.211647 13
114.00333 26.332167 16.348646 13
114.39267 21.495464 16.748064 14
114.25785 21.851957 16.692503 13.698001
114.12299 22.22591 16.617168 13.185857
114.07943 22.548595 16.630699 13
114.34994 23.517162 16.584702 12
114.19543 23.83782 16.56321 12
114.10272 24.154461 16.552853 12
114.29491 24.441109 16.641562 14
114.22294 25.458725 16.631723 13.274375
114.12355 25.829144 16.587467 13.449301
114.22723 26.090769 16.716911 13
114.06557 26.512829 16.705027 13
114.16283 19.052723 16.800426 12.16
114.33095 21.881706 17.020174 13.571428
114.19283 22.235332 16.959253 13.2
114.08785 22.576736 17.017597 13.375
114.12829 22.926281 16.901978 12.5
114.17124 23.311247 17.132324 12.5
114.15446 23.663719 17.02306 13
114.36727 24.595558 16.925499 12
114.29574 25.023285 16.909107 12.5
114.27041 25.415382 16.957726 13
114.1213 25.810528 17.012276 13.125
114.16607 26.107304 17.039061 13.6168
114.13622 26.659122 17.106752 14
114.31299 26.835129 16.982985 13
114.13895 27.289791 16.940586 13
114.38787 21.401661 17.50061 12
114.33631 21.778629 17.35013 13.5
114.16627 22.246691 17.359741 13.622231
114.1767 22.640505 17.345966 13.2985
114.2158 23.049501 17.339449 12.666667
114.11845 23.334438 17.367893 13
114.11018 23.67964 17.495558 12
114.32461 25.46744 17.439909 13.9
114.18908 25.83235 17.343517 13.4
114.11144 26.195787 17.396412 13.675556
114.23028 26.666817 17.532625 14
114.06673 27.040623 17.460709 14
114.00186 27.26683 17.469561 14
114.34116 28.165178 17.429291 14
114.26737 28.500528 17.480955 14
114.35317 21.996132 17.924263 14
114.31565 22.306398 17.765097 14.026166
114.25475 22.656164 17.83375 14
114.20289 23.032215 17.73875 13.714286
114.14169 23.414915 17.775513 13.346222
114.06238 23.745865 17.85272 12.852333
114.01804 24.120491 17.609154 12
114.34571 25.578529 17.822325 13.666667
114.22666 25.877983 17.714014 14
114.08077 26.23307 17.776188 13.75
114.32865 26.59552 17.875214 13.775077
114.15789 27.010475 17.829666 13.833333
114.03465 27.315115 17.797203 13.888889
114.104 27.927387 17.813732 14
114.30495 28.132421 17.818642 13.75
114.30218 28.61418 17.78104 13.9
114.21199 28.942249 17.836096 13.5385
114.36483 22.749454 18.16514 14
114.30111 22.978737 18.184917 13.7
114.15308 23.359821 18.104986 13.727273
114.02999 23.652264 18.282867 14
114.24998 25.830345 18.16571 14
114.07629 26.179415 18.120829 14.0735
114.31263 26.609158 18.161644 13.875
114.1749 26.935944 18.131182 13.888889
114.02367 27.325768 18.231848 14.012
114.11918 27.85788 18.150299 14
114.00092 28.030321 18.245361 14
114.19297 28.650709 18.03796 13.547
114.26283 22.008835 18.585297 14
114.06428 22.547337 18.527632 14
114.26421 22.99365 18.517967 14
114.09249 23.382647 18.525356 13.8183
114.0071 23.946175 18.58396 14
114.04813 24.282 18.788721 14
114.26447 25.798996 18.500376 13.666667
114.00973 26.0751 18.754225 14
114.34327 26.512718 18.611658 13
114.16065 26.954958 18.512012 13.511666
114.08373 27.224682 18.460976 13
114.08643 27.897926 18.638441 12.026
114.15389 22.247269 18.959223 14.037374
114.26052 22.946304 19.056656 13.562
114.24004 23.248165 18.85187 14.0345
114.33658 25.372551 18.938627 14
114.18782 25.690216 19.096252 14
114.17789 26.140295 19.01123 13.333333
114.02914 26.615717 18.929092 13
114.0904 27.652885 19.102203 12.0235
114.25482 21.883209 19.471605 14.333333
114.1411 22.195293 19.458786 14.260201
114.14491 22.517138 19.413969 14.367167
114.01189 22.945625 19.43297 15.099
114.30063 25.36067 19.467215 14.699166
114.14806 25.780891 19.414597 14.374416
114.08353 26.020138 19.337173 14.5
114.07439 26.472878 19.496586 14.5515
114.35003 21.589773 19.669363 14.698667
114.29131 21.937347 19.828068 15.0235
114.20009 22.19486 19.829016 14.5
114.10603 22.557291 19.805655 14.571428
114.08158 22.936829 19.774233 14
114.28927 23.415245 19.806574 13
114.18675 23.733501 19.79006 13
114.32445 25.426188 19.830889 14.666667
114.17138 25.831911 19.81609 14.2
114.13115 26.188334 19.838917 14.514
114.14849 26.636154 19.835745 14.5
114.08514 26.936039 19.947538 15
114.122 27.385666 19.961727 14
114.38324 21.749641 20.086847 15
114.25996 22.192213 20.137693 14.5
114.09167 22.622499 20.177797 14.5
114.12457 23.01313 20.254627 14.666667
114.09081 23.462025 20.33378 15
114.14155 23.745564 20.036024 14
114.33009 24.52161 20.221455 13
114.24094 25.051311 20.122377 13.5
114.32112 25.487051 20.031258 14.5
114.20111 25.807219 20.167717 14.764706
114.16772 26.258965 20.201 15
114.23093 26.474468 20.20512 15.02
114.17922 27.002504 20.188261 14.875
114.04516 27.399618 20.327866 15
114.01621 28.084179 20.299862 15
114.30669 28.635597 20.289175 15
114.20078 22.297552 20.674006 14.089
114.23943 22.594975 20.562597 14.428572
114.22749 23.025938 20.57852 14.514916
114.21773 23.362589 20.686945 15
114.07585 23.754517 20.632339 15.006917
114.36189 25.364872 20.569841 14
114.24148 25.776707 20.540236 14.444445
114.09765 26.194775 20.574036 14.666667
114.35046 26.659899 20.593622 15.009501
114.22576 26.97835 20.575367 15
114.08056 27.337734 20.575411 15
114.03872 27.986025 20.594257 15
114.10082 28.030148 20.568691 15
114.15865 29.234596 20.526377 15.077
114.33109 22.20656 20.850258 15
114.29198 23.158875 20.953051 14
114.18478 23.394497 21.042063 14.547231
114.0686 23.766544 20.948051 14.571428
114.15888 26.233292 20.974226 15.049167
114.32948 26.595409 20.967592 14.714286
114.166 26.968822 20.950531 14.6
114.05892 27.385736 20.976517 14.759
114.12916 27.94355 20.947952 14.341166
114.1111 28.155031 21.063314 14.666667
114.28944 28.607841 21.023579 14
114.22218 28.900064 20.998787 14
114.36143 21.785873 21.591782 15
114.22003 22.201504 21.544746 15
114.02655 22.613974 21.484203 15
114.33488 23.03912 21.322142 14.8
114.18098 23.449572 21.380487 14.333333
114.32732 25.152439 21.527933 15
114.24456 25.413532 21.50292 15
114.05314 25.827152 21.447525 15
114.37962 26.48381 21.3647 14
114.22785 26.904165 21.316856 14
114.0452 27.358166 21.261326 14
114.04632 27.921774 21.464487 13.52375
114.11593 23.367933 21.885036 14.0915
114.32168 26.588943 21.755978 14
114.13044 27.042822 21.697575 14
114.03812 27.347885 21.719032 14
114.12524 28.131935 21.977257 13.0595
114.31583 21.766903 22.394705 15
114.25808 22.039581 22.36825 15
114.00044 22.590782 22.277155 15
114.25879 25.752876 22.247585 15
114.08536 26.158417 22.190077 15
114.12113 26.865379 22.229519 14.026
114.20462 22.533226 22.700611 15
114.04818 26.267159 22.556852 15
114.07299 28.035873 22.664688 13.026
114.36168 23.583899 23.173893 15
114.29308 23.770145 23.18203 15
114.15723 24.149351 23.17909 15
114.14452 24.689337 23.164495 15
114.13626 25.037369 23.186661 15
114.18362 25.77076 23.026028 14.51125
114.20847 26.114277 23.028778 15
114.03162 27.317188 23.158445 15
114.31449 23.812416 23.219032 15
114.05051 24.39057 23.245811 15
114.01675 24.481716 23.212482 15
114.38248 29.028116 23.215448 15.1525
114.36185 25.123974 24.310673 15
114.22047 25.522739 24.228634 15
114.04008 25.937996 24.169376 15
114.00571 26.71563 24.492048 15
114.42494 0.70672792 2.6167846 8.1424999
114.7253 1.8988147 3.829047 8.0299997
114.78981 2.0898547 3.8371429 8.0314999
114.43972 27.602957 7.4870934 10
114.49186 22.137211 7.9988918 10.034
114.57822 25.754629 7.7286119 10.0175
114.42269 26.090858 7.6754875 10
114.73561 23.685862 8.6852417 10.057
114.72011 19.942039 9.0946074 10.059
114.79845 23.354057 9.017767 10.06
114.4986 25.674332 9.1523972 9.0019999
114.51627 25.065819 9.4888258 11
114.42701 25.31601 9.5499992 11
114.42622 25.942543 9.9100275 11
114.79638 29.508774 9.6194334 11
114.75145 29.668991 9.6760321 11
114.70058 21.77667 10.323862 11
114.52828 22.162161 10.32856 11
114.42529 22.455738 10.343779 11
114.57607 23.997408 10.305713 11
114.59538 24.017138 10.327843 11
114.7175 25.435011 10.254365 11
114.56468 25.823364 10.220325 11.002001
114.43088 26.152376 10.168781 11
114.65851 27.822706 10.080125 11.027667
114.63711 21.115656 10.727631 11
114.61635 21.446566 10.706065 11
114.70206 21.795391 10.548786 11
114.50542 22.243212 10.502004 11.0068
114.42234 22.500551 10.545745 11.0069
114.53624 23.437796 10.581018 10.0525
114.46455 23.932665 10.615051 10.527
114.72807 20.962502 10.816276 11
114.55544 21.25177 10.882515 10
114.45419 21.65959 10.94074 11.044001
114.42307 22.182489 10.957102 11.089
114.51137 22.654783 11.17716 11
114.40969 19.92235 11.414595 10.042
114.67717 22.111454 11.367443 11.0275
114.64079 22.968479 11.348303 10.0215
114.53078 23.370403 11.268835 10
114.6193 23.804962 11.379394 10.1795
114.55743 25.506195 11.368821 11.056
114.56933 21.756207 11.901429 11.0515
114.51312 23.981974 11.750545 10.1795
114.55698 25.352625 11.855084 11.06475
114.42426 25.698158 11.681509 11.0515
114.42764 26.31278 11.823021 11
114.47904 27.822273 11.781488 11
114.67402 20.327948 12.226626 11.056
114.79755 21.473724 12.378286 11.091
114.78375 21.777023 12.257836 11.04575
114.66624 22.184608 12.129578 11
114.50382 22.58128 12.066409 11
114.70412 23.396751 12.259254 10.00075
114.72397 23.755535 12.161402 11.057
114.54166 25.051895 12.080336 12
114.40163 25.300262 12.059026 12
114.51228 25.799191 12.259079 11.2137
114.48223 26.144407 12.173125 11
114.68766 27.712629 12.110085 11.093
114.79807 29.533493 12.304011 12
114.76546 29.678902 12.338586 12
114.77042 19.264111 12.440751 11.0625
114.78474 21.489891 12.715919 12
114.64066 21.843506 12.739982 12
114.56357 22.099373 12.710755 12
114.48537 22.64806 12.478649 11.0905
114.74104 25.054638 12.485128 12
114.67298 25.390419 12.623638 12
114.57597 25.74201 12.674283 12
114.44361 26.127123 12.670833 12
114.69093 21.814491 13.023942 12
114.5808 22.214582 13.039019 12
114.44203 22.525585 12.976501 12
114.42902 25.149895 13.177921 12
114.73329 25.412777 12.951273 12.00355
114.56609 25.795326 12.887438 12
114.48498 26.026192 12.931561 12.0072
114.78522 21.571297 13.426449 12
114.61509 22.135498 13.261794 12.0355
114.58924 23.153698 13.414801 11
114.40859 23.633799 13.398694 11
114.59447 24.205307 13.267197 12.0175
114.62888 24.730621 13.217999 12
114.49676 24.95723 13.366435 12
114.62717 20.948727 13.861935 12.5
114.55906 21.308168 13.880865 12
114.55215 21.759148 13.993538 12
114.6589 22.059731 13.821045 11
114.49838 23.074963 13.940085 12
114.669 24.070248 13.690612 11
114.60838 24.682993 13.837555 12
114.50729 25.036364 13.81434 12.166667
114.41324 25.229277 13.78827 12
114.59663 19.191086 14.315879 11.076
114.67413 20.043388 14.03813 11.066
114.7871 20.562126 14.120692 12
114.63109 20.997215 14.259019 11.666667
114.57578 21.454723 14.189985 12.5
114.7446 21.831024 14.036549 11
114.63893 22.148796 14.020483 11
114.58524 22.531168 14.160903 11.51925
114.48735 23.075571 14.21208 11
114.46626 23.404507 14.177641 11.0515
114.5423 24.99003 14.142697 12
114.4792 25.263214 14.187373 12
114.65688 25.766958 14.184979 12.333333
114.50375 26.33497 14.034184 12
114.46453 20.406738 14.721695 11.1785
114.75619 21.363808 14.576948 12
114.62589 21.722448 14.580955 12.013625
114.47717 22.12608 14.572123 12.030001
114.54563 22.630562 14.564762 11.051
114.75863 22.887537 14.555589 11.065
114.48817 23.357613 14.597769 11.067
114.56962 23.748066 14.77603 11.1795
114.72505 25.005962 14.590881 12.5
114.52269 25.438459 14.545513 12.5
114.55962 29.752777 14.6194 13.143
114.44988 21.898796 14.940893 13
114.60941 22.530945 15.095159 12
114.4 22.815292 15.05011 12
114.63078 25.050566 15.026512 13
114.63881 25.458483 15.039181 12.625
114.539 25.825388 15.043621 12.5
114.4482 26.226341 15.021828 12.333333
114.49866 27.916233 15.04779 12.75
114.47646 28.06889 15.091526 13
114.58656 28.654457 15.049192 12.8
114.74532 28.823357 15.137315 13
114.76479 29.549215 15.034202 13
114.75601 21.577049 15.375499 13
114.6777 21.862644 15.422115 13
114.56934 22.202066 15.480396 13
114.45365 22.51774 15.47716 13
114.65133 24.799757 15.371499 12.081
114.74904 25.475355 15.430821 12.777778
114.60273 25.833391 15.410327 12.777778
114.46042 26.186296 15.383101 12.875
114.63857 27.832447 15.314558 12.093
114.73235 29.729553 15.2403 13
114.72237 21.786306 15.748076 13
114.61041 22.167681 15.753756 13
114.47301 22.529411 15.716013 13
114.6532 24.784796 15.682088 13
114.66443 24.9877 15.718973 12.5
114.71364 25.41169 15.679956 12.8
114.56082 25.713432 15.741427 12.77575
114.45035 26.128468 15.662876 13.018
114.7441 29.484898 15.894761 13
114.79091 21.476215 16.035837 13
114.75011 21.80529 16.114235 13.0115
114.63734 22.164286 16.075762 13.035
114.44937 22.445316 16.234711 13.034
114.56271 24.768862 16.283741 13
114.77789 29.447514 16.172909 13
114.75274 20.596437 16.793312 13.1505
114.61829 20.955446 16.767248 13
114.51767 21.406031 16.681187 13
114.69353 22.571308 16.62907 12
114.54645 23.043663 16.61112 12
114.63067 24.751373 16.61462 13.5
114.45581 25.1098 16.593407 13.333333
114.48016 25.40052 16.756458 13
114.40766 25.687107 16.792143 13
114.50633 28.285551 16.61484 14
114.73413 20.606106 16.90781 14.04675
114.68249 20.987076 17.049656 13.75
114.54362 21.379717 17.006454 13.2495
114.49589 21.737837 16.958601 13
114.6558 22.08326 17.126518 12.5
114.57225 22.602564 17.005268 12.575
114.45167 22.827744 17.104256 13
114.77104 23.664009 16.973343 12
114.52485 24.141092 16.881737 13.0485
114.58625 24.52618 16.815647 14.095
114.59921 25.002974 16.886751 13
114.51983 25.410515 16.821232 13
114.72065 25.853453 17.082624 13
114.52188 26.287495 17.034622 13
114.43387 26.570461 17.011753 13
114.7521 20.606121 17.399609 13
114.66392 21.026892 17.393337 13.666667
114.59189 21.489336 17.352787 13.6
114.61343 21.858006 17.367422 13
114.57499 22.132208 17.448809 13.520625
114.52884 22.556646 17.562963 12
114.52022 25.033546 17.371866 13
114.51383 25.333801 17.339603 13.5
114.44219 25.887596 17.391171 14
114.79797 20.988974 17.887068 12
114.65614 21.440445 17.890499 13
114.60839 21.782093 17.898203 13.5
114.61552 22.197174 17.858833 13.345082
114.50791 22.620592 17.772463 12.692333
114.5232 22.828739 17.717731 12
114.59527 24.255524 17.715893 14
114.64153 24.932808 17.924812 14
114.65643 25.378931 17.800196 14
114.64812 25.75275 17.842365 14
114.49714 26.180002 17.864994 13.875
114.41232 26.465778 17.849936 14
114.51179 28.168139 17.919172 13.839917
114.77694 21.906025 18.261322 14
114.59644 22.266083 18.19985 13.788
114.46095 22.610361 18.195368 13.897167
114.76282 25.549141 18.182659 13.833333
114.66323 25.793827 18.171291 13.785714
114.4836 26.205128 18.151897 13.818182
114.73257 21.932386 18.685747 13.697166
114.65018 22.246025 18.558918 14.0071
114.52434 22.556017 18.481277 14
114.55449 24.979649 18.601423 14
114.65268 25.527296 18.50786 13.333333
114.65134 25.777714 18.640295 13.7675
114.50428 26.145519 18.58814 13.4142
114.41254 26.574265 18.500402 14
114.69607 22.159901 18.912092 14.03475
114.58617 23.895142 19.091122 12.0505
114.69733 25.076149 19.119253 13
114.6918 25.434723 18.964451 13
114.54783 25.738403 18.924465 13
114.40521 26.128073 18.900394 14.034
114.75417 29.549059 18.900036 14
114.55296 21.389944 19.530865 14
114.44891 21.66193 19.495201 14
114.73112 22.000845 19.231459 14.0335
114.40376 22.473934 19.257441 14.033
114.70124 24.580254 19.498644 14.333333
114.48238 24.94356 19.476089 14.5
114.45719 25.421734 19.440998 14.55
114.75299 28.389397 19.552963 15
114.76721 20.588024 19.758726 14.07475
114.69203 21.091097 19.902889 14.8
114.60638 21.426952 19.887165 15.014428
114.46664 21.774452 19.880411 14.666667
114.63849 22.61787 19.868748 13
114.43362 23.093765 19.832239 13
114.43516 24.207432 19.609133 15.097
114.56516 24.600126 19.650589 15.095
114.60874 25.005507 19.781219 14
114.55385 25.364067 19.786032 14
114.40119 25.779476 19.774343 14
114.76138 21.003756 20.146461 14.833333
114.58908 21.413288 20.208912 14.666667
114.52335 21.750217 20.250015 14.565445
114.59632 22.222542 20.23995 14.694167
114.50231 22.535667 20.172588 14.05
114.40654 23.052832 20.115343 14
114.73195 23.57333 20.281487 13
114.57529 24.167366 20.320292 14
114.6542 24.473989 20.380783 15
114.41469 25.191912 20.07552 14
114.64175 25.395231 20.251202 15
114.6109 25.794794 20.239592 14.833333
114.53427 26.187172 20.137911 14.5
114.4217 26.569149 20.22035 14.5
114.6319 28.164129 20.248388 15
114.47372 28.619146 20.297688 15.0445
114.6506 29.326056 20.172684 15.095
114.78575 21.144102 20.54982 13
114.72095 21.40707 20.646378 14
114.61185 21.836067 20.58923 14.333333
114.51326 22.193562 20.523079 15
114.50293 22.53125 20.561253 15.019625
114.44028 22.950722 20.782761 15
114.70002 24.399738 20.475786 15
114.49386 25.054174 20.602928 14
114.41666 25.420843 20.704432 14
114.71432 25.792452 20.654364 15
114.55913 26.195772 20.608662 15
114.42747 26.494915 20.588638 15
114.57463 28.205969 20.448086 15
114.66749 21.906767 20.97596 14.333333
114.70414 22.250616 21.018047 14.666667
114.52046 22.61055 20.994818 14.734045
114.43374 22.880335 20.993843 14.6
114.60609 25.010063 20.865763 15
114.68449 25.371428 21.001343 15
114.68969 25.804749 21.042202 14.777778
114.53028 26.17709 21.016855 14.807199
114.7523 29.828653 20.907185 15.145
114.78219 21.694567 21.21743 13.0425
114.68214 22.18087 21.302588 15.014099
114.51208 22.596252 21.386425 14.046
114.797 24.587837 21.246588 14
114.78493 25.358307 21.240078 14.5
114.75744 25.607555 21.4807 14
114.56171 26.049835 21.42065 14
114.77937 22.000364 21.965805 14
114.76054 25.524458 21.946608 14
114.63563 25.838833 21.853298 14
114.49081 26.209049 21.80756 14
114.69395 24.70155 22.395435 15
114.55151 25.106457 22.344822 15
114.42643 25.373178 22.303339 15
114.6042 28.284828 22.254589 13.056
114.5154 21.498758 22.459892 15
114.65547 22.964127 23.170006 15
114.49893 23.367043 23.176846 15
114.59921 25.402927 23.099768 15.1505
114.68125 25.608803 23.0744 15.1505
114.7136 28.73666 22.897284 15
114.68219 29.030807 22.888426 15
114.69958 29.33078 22.893192 15
114.53066 23.379391 23.242361 15
114.6319 24.505026 23.244287 15
114.79122 24.816877 23.242674 15.1505
114.69576 24.344212 24.35553 15
114.58479 24.650379 24.351078 15
114.41369 25.033539 24.260551 15
114.67995 24.404465 24.418289 15
114.81326 2.3842731 2.1069865 8.1315002
115.11566 3.4564562 2.1665511 8.1344995
115.01935 3.6141717 2.1509204 8.1344995
115.16948 2.4321756 4.7197742 9.1335001
115.18181 29.073524 8.6129522 10
115.14112 29.476011 8.6706734 10
115.02718 29.79491 8.6537809 10
114.98973 29.066055 9.5031099 11
114.96783 29.394421 9.5066595 11
115.02908 29.091616 9.734005 11
114.88428 29.376154 9.7204046 11
115.03986 24.224453 10.334601 11
115.06355 24.63891 10.323375 11
114.89496 25.037897 10.286425 11
114.8221 25.244915 10.290691 11
114.98851 27.83588 10.12076 11.0041
114.84455 20.531435 10.770588 11
114.99197 20.974466 10.654801 11.007601
114.90906 21.388363 10.630406 11.007889
114.8064 21.615858 10.48196 11
115.08554 24.231667 10.476203 11
115.09042 24.549839 10.427256 11
114.82063 25.252354 10.487644 11.0355
115.18498 19.932077 11.032751 11
115.10534 20.121744 11.047113 11.079
115.18909 20.417398 10.802909 11.0885
114.87636 21.353523 10.844295 11.0335
115.11373 28.797808 11.0877 11
115.07581 21.364044 11.289558 11
114.90353 21.787109 11.254022 11
115.16462 29.015217 11.980062 11.039
115.12959 29.492628 11.968504 11
115.04493 29.836258 11.951965 11
115.06829 20.27828 12.193532 12
114.91451 22.658398 12.38384 11.0635
114.84137 25.343353 12.246665 11
114.99655 29.098955 12.273424 12
114.93859 29.363817 12.262203 11.777778
114.98493 29.92337 12.169898 11
115.09021 21.029354 12.451999 11
114.9303 21.462023 12.568375 11.3635
114.80127 23.426674 12.483308 11.06
115.15242 24.135159 12.631875 12
115.00011 24.534904 12.627191 12
114.87986 24.932125 12.641302 12
114.83279 25.233646 12.778728 12
114.92274 29.382648 12.47829 12.0578
114.99864 21.078463 12.973558 12
114.89039 21.447594 13.072182 12
114.86546 21.658081 13.119264 12
115.18155 24.332285 12.989537 12
115.07673 24.597721 12.9712 12
114.91898 24.983406 12.930553 12
115.02442 28.732744 12.986468 12
114.97081 29.161034 12.972425 12
114.89245 29.390512 13.195878 12
115.02184 21.157719 13.285122 12
114.90788 21.407476 13.278883 12
114.84558 21.618223 13.312214 12
114.814 22.684681 13.437688 11
115.06673 24.259348 13.27068 12.008625
115.12595 24.492447 13.263875 12
114.89097 25.017529 13.264511 12.035
114.99953 28.773109 13.3922 12
114.9775 28.976295 13.213821 12
114.93288 29.208776 13.376655 12
114.8856 20.591265 13.78512 12
114.93052 21.441326 13.863569 11
115.01516 23.083885 13.716985 11
114.93899 23.420292 13.713779 11
114.80421 23.753746 13.702352 11
114.90076 24.47398 13.960941 12
115.1709 28.8808 13.667934 12
115.16525 19.541111 14.19402 12
115.10436 19.842178 14.182878 12
115.00996 20.146757 14.120251 12
114.86468 21.865973 14.213533 12
114.90581 22.244261 14.222199 11.351167
115.18259 24.522303 14.187851 12
115.07867 24.953453 14.159962 12
114.89278 29.130219 14.315502 13.0885
115.17579 19.914965 14.650898 13.0277
115.03624 20.224009 14.65185 13
114.9605 20.551006 14.615897 12.6
114.89605 20.995256 14.608607 12
114.90972 22.188614 14.440187 11.0605
114.9445 24.587666 14.515911 13
115.17284 19.949848 14.809139 13
115.10133 20.22998 14.894138 13
114.96053 20.538845 14.882682 13
115.17966 24.384287 15.068513 12
115.01778 24.630802 15.118679 12.6
114.91546 25.027643 15.121819 12.5
114.81535 25.359928 15.152901 12
115.16113 28.588839 15.074374 13.092
114.98759 29.094616 14.917872 13
114.86824 29.310762 15.04122 13
115.15578 20.146149 15.241047 13
114.97231 21.181843 15.446302 13
114.85052 21.368622 15.446532 13
115.16015 24.250528 15.30439 12.75
115.1046 24.611265 15.45182 12.75
114.9553 24.994558 15.469933 12.785714
114.82795 25.308458 15.431187 12.714286
115.02024 29.428747 15.326811 12.333333
115.11021 20.016623 15.87497 13
115.04585 21.141792 15.609026 12
114.93098 21.438881 15.816675 13
114.85728 21.627844 15.781955 13
115.1983 24.390154 15.729511 13
115.09591 24.59737 15.726947 12.727273
114.94125 24.983269 15.710949 13.005214
114.81342 25.30864 15.616269 13
115.14296 28.764252 15.734067 13
114.96512 29.059875 15.819721 13
115.02583 29.275377 15.806901 12.5
115.01795 29.82374 15.659317 12
114.9021 21.338024 16.121355 13
115.15832 23.994253 16.250656 13.034
114.91758 24.390472 16.062511 13
114.92509 25.046831 16.067335 13.023
115.08742 28.620581 16.239521 13
114.95207 29.036884 16.209856 13
114.81883 29.268303 16.385983 13
115.17886 19.593433 16.576185 13.1495
115.11065 19.704473 16.687277 13.1495
114.83482 20.445278 16.646809 13.14925
115.02513 21.068571 16.506496 13.01675
114.80633 21.583729 16.43321 13.0335
114.98836 21.920969 16.670908 12
114.83565 22.247105 16.64897 12
114.83413 24.353228 16.57716 13
115.1067 28.741978 16.748745 14.0945
114.9596 28.887886 16.557236 13
114.89211 29.224796 16.681774 13
114.9884 19.936409 16.973232 13.748166
114.99252 20.242664 17.045202 13.571428
114.84204 20.649313 16.992937 13.666667
114.87968 21.110233 17.13089 12
114.87157 23.329037 16.982998 12
114.86266 24.517212 16.885777 13
115.06779 25.042124 17.168766 13
114.91517 25.446632 17.12961 13
114.95954 29.269875 17.181572 14.0885
115.11964 19.455339 17.595707 12
115.13934 19.895405 17.406639 13.666667
115.05805 20.207891 17.412617 13.866667
114.9304 20.612293 17.406002 14
114.88637 21.191967 17.356663 12
114.85932 21.202269 17.508749 14
114.9474 24.721302 17.356936 14
114.84976 24.940695 17.415941 14.054334
115.17589 28.642679 17.529287 13.091
114.81668 28.963928 17.382679 14.081
115.00201 20.511562 17.916988 12
114.97874 20.942923 17.81953 14.053333
114.86121 21.349442 17.976555 14
114.89395 21.865675 17.799385 12
114.991 24.635521 17.804266 14
114.92649 24.977755 17.818823 14
114.8628 25.248413 17.857563 14
115.18278 26.65691 17.943495 12.074
115.14764 20.211222 18.157022 14
114.8996 21.501865 18.189964 14
114.8999 21.638464 18.292881 14
115.10484 24.689405 18.201025 13.727273
115.01227 24.978468 18.222023 13.777778
114.87911 25.29118 18.181896 13.862535
115.14059 28.650906 18.00527 14.092
114.9617 21.412645 18.686729 13.666667
114.87463 21.709101 18.619261 14
115.12951 24.645351 18.586205 13.571428
115.01502 24.967964 18.510439 13.839417
114.84171 25.262325 18.648937 13
115.18381 28.536768 18.718399 14
115.07607 28.81081 18.692564 14
114.82992 29.618032 18.534748 14.1485
115.02814 20.069311 18.81176 14
114.91036 21.518433 18.922813 14
114.88133 21.754114 18.977371 14
114.97367 24.064552 18.930189 12.053
115.08801 24.689478 18.996025 13.508625
114.99924 25.027479 18.872 13.333333
114.88027 25.207977 18.911011 14.0345
114.89672 29.002083 18.935493 14
114.85895 29.286968 18.925415 14
115.08099 19.765699 19.485088 14.1495
114.95618 20.278774 19.321268 14.149
114.82647 20.540798 19.519316 14.149
115.03923 21.223042 19.351408 14
114.89437 21.609213 19.201084 14.034
115.00815 24.260317 19.532671 12.024501
115.01359 24.449589 19.502386 13.025
115.08165 28.634138 19.520224 14
114.91835 28.923912 19.362587 14
114.85111 29.349648 19.34573 14
115.12016 19.792309 19.781796 14.716416
115.03594 20.19693 19.849768 14.926945
114.90261 20.564184 19.873781 15
114.84329 20.846697 19.960266 15
114.95361 21.816311 19.924784 13
114.83334 22.140453 19.903498 13
115.18987 22.899275 19.815397 14
114.83868 24.619362 19.855482 14
115.09975 28.692394 19.730211 15.0965
115.01133 28.905643 19.722107 14.54725
114.90268 29.437321 19.75651 14.275375
115.09718 20.264109 20.161011 14.826319
114.99361 20.562162 20.206247 14.8177
114.84143 20.855988 20.147215 15
114.93384 24.998611 20.259304 14.790751
114.91185 25.336512 20.253042 14.333333
115.10075 20.583639 20.544159 15
115.04242 20.941952 20.627556 15.009799
114.90339 21.363678 20.67454 15.026
114.8283 21.789631 20.697449 15
115.08502 24.613974 20.565666 15
114.99731 24.999182 20.632565 15
114.87808 25.419559 20.639584 15
114.86823 28.23456 20.683218 15
115.10368 29.137613 20.736132 14.0915
114.82624 29.547302 20.790855 15.1445
115.1292 19.998459 21.125397 15
114.91284 21.691103 21.009766 15
114.82729 22.000736 21.006094 15
115.15516 24.665518 21.002304 15
115.01699 24.981138 21.01594 15
114.87856 25.381851 20.956175 15.008389
114.80616 25.675085 20.93405 15
115.16228 26.731804 20.858624 13.045
115.05816 28.270557 20.894875 15
115.1395 28.502005 20.834131 15.0395
115.19643 21.04954 21.46966 14.0915
115.02969 21.442034 21.329977 14.697166
114.91794 21.830372 21.215452 15
115.19586 24.324371 21.379398 15
115.10558 24.638828 21.292068 15.0295
114.97208 25.016062 21.364632 14.339417
114.87148 25.430538 21.220392 14
114.84426 25.850237 21.371099 15
114.85729 21.693735 21.996723 14
115.14661 24.621578 21.841858 14
114.97153 25.097122 21.902954 14
114.8584 25.308065 21.923286 14
115.13104 24.619963 22.065754 14
115.01501 24.912197 22.027884 14
114.89796 28.211954 22.101675 14.026166
115.11327 29.354311 22.218893 15
115.18343 19.868372 22.712994 15
115.19928 22.984983 22.793743 15.1505
115.12448 21.97805 23.091467 15
115.00644 22.311699 23.106249 15
114.88563 22.57213 23.127356 15
115.11411 23.111258 22.911463 14.724334
115.03205 23.336716 22.952955 15
114.94711 23.730186 23.007696 15
115.03931 24.179306 23.025663 15
114.99461 24.620821 23.006691 15
115.0276 24.919312 23.0116 15
115.00951 25.214523 23.0028 15
115.10311 28.649288 22.802763 15
114.8768 29.65089 22.94194 15
115.01654 22.98687 23.356194 15.04475
115.16468 23.543646 23.291828 15.15
114.91309 24.174179 23.274349 15
115.08192 23.449032 24.486849 15
114.94006 23.863804 24.471127 15
114.83096 24.1138 24.468504 15
115.49783 16.453865 0.2264405 7
115.44691 2.6653886 3.8664923 8.0319996
115.46045 28.626442 7.5208664 10
115.23684 28.788832 8.5946617 10.078
115.28535 19.839464 9.6941338 11.1415
115.43541 27.667034 9.9482079 11
115.3242 27.984083 10.126537 11
115.44025 28.052452 10.173091 11
115.56218 28.699476 10.099957 11
115.41508 18.092539 10.703693 10.0595
115.42031 20.136208 10.754012 11.03775
115.29988 20.499325 10.630124 11.04
115.34903 23.817307 10.635641 11.0175
115.28621 24.207029 10.630126 11
115.58185 27.114721 10.616518 10
115.5755 27.440718 10.623984 10
115.47686 27.759058 10.621558 10
115.38652 15.023044 10.874585 10
115.49638 19.129025 10.994195 11
115.41158 19.440409 10.951005 11
115.38358 19.785683 10.954685 11.039666
115.47762 20.144272 10.82345 11.03525
115.5569 25.858347 11.079384 10.039
115.59242 26.10564 11.039439 10
115.5251 19.402792 11.201055 11.0885
115.58973 20.063913 11.399864 11.091
115.22632 20.939005 11.32267 11
115.50447 26.513056 11.297595 10.05525
115.2701 28.265465 11.862635 11.086
115.24745 28.91247 11.68054 11.0535
115.54994 19.099874 12.234259 12
115.41855 19.466177 12.227877 11.897722
115.29516 19.833754 12.211962 11.896778
115.23844 20.068781 12.375211 12
115.46867 27.29814 12.197556 11.058
115.43499 19.509188 12.423759 12
115.58518 28.709665 12.687489 12
115.5219 28.848021 12.721193 12
115.45444 19.384506 13.031047 12
115.33839 23.972775 13.079728 12
115.26257 24.168062 12.988357 12.002679
115.24841 28.572662 12.818833 12
115.53838 19.025377 13.286408 12
115.56025 19.799017 13.53635 12
115.40323 20.231386 13.497407 12.024333
115.32995 18.097052 13.95109 11.0595
115.49061 18.849726 13.676666 12
115.28185 19.428606 13.88394 12
115.53805 19.769709 13.603416 12
115.3896 20.172531 13.682374 12.034
115.54665 27.025331 13.89069 11
115.45175 27.507441 13.890718 11
115.44725 28.22674 13.928973 12
115.35532 28.593981 13.91512 12
115.28065 28.833811 13.908757 12
115.4957 19.033197 14.19094 12.5
115.43203 19.3902 14.203348 12.272125
115.29127 19.893583 14.016458 12.0885
115.48351 20.43545 14.361853 12.091
115.5301 25.74102 14.385764 11
115.52036 26.072014 14.387581 11
115.57791 15.585609 14.557715 11.175
115.54767 19.073484 14.710052 13
115.38834 19.421911 14.684734 13
