# .PCD v0.7 - Point Cloud Data file format
VERSION 0.7
FIELDS x y z intensity
SIZE 4 4 4 4
TYPE F F F F
COUNT 1 1 1 1
WIDTH 417
HEIGHT 1
VIEWPOINT 0 0 0 1 0 0 0
POINTS 417
DATA ascii
90.315002 73.714302 3.5872593 10.045
90.199409 82.693268 3.3256567 9.0120001
90.363594 73.157677 5.0108314 8.0024996
90.395653 81.59716 5.9876761 11.074
90.000984 81.619865 6.2722383 11.035
90.052498 82.122429 6.8614388 12.049
90.140648 82.471931 6.9803858 12.046
90.386627 67.092636 7.3258295 12.0355
90.182144 82.218765 7.2129931 12.04
90.787224 83.950775 3.8367944 10.0365
90.520378 72.971443 5.0685854 8.0015001
90.590851 60.34742 5.3794637 10.028
90.75737 80.039948 6.4196057 11.064
90.420761 81.869972 6.9600911 12.051
90.519958 66.833565 7.3923988 12.035
90.441811 81.768852 7.2165666 11.083
90.646416 82.629196 7.8801761 12.0405
90.418472 79.124733 9.0079079 10.045
90.642052 68.207878 9.4351416 10.001
90.915131 85.876366 1.7170385 9.0375004
90.98233 86.020836 1.6312805 9.0375004
90.987617 83.365837 2.1888828 9.0270004
91.118134 83.062859 3.050647 9.0155001
91.08802 83.930084 3.5280204 10.0365
90.908043 83.911781 4.3084679 10.028
91.151848 78.785423 5.8209991 10.0145
91.122475 82.151764 6.749691 12.0405
90.990738 80.619743 7.0522208 11.026
91.00621 80.311424 7.4920936 12.039
90.945358 80.803619 7.3041177 12.0395
91.005447 80.132423 7.7974601 12.0385
91.12677 70.222389 8.9743214 12.033
91.158524 70.455162 9.1240721 13.04
90.858292 70.331871 9.2662573 13.039
91.48851 67.131584 5.231483 10.0325
91.340393 78.616447 6.6060557 11.0635
91.360619 79.580482 7.3511357 11.081
91.302063 79.877556 7.4422607 12.039
91.402443 80.042633 7.4036655 11.082168
91.236755 79.978592 7.8044376 12.039
91.306496 80.20446 7.9362435 12.0345
91.587448 80.112015 8.0663738 12.037
91.381821 80.560616 8.055438 12.035
91.381844 79.970039 8.6685476 12.035
91.206696 80.383865 8.4898539 12.035
91.227486 70.543015 9.0749731 13.0385
91.262543 72.233978 9.1015234 13.044
91.329056 69.457642 9.4713926 12.052
91.293228 70.002747 9.4486837 12.0695
91.551758 70.741554 9.2231922 13.04
91.403198 69.868217 9.837327 12.53175
91.21666 70.141457 9.7923107 12.0775
91.579704 68.88813 12.655001 11.0045
91.713814 70.102966 1.8190883 9.0369997
91.663216 80.93409 8.213953 12.04
91.678123 70.076218 9.4062338 13.041
91.721916 80.779663 10.390282 10.0065
91.699623 80.51857 10.495859 10.005
91.60627 67.804169 12.398751 11.0005
91.814781 68.812637 12.363915 11.001
91.935638 69.211632 12.106124 11.024
91.620529 68.401054 12.589727 11.0005
91.937637 69.532936 12.532362 11.001
91.746597 70.520378 12.538362 11.0015
92.004074 83.992714 2.1813352 9.0275002
92.066643 83.781471 3.1705775 9.0124998
92.042244 81.813469 3.3105063 9.0120001
92.033424 83.238724 3.2926004 9.0120001
92.191116 83.654762 3.5206661 10.0365
92.269005 84.126152 3.4963191 10.039
92.314026 83.51844 3.8018 10.058
92.324516 83.590118 4.2648816 10.037
92.190956 84.10479 4.1126356 10.037
92.329872 83.820244 4.4953885 10.0275
92.161957 60.320122 5.9633937 10.033
92.130318 76.519814 7.6465597 11.025
92.006851 68.81823 12.179106 11.1615
92.080795 69.068184 12.511526 11.001
92.704277 83.757294 4.2474518 10.05125
92.493851 76.380798 6.8574562 10.0105
92.505074 76.133286 7.9353991 11.0805
92.411179 76.051689 8.7218733 12.0515
93.01165 84.779518 1.9707149 9.0664997
93.142288 83.580833 2.1860383 9.0284996
92.955788 85.055733 2.1358953 9.0415001
92.823143 83.225235 3.104531 9.0159998
93.12307 81.800293 4.7346263 10.027
93.157875 81.603188 5.916688 11.038
93.178802 81.906784 6.0096045 11.036
93.369049 81.987259 2.307992 9.0279999
93.553375 84.129059 2.2247734 9.0375004
93.315613 84.629547 2.1088557 9.037199
93.542389 83.868301 2.6917422 9.0220003
93.422989 82.645195 2.8276999 9.0170002
93.458839 82.270775 6.1086578 11.041
93.834686 84.463318 1.4551084 9.0395002
93.797699 85.131454 1.462116 9.0567503
93.8685 85.145737 1.6802304 9.059
93.782196 85.308121 1.6115669 9.0834999
93.885742 83.718689 2.3059304 9.0369997
93.91423 84.008774 2.2514293 9.0279999
93.833107 85.457916 2.1467025 9.0284996
93.649185 84.090057 2.7277703 9.0174999
93.815071 83.859215 3.6803153 10.037
93.924576 84.158249 3.7407687 10.0595
93.99044 84.438324 3.7736826 10.0555
93.817726 83.572922 4.0619035 10.037
93.693947 83.744537 4.1233048 10.037
93.674271 76.040703 7.8416018 11.08
93.619392 76.843887 7.737505 11.0255
94.122162 84.620773 3.5929961 10.0395
94.384499 83.87674 3.9433327 10.0585
94.006905 84.192047 3.6129286 10.08
94.218391 83.586853 4.4605589 10.036
94.245056 83.629814 4.4625201 10.037
94.456871 83.833443 3.9423995 10.0755
94.566971 89.965652 5.5556302 8.1575003
95.061523 80.605232 5.8705077 10.016
95.088348 80.945869 6.173068 11.036
95.04921 80.626404 6.6790872 11.036
95.123352 80.431763 6.8853021 11.036
95.520973 80.605682 6.1437111 10.016251
95.413361 80.682953 6.9401078 11.063749
96.969528 85.813576 1.2733002 9.0813341
96.949371 85.727615 1.7805809 9.0384998
96.896645 85.801941 2.0102706 9.0384998
97.227722 85.565277 1.398463 9.0780001
97.483414 85.797836 1.5265976 9.0384998
97.44162 86.387314 1.4938936 9.0410004
97.341072 86.70015 1.5619379 9.0845003
97.472473 87.00399 1.4637191 9.0389996
97.346222 85.119675 1.8802913 9.0487499
97.364433 85.425453 1.6746864 9.0723333
97.393913 85.627075 1.8692355 9.0839996
97.580566 86.653069 1.9557292 9.0389996
97.316925 84.975006 2.386375 9.0384998
97.32827 85.34919 2.2055888 9.0384436
97.402679 85.829498 2.3842111 9.0384998
97.343292 86.081055 2.1674485 9.0674992
97.297867 86.518852 2.1392181 9.0389442
97.32309 85.807327 2.4563973 9.0375004
97.511002 85.5429 4.2588878 10.0385
97.28093 79.059898 7.3509431 11.036
97.932602 86.007996 1.7231759 9.0434999
97.632668 86.707924 1.6092083 9.0389996
97.82692 87.219582 1.642036 9.0439997
97.831192 84.555122 2.2787495 9.0657501
97.829788 85.052498 2.1976805 9.0695
97.743744 85.468323 2.3885729 9.0375004
97.893311 85.944077 2.2450628 9.0384998
97.913055 86.257866 2.357487 9.03825
97.754845 86.886246 2.2120769 9.0569
97.87706 84.531517 2.4957671 9.0375004
97.73941 86.828918 2.4203043 9.0380001
97.743965 85.792763 3.848273 10.066333
97.951279 86.098335 3.9490817 10.0435
97.811493 86.547409 3.7270632 10.041
97.967804 86.860535 3.7267015 10.039
97.857971 87.304359 3.8502688 10.044
97.714111 86.666985 4.1980228 10.039
97.886032 86.367081 4.4301105 10.039001
97.709663 77.44014 7.7664065 11.063167
98.20211 86.595238 1.3994415 9.0784998
98.032394 85.602364 1.8341658 9.0839996
98.261375 86.562157 1.8217937 9.0789995
98.020683 87.035095 1.7464596 9.0845003
98.154381 84.788879 2.1883402 9.0375004
98.040222 85.5784 2.2017303 9.0675001
98.091705 85.653542 2.0686955 9.0380001
98.329849 86.569031 2.2032859 9.03825
98.04187 87.044266 2.3124137 9.0395002
98.022285 84.447327 2.5784137 9.0369997
98.086967 85.082237 2.4757252 9.0380001
98.267731 86.682472 3.8840599 10.05875
98.084183 85.94532 4.3108301 10.038
98.138603 86.224991 4.1653352 10.04925
98.238205 86.6408 4.1339264 10.05975
98.214653 85.7547 4.6529679 10.03875
98.313805 76.210381 6.798347 10.0155
98.052826 78.893036 7.3523674 11.036
98.729385 86.812019 1.3324125 9.0799999
98.694519 87.716385 1.4798352 9.0395002
98.730484 87.464645 1.8186926 9.0485001
98.799126 87.409836 2.0115972 9.0395002
98.58371 86.892296 3.8297505 10.08
98.607323 85.192795 4.3213434 10.038
98.517288 85.235779 4.1936731 10.0765
98.475021 85.612625 4.2753134 10.038
98.603508 86.938293 4.3113542 10.0385
98.61264 84.933708 4.6026802 10.0385
98.611679 85.51297 4.6767468 10.06075
98.689491 85.791771 4.6654434 10.077666
98.599396 86.141167 4.6495404 10.069124
98.526474 86.678627 4.6375198 10.039
98.800117 87.162949 1.8308476 9.0845003
98.996841 87.337509 1.824597 9.0845003
99.028122 87.955902 1.6408321 9.0445004
98.874046 87.115494 2.1756516 9.0472507
98.818581 87.430527 2.3333416 9.0384998
99.137642 84.204155 3.9985254 10.079
98.94458 86.812836 3.8560193 10.0815
98.944893 83.895218 4.0307012 10.083
99.184334 84.354149 4.2049007 10.038
99.016869 84.621078 4.2691846 10.0595
98.999878 84.81353 4.2106266 10.038
99.027672 83.954315 4.457665 10
99.126579 84.311813 4.6002684 10.032249
98.978096 84.628937 4.4590101 10.0375
99.130898 85.053055 4.5017605 10.075
99.183632 85.302681 4.6203461 10.0735
98.863068 86.671082 4.5428662 10.07925
99.114082 84.232239 4.8629904 10.037625
99.485054 82.14875 1.9171174 9.0375004
99.422577 83.932915 2.2567291 9.073
99.50116 86.931091 2.2616324 9.0395002
99.312599 83.471107 2.6389153 9.0375004
99.334259 84.698647 3.9666128 10.0405
99.250046 87.167313 3.7919679 10.0415
99.28685 85.106697 4.1546507 10.0565
99.277374 87.486084 4.0092731 10.0575
99.257339 84.206367 4.5783868 10.068167
99.333519 84.604279 4.6706438 10.046249
99.291756 85.283562 4.665648 10.084
99.240036 84.346756 4.8346806 10.0845
99.256767 85.045883 4.8499055 10.0295
99.41671 85.335228 4.998538 10.085
99.588127 85.658257 5.1806664 10.085
99.448685 86.405647 4.8014278 10.038
99.492149 84.565956 6.791852 11.01925
99.303299 85.112762 6.4086123 11.0385
99.58654 84.838173 6.8521132 11.0385
99.85376 83.529175 2.1416991 9.0745001
99.727203 84.090874 2.1657722 9
99.791809 86.765495 4.1992579 10.0605
99.922264 84.198074 4.5133533 10
99.662621 84.709587 4.7563348 10.0375
99.750328 86.553261 4.7198977 10.0395
99.647141 84.604019 5.0457678 10.0835
99.9562 84.93409 4.8175325 10.0375
99.921616 85.757248 6.2579756 11.041
99.911888 86.106483 6.2445674 11.039
99.923195 85.407417 6.4592628 11.0435
99.995781 85.739456 6.7514858 11.039
99.810631 85.718307 6.9633174 11.039001
100.34949 88.05262 2.1921158 9.0710001
100.33693 87.47625 2.419488 9.04
100.3326 88.104645 2.4361172 9.0395002
100.32291 88.36058 3.9611719 10.04
100.37631 83.333298 4.1399922 10.038
100.30186 86.219116 5.4291759 10.0855
100.15353 86.530304 6.3825378 11.044
100.3996 84.789246 6.6247225 11.0565
100.07317 85.01902 6.6898279 11.08075
100.20309 85.291397 6.6531706 11.066167
100.0639 85.737595 6.5143747 11.0385
100.0805 86.075142 6.4582348 11.048
100.11645 85.855812 6.8271999 11.039
100.7907 88.096809 1.5513356 9.04
100.6067 87.752716 1.8888366 9.0769997
100.64477 88.105667 1.8357575 9.085
100.74387 87.418114 2.2552829 9.0702496
100.545 88.479874 2.1061857 9.0395002
100.77838 87.192719 2.5123684 9.0384998
100.48425 88.349289 2.4234748 9.04
100.69895 86.976036 3.9251611 10.0395
100.68961 83.004593 4.2927876 10.048
100.6302 83.78463 4.3152885 10.043
100.50395 86.705116 4.3878112 10.0395
100.65661 82.948639 4.6503134 10.043
100.75487 86.777847 4.5901814 10.055
100.7036 86.984276 4.7137346 10.0385
100.51356 82.906502 4.8983684 10.038001
100.66244 85.360207 6.7348313 11.06
100.64439 85.38578 6.8585043 11.038
101.17127 87.577065 1.5850091 9.0419998
100.80743 87.172691 1.7558734 9.0775003
100.92451 87.363434 2.1120105 9.0814991
100.90616 87.799385 2.0577404 9.04
100.86414 87.088692 2.5878754 9.0384998
100.95943 87.724533 3.9250009 10.062
100.96295 88.096626 3.8748677 10.04
101.15953 88.485695 3.9959641 10.045
101.18749 87.157654 4.3147087 10.0775
101.02925 87.408401 4.0481801 10.064501
100.87172 87.814873 4.3470287 10.04
100.98414 88.171745 4.1084623 10.058
100.98727 83.268616 4.602839 10.056
101.13497 86.990814 4.6957283 10.0736
101.12216 87.348236 4.6385999 10.0735
100.85947 87.725388 4.5743036 10.04
101.03938 83.026436 5.0549941 10.037251
101.00336 83.530556 4.888689 10.0835
101.07961 87.017464 4.843514 10.061625
101.07448 87.224785 4.8324766 10.0855
100.81994 86.639687 6.282999 11.0415
101.03625 84.654472 7.1008554 11.057
101.07236 85.803253 7.1299872 11.038
101.09523 84.937958 7.2800632 11.03825
101.58181 65.46006 -2.0485501 7
101.31012 88.355637 1.7323066 9.0780001
101.54446 82.774841 2.0764589 9.0559998
101.38304 88.162575 2.5235689 9.0389996
101.37555 87.437004 4.2724528 10.05025
101.3294 87.420219 4.4917936 10.040334
101.23669 87.64975 4.7090726 10.085
101.50032 88.271645 4.7330513 10.039
101.23181 83.486076 4.8949447 10.073
101.28992 86.906487 4.8710017 10.06175
101.26514 87.248672 4.8115802 10.04
101.47138 86.724846 6.5283957 11.0395
101.47787 85.766205 6.8582854 11.0385
101.22063 84.670044 7.3827262 11.0385
101.35729 84.846077 7.3587546 11.0375
101.78236 83.334084 1.8420312 9.0404997
101.99986 82.212959 2.3706543 9.0380001
101.91237 88.362091 4.264091 10.04
101.80036 87.960533 4.5026646 10.0395
101.77574 88.318344 4.4621916 10.0395
101.63556 88.086617 4.8307323 10.04
101.71348 87.18708 6.4867783 11.0445
101.88839 86.202232 6.9335513 11.06175
102.37199 82.953743 2.0841069 9.0430002
102.1717 82.332802 2.4687858 9.0380001
102.36836 86.610771 2.6265416 9.0395002
102.35104 88.465446 3.939754 10.0425
102.16457 87.790512 4.7433782 10.080334
102.31082 88.204216 4.7602634 10.069
102.25485 88.477676 4.5822062 10.0395
102.1906 87.659187 4.9136543 10.0395
102.17803 88.101639 4.8821435 10.0395
102.19712 87.330017 6.377182 11.042
102.36585 87.624687 6.3945422 11.04
102.31342 87.242027 6.6479387 11.0395
102.29629 87.672462 6.5527678 11.04
102.35833 88.171791 6.469944 11.045
102.14327 86.383476 6.9475775 11.0395
102.54833 82.286537 1.9246514 9.0380001
102.66917 87.887276 1.7828772 9.0450001
102.78394 88.259804 2.3646152 9.0404997
102.62443 81.880074 2.6793439 9.0380001
102.62897 89.220528 4.0479164 10.0455
102.65361 88.341438 4.7087526 10.0405
102.4941 87.487686 5.6007595 10.086
102.40151 87.47863 6.9595699 11.04
102.92629 88.389267 1.7401965 9.0854998
102.86054 88.138321 2.3340049 9.0404997
102.94858 87.306389 5.2882843 10.085
103.55328 89.861816 4.5819335 10.088
103.55366 89.93264 5.1208105 10.0855
103.94822 89.367294 -0.18511088 8
103.93233 89.353821 1.541479 9.0799999
103.81299 89.788322 1.4298289 9.0815001
103.96244 89.561188 1.8638401 9.0439997
103.91104 89.811829 1.883443 9.0859995
103.95195 88.795898 2.357152 9.0994997
103.9092 89.807121 2.1023657 9.0570002
103.81814 87.650536 2.6090677 9.0404997
103.82437 89.772507 2.4871712 9.04
103.99459 89.679588 2.9712343 9.1335001
103.81098 89.913712 3.6133966 10.0445
103.98763 88.521477 4.15979 10.0825
103.95946 89.462189 4.2608013 10.040334
103.81071 89.833939 4.1609359 10.0588
103.87782 89.776909 4.5541172 10.055667
103.95336 87.977592 4.9758058 10.0665
103.94759 88.683937 4.9754405 10.0555
103.89681 89.024269 4.829237 10.0855
103.77677 89.391808 4.9717021 10.080188
103.85235 89.797531 4.9130116 10.060666
103.67909 89.818199 5.2974644 10.08625
104.1125 87.236778 1.9749426 9.0579996
104.24681 88.680336 1.9022603 9.0790005
104.19228 88.989746 1.9223465 9.0811424
104.13549 89.385452 1.9356992 9.0858326
104.2316 88.29818 2.0991907 9.085
104.09348 88.570671 2.1864965 9.0819998
104.21677 88.974411 2.1788311 9.0578566
104.02634 89.31897 2.1888318 9.0377502
104.00127 89.694496 2.0355132 9.0860004
104.33065 86.384918 2.5084462 9.04
104.0806 88.154907 2.5600469 9.0911999
104.12267 88.682236 2.6034489 9.039917
104.07349 89.130478 2.4403117 9.0670004
104.14274 88.244202 3.3175282 9.1392498
104.16772 88.411644 3.341599 9.1429996
104.00444 89.466263 3.7184532 10.044
104.08491 88.339775 4.2334666 10.06275
104.1215 88.519127 4.2527742 10.061
104.07422 89.802513 4.2707281 10.059
104.15315 88.135826 4.6962256 10.080999
104.07254 88.489868 4.5676994 10.04
104.23592 89.049057 4.6861067 10.033834
104.13483 89.280998 4.5828938 10.059
104.25688 87.975914 4.9286246 10.075
104.0916 88.387001 5.042932 10.04
104.10844 88.580154 4.9806147 10.070167
104.17129 89.008522 4.9107614 10.0497
104.02788 89.615372 4.9610724 10.0405
104.32154 88.238937 5.2880249 10.08525
104.15987 88.674309 5.2914047 10.086
104.50922 87.737648 5.0553474 10.085
104.43156 88.017288 5.0644584 10.085
104.63769 87.585129 5.2534523 10.085
104.5291 87.828484 5.2576413 10.086
107.13499 81.276306 3.1190548 9.0369997
107.12837 81.111877 5.5873322 10.069
107.14194 81.534645 5.6329331 10.083
107.40218 80.245209 5.5277691 10.07325
107.27261 81.081909 5.304338 10.037
107.44247 80.281097 5.7833662 10.050875
107.64562 79.553352 5.7261271 10.0685
107.68555 79.816734 5.8758817 10.037333
107.96657 79.095711 6.020555 10.037
108.35013 78.327003 5.903697 10.0375
108.30989 78.196968 6.0567446 10.0375
108.97832 77.312164 5.4303923 10.055
119.82869 69.451027 4.2543917 9.0290003
