# .PCD v0.7 - Point Cloud Data file format
VERSION 0.7
FIELDS x y z intensity
SIZE 4 4 4 4
TYPE F F F F
COUNT 1 1 1 1
WIDTH 571
HEIGHT 1
VIEWPOINT 0 0 0 1 0 0 0
POINTS 571
DATA ascii
90.393921 54.608307 0.49234924 8.0504999
90.619347 57.393425 4.1164846 9.0205002
91.164635 55.410431 0.55382162 8.0550003
91.392487 52.002972 1.5386968 8.0314999
91.207497 52.647556 2.4641321 9.0535002
91.688507 51.94104 2.2778833 9.0734997
92.067184 47.799107 1.1881837 8.1560001
92.176788 47.690426 1.2732518 8.1560001
92.343056 50.735943 3.8544412 8.1440001
92.189095 58.696396 5.6913981 10.03775
92.368904 58.731853 6.0471182 10.028
92.381844 59.088554 6.3217516 10.028
92.568855 52.381355 0.63764334 8.0489998
92.697922 48.367123 0.84567481 8.0459995
92.710693 47.463745 1.3675703 8.0310001
92.405556 58.838703 6.2276793 10.028
92.866585 48.640667 -0.54311061 7
92.966492 49.472469 0.78024364 8.0489998
93.023979 49.813732 0.7762512 8.0500002
92.853119 47.876442 0.85734683 8.0450001
92.85112 48.715076 0.92472631 8.0535002
93.064423 48.886391 0.80860484 8.0469999
93.134048 51.121387 0.80363065 8.0539999
93.014191 47.220699 1.2627138 8.1555004
93.073898 50.857075 1.5714318 8.0305004
93.211884 47.090565 1.2923988 8.1555004
93.371353 47.454395 3.548564 8.1365004
93.290573 49.144131 3.6330247 9.1560001
93.827782 44.802147 1.1250794 8.1545
93.995079 43.513405 1.3049325 8.1540003
93.908981 44.370258 1.3509195 8.1545
93.897514 44.655788 1.3097026 8.1545
93.985214 48.209526 3.6528139 9.1555004
94.130089 43.524761 1.1439863 8.1540003
94.207253 44.956158 1.3384237 8.1545
94.232384 46.289135 1.3325765 8.1549997
94.003807 46.571289 1.2875247 8.1549997
94.226997 48.074615 3.6652462 9.1555004
94.466003 47.029289 1.1162906 8.1549997
94.44445 46.469715 1.3766329 8.1549997
94.492065 47.855385 3.6678503 9.1555004
94.508804 49.925716 4.6237702 10.0515
95.037117 42.813416 1.1699512 8.1534996
94.806847 47.392387 3.5172141 9.1549997
94.952248 47.490334 3.6847272 9.1549997
95.24894 41.3769 0.79202306 8.0974998
95.507797 40.390656 0.94352371 8.0970001
95.546516 41.08007 1.1478435 8.0705004
95.494118 41.238476 0.91336834 8.0974998
95.545433 40.248287 1.3470186 8.1523333
95.532173 41.698589 1.3465734 8.1529999
95.294243 42.698555 1.3925411 8.1534996
95.961182 39.296425 0.80334491 8.0965004
95.912888 40.284782 0.96602207 8.0780001
95.669418 40.56908 1.1199752 8.0745001
95.85347 40.516533 1.46478 8.1000004
95.738899 41.810947 1.3509548 8.1529999
95.837708 42.064255 1.3581165 8.1529999
95.79039 40.676857 2.9287393 9.0979996
95.816864 46.429302 3.6237881 9.1545
95.737312 49.423416 5.4114799 9.0139999
96.078903 39.840981 1.1824367 8.0555
96.049278 40.090488 1.0620637 8.0708332
96.373138 38.30439 1.4291611 8.0494995
96.044769 38.79261 1.2346952 8.066
96.062508 39.145935 1.4115123 8.1520004
96.168274 39.497246 1.2946752 8.0524998
96.300819 42.131084 1.4232191 8.1529999
96.333298 39.800117 1.7210515 8.0994997
96.285881 40.550606 1.7425203 8.1000004
96.110001 40.010521 2.7096422 9.0620003
96.009201 39.487335 3.0336308 9.0625
96.067856 40.042175 2.9695971 9.0670004
96.130646 39.650566 3.3879607 9.0965004
96.295219 40.091728 3.3114862 9.0970001
96.357155 45.552174 3.5629625 9.1540003
96.005013 46.124714 3.7026231 9.1545
96.177719 46.672272 3.7203457 9.1545
96.174843 48.381115 5.5259838 10.032
96.684456 38.583755 1.1653399 8.0620003
96.518532 38.950146 0.98864281 8.0643339
96.50428 40.215672 1.0446813 8
96.621918 41.622017 0.90986103 8.0764999
96.58992 38.348579 1.2006577 8.0705004
96.465576 38.540588 1.2779717 8.0550003
96.450165 38.960609 1.2343205 8.0550003
96.522507 39.36779 1.2130722 8
96.783043 41.458717 2.7568793 9.0644999
96.689545 38.655449 3.0895433 9.0310001
96.64801 38.920044 3.0560598 9
96.552002 39.936462 3.1467392 9.0970001
96.522583 40.038437 3.1088731 9.0555
96.633041 38.251411 3.4355264 9.0955
96.592453 38.43124 3.4758084 8.5764999
96.605843 39.068111 3.3488061 9.0965004
96.516266 39.391571 3.5472956 9.0965004
96.561714 40.238918 3.3232653 9.0970001
96.566742 40.517998 3.350224 9.0970001
96.777916 37.710835 3.6348562 8.0605001
96.600639 45.121555 3.7113028 9.1540003
96.67041 45.443546 3.739054 9.1540003
96.76104 47.507374 3.7696586 9.1545
97.139397 42.321369 0.64030099 8.0985003
97.021507 37.745659 1.0218855 8.0930004
97.000786 38.237663 1.1308137 8.033
97.099197 39.694481 1.1142018 8.0625
96.809113 40.164097 0.82613868 8.0970001
96.8424 41.672623 1.1163577 8.0594997
97.179657 37.514008 1.509445 8.0485001
97.137848 37.605297 1.2930217 8.0655003
97.015991 38.106556 1.2894921 8.0544996
96.948235 39.273201 1.2271816 8
96.913254 38.450935 1.8507673 8.0985003
97.128159 37.79007 3.1728396 9.0614996
96.933167 38.318344 3.0971072 9.033
96.867126 38.600227 3.1714652 9.06425
96.838806 39.137184 3.1639371 9.0550003
97.135422 40.205803 3.0459576 9
97.123428 40.500248 3.0322704 9
97.16082 37.847801 3.3203261 9.0515003
97.060631 38.167233 3.400589 9.0821657
96.949463 38.782654 3.2698681 9.052
96.804375 39.00267 3.3558891 9.0965004
96.874977 39.313503 3.4396689 9.0734997
97.194054 41.847511 3.4580112 9.0974998
97.088898 42.027122 3.3652384 9.0974998
97.033401 42.819687 3.2034595 9.0979996
96.871307 37.333344 3.6992524 8.0705004
97.126152 37.742378 3.7855229 8.1389999
97.067574 38.015522 3.6159577 9.0959997
96.946838 39.678616 3.9101915 9.0994997
97.154015 41.012207 3.8192151 9.099
97.169098 39.998642 5.0379934 10
97.116402 40.142231 5.0430942 10
97.022995 41.176323 4.8026276 10.0985
97.11026 37.064232 5.7893734 9.0559998
97.331642 40.339531 -0.58599102 7
97.243637 38.579559 1.1187418 8
97.288788 39.083168 1.1447573 8
97.513176 40.841545 1.0637935 8
97.353943 37.480438 1.5157446 8.0480003
97.294228 37.816467 1.3839291 8.0536661
97.280441 38.091553 1.5344007 8.0474997
97.237343 37.310089 3.1587236 9.0655003
97.318443 39.393177 3.1544571 9
97.277267 39.637169 3.1657259 9
97.287483 40.786285 3.0720949 9.0388336
97.403114 40.917831 3.03409 9.0760002
97.40786 37.452312 3.370085 9.0320005
97.280197 37.751434 3.352196 9.0722504
97.314774 38.011723 3.4388757 9.0480003
97.23262 38.541515 3.361944 9.0494995
97.359924 41.661205 3.2344868 9.0974998
97.556595 40.407112 3.8164055 9.0994997
97.503891 41.625122 3.7851415 9.1000004
97.561668 44.880608 3.6822402 9.1534996
97.35759 37.606979 4.3631668 9.0985003
97.449371 38.434048 4.3441195 9.099
97.55722 37.408936 4.4864235 9.0979996
97.218643 38.647068 4.4266496 9.0985003
97.35788 39.962185 5.0741534 10.0625
97.541405 40.023464 5.1504884 10.0755
97.263741 40.451298 5.0417819 10
97.306168 42.487198 4.8217325 10.099
97.458122 41.473671 5.4500189 10.097667
97.682251 38.505424 0.8266359 8.0955
97.777336 36.597435 1.5522664 8.0485001
97.714134 37.034542 1.3145326 8
97.721359 36.215424 1.6376823 8.0465002
97.964767 36.59082 1.6147541 8.0459995
97.62915 43.551132 2.7301133 9.0649996
97.755447 41.116287 3.0612481 9
97.667389 41.800842 3.1663723 9.0804996
97.903702 36.918896 3.2523322 9
97.799919 37.26564 3.5171199 9.0469999
97.625549 41.188213 3.914928 9.1000004
97.92408 43.405403 3.7807462 9.1529999
97.759468 37.244671 4.3974466 9.0985003
97.804474 40.366035 4.3014879 9.0994997
97.605934 39.677738 4.5250349 9.0994997
97.613594 40.962288 4.4948115 9.1000004
97.666443 39.112709 5.1135077 10
97.785004 39.477787 5.1480832 10
97.682541 39.693707 5.1436176 10
97.634583 41.045933 5.1020002 10.0675
98.366661 35.863461 1.078025 8.0950003
98.124817 36.035656 1.1433083 8.1374998
98.196823 40.170158 1.0725726 8
98.214241 40.539585 1.0950079 8
98.199303 36.202286 1.5908318 8
98.044052 36.588074 1.5663089 8
98.033463 36.95443 1.4591177 8.0509996
98.185776 36.054626 1.6068605 8
98.345795 34.946175 3.3968306 9.0415001
98.151108 36.36758 3.2582259 9
98.097923 36.724239 3.293885 9
98.152634 37.023396 3.4106359 9.0457144
98.016747 44.774628 3.7725532 9.1534996
98.241997 36.250175 4.0908971 9.0769997
98.060722 38.543457 4.5811057 9.099
98.085541 39.154392 5.1681437 10.062
98.229294 41.160717 5.1143556 10
98.337997 39.132011 5.2099619 10.058
98.243759 39.54401 5.3083844 10.0515
98.399597 39.846466 5.3653793 10.0495
98.299438 40.130108 5.4803739 10.097
98.206345 40.71384 6.2593265 10.0995
98.660721 34.585323 1.315673 8.0889997
98.773499 35.214123 1.2620692 8.0810003
98.569756 36.08157 1.3994477 8.0252495
98.543518 36.560421 1.2580327 8
98.599487 36.880428 1.24142 8
98.754784 34.099903 1.753845 8.0434999
98.711044 34.758938 1.6717834 8.0475006
98.780533 35.085213 1.7046125 8.0439997
98.567772 35.884083 1.6277317 8.0089998
98.420845 35.931007 3.2942483 9
98.582214 36.161873 3.3147173 9.0190001
98.4319 36.518551 3.3649831 9
98.634438 37.045193 3.5941184 9.0955
98.674644 35.965649 3.6923099 9.0950003
98.431343 36.003315 4.0371213 9.0895004
98.639946 36.988033 4.0509067 9.0815001
98.733879 37.483974 4.0295682 9.0900002
98.448555 37.771358 4.0757737 9.0775003
98.56498 42.607243 4.514945 9.1005001
98.716652 42.606876 5.1668844 10.0765
98.697884 35.391441 5.3880229 10
98.787918 36.120434 5.4146457 10.06275
98.771568 37.03223 5.2910767 10
98.672264 37.276527 5.3097072 10
98.542091 39.126667 5.3257375 10.0705
98.403732 39.202385 5.2568102 10.075
98.488693 39.828209 5.3460751 10.0505
98.693237 40.263729 5.4039478 10.049
98.429108 40.863194 5.3290467 10.05
98.694717 43.23856 5.4657631 10.0985
98.478188 40.727364 5.768117 9.7503328
99.059685 35.543774 -0.31056193 7
99.094543 35.832317 -0.33570179 7
99.049248 36.320938 -0.36309621 7
98.984924 35.012302 1.4641517 8.0249281
99.17955 35.774647 1.45286 8
99.103165 36.156002 1.4187816 8.0188332
98.884918 36.612793 1.4037217 8
98.919876 36.978069 1.3652996 8.0284996
98.948326 37.633408 1.2037348 8.0655003
99.195885 33.593498 1.7572558 8
99.072655 33.811943 1.7403561 8
98.917778 34.153336 1.7067028 8.0132141
98.965401 34.66325 1.692088 8
98.989449 34.884884 1.6999474 8.0291672
99.181953 35.207966 1.7124511 8.0465002
99.034378 35.762173 1.6367403 8
99.00602 37.03854 1.6051227 8.0464993
98.868919 37.292595 1.6136209 8.0469999
99.041656 37.903538 2.9394238 9.0609999
98.945488 33.044022 3.5442374 9.0117998
98.99601 33.360878 3.5184195 9
99.076241 33.710651 3.5060985 9
99.054512 35.323704 3.440089 9
98.994057 35.810116 3.485781 9
99.100182 36.177986 3.5488241 9.0152855
99.130203 36.726494 3.5570841 9
99.129982 37.248955 3.5111406 9.0939999
99.177307 33.486149 3.6462586 8.1365004
99.034752 35.89893 3.6063035 9
99.019119 36.057106 3.617943 9.0445004
99.162025 32.509232 4.3825507 8.0459995
99.161972 34.578548 4.0195885 8.0480003
99.198341 35.033455 4.170475 9.0764999
99.084045 35.159908 5.4328871 10
98.962875 35.372158 5.3948202 10
98.845345 35.756023 5.4058332 10
98.914848 36.243973 5.3356915 10
98.875694 37.026939 5.3378878 10
99.044594 38.354507 5.2840414 10.0615
99.006836 39.32164 5.420186 10.05025
99.071648 34.55418 5.7442646 9.0570002
98.923035 34.68174 6.2592635 9.1370001
99.067322 34.210812 6.5950108 9.0749998
99.079178 34.562511 6.639205 9.0480003
99.463493 33.021191 1.5513492 8
99.364212 33.36834 1.5242473 8
99.480202 33.794384 1.5265366 8
99.324669 34.211098 1.4996291 8.0296001
99.212952 36.896042 1.3545749 8
99.275162 33.391487 1.7654406 8
99.213127 33.600216 1.7580556 8
99.202904 34.59343 1.697386 8
99.386955 35.364025 1.7220277 8.0459995
99.324722 35.649918 1.6614277 8
99.347984 32.925785 3.5714109 9
99.276131 36.361469 3.5872068 9
99.222961 36.554455 3.574594 9
99.249954 36.895092 3.5581632 9.0485001
99.32592 32.730686 3.6142702 9
99.287506 34.254635 3.6778836 8.1365004
99.222908 36.59037 3.6276815 9.0462494
99.582169 34.304913 4.1582561 9.0804996
99.31382 34.406128 4.1971827 9.085
99.314888 35.687977 4.1152029 9.0810003
99.414276 35.22414 4.6708164 9.0970001
99.560051 36.385353 5.5258465 10.0505
99.446762 36.649128 5.5416803 10.013375
99.569969 37.373241 5.3873138 10.057
99.401375 38.356216 5.3343244 10.0575
99.55558 36.211773 5.6169324 10
99.507362 36.736012 5.6389475 10.0465
99.496071 36.87196 5.6181788 10.046
99.605423 35.052662 -0.68829536 7
99.657959 32.986694 1.5736861 8.0183334
99.690956 33.223343 1.5952325 8
99.755043 33.672199 1.5734881 8
99.742691 35.471027 1.4616896 8
99.74675 32.493977 1.6011509 8
99.665062 32.874645 1.6126955 8
99.681534 33.387642 1.7464621 8
99.669647 33.959263 1.8316059 8.0950003
99.602425 34.077549 1.8745332 8.0955
99.856789 35.871037 1.6201224 8.0485001
99.919754 35.240162 2.0620737 8.0970001
99.70356 33.862797 3.5333059 9
99.697823 34.107986 3.5340395 9
99.992783 33.892365 3.7528875 9
99.919243 34.196976 3.7312949 9.0134001
99.883621 35.002941 3.7073557 9.0363998
99.679298 36.620258 4.6397839 9.0974998
99.704689 36.917866 4.5251861 9.0979996
99.7341 33.170853 5.5792975 10
99.788338 33.416912 5.5756545 10
99.824837 33.868908 5.559094 10
99.888733 35.396854 5.496592 10.056
99.696663 36.241016 5.4645724 10
99.730125 37.039726 5.5709238 10.049
99.754555 37.429699 5.5049391 10.051
99.888443 39.11084 5.5192857 10.0495
99.921463 32.743122 5.7124333 10
99.85994 33.050865 5.6660023 10
99.95356 33.294518 5.6103444 10
99.863411 35.396183 5.6382184 10.03425
99.688728 35.881615 5.6672044 10.028832
99.710075 36.16819 5.6326475 10.022699
99.678658 36.52187 5.6082587 10
99.886772 37.068478 5.624526 10.0455
99.764565 37.328529 5.6208987 10.046249
99.80584 32.691532 6.5572596 9.0804996
99.79715 33.110836 6.6479645 9.0810003
100.18858 46.002346 -0.90848708 7
100.16167 34.308624 -0.2519213 7
100.09559 34.690861 -0.28694627 7
100.14106 35.007328 -0.29997826 7
100.01891 37.718708 1.3757564 8.0539999
100.34422 32.332413 1.8117285 8
100.32745 32.598324 1.8031062 8.0037727
100.26083 32.865742 1.8085459 8
100.03789 35.565113 1.6781347 8
100.08662 34.502487 3.5510077 9
100.35053 31.821045 3.8886328 9
100.33672 32.208443 3.7870085 9.048625
100.18372 33.507927 3.7531033 9
100.03949 33.761662 3.770597 9
100.37586 30.70919 4.3599491 8.0454998
100.10406 33.415005 4.2646842 9.0845003
100.027 34.208035 4.6096721 9.0952501
100.01655 33.692848 5.5988503 10
100.26102 34.520901 5.5861239 10
100.0312 37.400578 5.5259876 10.0695
100.11286 37.928501 5.4399676 10.054
100.32036 38.150581 5.5811477 10.0495
100.15581 32.620655 5.6319036 10
100.08746 32.904446 5.6124411 10
100.34035 33.490456 5.790978 10
100.35511 33.659008 5.7618937 10
100.35485 34.331734 5.6027083 10
100.34975 34.705257 5.7646556 10
100.26394 35.025017 5.800271 10.058
100.03661 36.16692 5.9359312 10.095
100.28896 38.168163 5.612299 10.0485
100.40149 36.782017 -0.51068932 7
100.65348 30.370773 1.9467806 8.0129995
100.66912 30.569645 1.9495552 8
100.75976 31.013245 1.9171904 8.0084
100.72803 31.415361 1.8667058 8.0395002
100.68966 31.845631 1.8859109 8.0241432
100.56967 32.187477 1.8284876 8.015583
100.51916 32.657257 1.7991472 8.0057144
100.59672 33.083401 1.7786915 8
100.51902 33.276535 1.7456781 8
100.77802 30.325611 2.009475 8.0439997
100.65522 31.813992 3.8387971 9.0169992
100.43008 32.044025 3.8744488 9.0410004
100.73965 32.667885 3.8185816 9
100.71975 33.052753 3.8292403 9.0061426
100.63743 33.386654 3.8135862 9.0067501
100.54753 31.385557 4.0287595 8.0524998
100.51756 33.836956 4.2724862 9.0760002
100.52178 33.101429 5.8210816 10
100.48606 33.306816 5.8681536 10.014333
100.53815 33.844604 5.8245521 10.005785
100.63415 34.1516 5.7908578 10.012072
100.50777 35.065197 5.7804275 10.029167
100.56966 35.392841 5.722908 10.047
100.45741 37.94083 5.6619883 10.0465
100.41969 31.628057 6.2843838 9.1355
100.80936 37.309498 -0.42438018 7
100.90273 33.368114 1.5445529 8.059
100.80257 30.182558 1.9715235 8
100.9472 30.720833 1.9009788 8.0198746
100.92751 30.946299 1.9155676 8.0210838
100.8938 31.337395 1.886626 8
100.9478 31.805893 1.8716756 8.0273333
100.85407 32.894165 1.8296344 8
100.92816 30.026155 2.0159175 8.0415001
101.00287 32.383358 2.9139023 9.1385002
100.85212 30.419611 3.6302471 8.1350002
101.1011 31.121876 3.9356468 9
100.92853 31.431885 3.8869345 9.0097504
101.00449 31.797029 3.9514053 9.0205002
101.01503 32.269905 3.7828205 9
101.00526 32.600086 3.857919 9.0065384
100.85963 32.89769 3.8686693 9
100.80381 33.34959 3.852252 9
100.91625 35.70438 3.7521281 9.0229998
101.18745 31.036491 4.0093699 9.04175
100.97343 35.890961 4.6007524 9.0959997
101.15465 38.709549 5.5881252 10.0515
101.01421 31.371771 5.9223371 10.0212
101.02914 32.50721 5.7292042 10.0545
100.83713 32.883167 5.7099366 10
100.87054 33.767292 5.8619447 10
100.96149 34.53981 5.8043146 10.0325
100.82087 35.529766 5.8067012 10.0465
101.03155 35.667213 5.7690496 10.0415
101.04181 31.159185 6.0068474 10
101.28649 37.915253 -0.58491015 7
101.53893 36.656212 -0.39464465 7
101.46298 30.395435 3.8987186 9
101.31335 30.696535 3.9326811 9.0214996
101.3072 31.046223 3.9875629 9.0141668
101.21362 32.271156 3.9228826 9
101.22747 32.895813 3.6945333 9.0515003
101.34896 30.37291 4.0227942 9
101.28034 30.626495 4.0306993 9.0250998
101.3556 30.920584 5.8830705 10.025249
101.35694 31.517591 5.8851676 10.027
101.56497 31.605593 5.9040003 10
101.46494 32.779335 5.9780049 10
101.43575 32.915859 5.9375296 10.003038
101.36922 33.854752 5.9487734 10.042
101.21925 38.634575 5.7085195 10.048
101.59222 31.067326 6.0646114 10
101.39116 31.54748 6.0190554 10
101.50343 31.763857 6.015965 10.0195
101.53374 32.70808 6.0046654 10
101.73698 31.829401 1.7161539 8.0509996
101.6732 30.886993 3.8186669 9.0504999
101.72633 30.733404 4.025238 9
101.67747 31.409397 5.9234371 10
102.26604 30.520208 6.1260896 10.030499
102.15524 31.517956 6.1316853 10.0445
102.49027 30.211384 -0.090295963 7
102.47251 30.155998 4.1049094 9.0389996
102.71423 32.1227 6.1536622 10.042749
102.98342 31.207699 6.200489 10.045
102.92533 31.81167 6.1870112 10.041499
102.93295 32.270084 6.1456642 10.042749
103.84501 32.737091 1.6445041 8.0585003
103.72778 30.9846 6.3103561 10.041
103.93689 31.729441 6.2777386 10.0405
104.68928 32.690449 1.708665 8.0670004
104.77614 41.750118 7.9287572 11.0665
105.14784 41.798992 6.7627759 10.0285
105.53236 32.827023 1.7137111 8.0544996
105.24689 42.277706 6.9087367 10.0965
105.22328 43.068523 7.9501548 11.067
106.07403 42.023281 6.9017386 10.0965
106.44469 45.835339 6.1699166 10.098
106.60464 42.497795 7.6976671 10.063
106.61787 45.06168 8.0945663 11.0595
106.85174 46.413017 6.4578009 10.0625
107.03828 42.643421 8.2902889 11.054251
107.03318 42.884113 8.2825527 11.053249
106.90197 44.275131 8.2919006 11.07375
106.80368 43.433834 9.1366425 11.1505
106.87945 43.407448 9.4928446 11.151
106.91563 43.729095 9.4091625 11.151
107.12492 45.114075 9.2520552 11.151
107.31255 44.370029 7.648345 10.1
107.45641 41.308212 8.2695942 11.066
107.43718 44.092831 8.2167711 11.059
107.28491 43.057686 9.5262003 11.1505
107.38744 43.736397 9.4645491 11.097
107.52274 44.45612 9.5202322 11.151
107.43267 40.802078 10.128106 10.1395
107.71515 41.542469 8.3166704 11.058
107.90166 41.926968 8.4949293 11.056834
107.64736 42.135887 8.4155817 11.075
107.71286 42.369843 9.3996925 11.0965
108.11603 42.012207 8.5616922 11.049
108.09555 42.501015 8.450448 11.0525
108.46727 41.755287 7.0594649 10.096
108.40688 40.898975 8.1452465 10.0655
108.43349 42.976051 9.1553574 10.027
108.96721 40.48217 8.4799891 11.0655
109.08732 41.052975 8.6653662 11.07
115.90949 30.139107 12.217371 12.143
116.3374 58.829842 -1.7210553 7
116.0066 30.182676 10.016206 11
116.00545 30.212898 12.746497 12
117.37563 30.107405 18.072941 14.0565
117.83003 30.002769 10.370727 11.040751
117.76167 30.815203 11.197792 11.092
117.70435 30.543369 11.261597 11.09175
117.65395 30.388956 14.32553 13.095
117.92232 30.012215 15.45332 13.0565
117.9492 30.151684 22.615412 14.0245
117.80956 30.035105 22.943981 13
118.17576 30.224108 10.378826 11.04
118.05431 30.125097 18.480274 14
118.22787 30.572777 21.063124 15.0565
118.15786 30.214861 22.962099 13
118.72024 30.322649 9.9008741 10.0295
118.68412 30.361246 10.383865 11.0395
118.45809 30.162989 10.442112 11.042
118.71538 30.501085 10.479652 10.032
118.54876 30.227839 13.766947 11.0275
118.72991 31.116253 14.794425 12.092
118.57281 30.358461 22.996372 13
118.58939 30.432718 22.990047 13.256124
118.9902 30.372171 10.407101 10.0275
118.97148 30.438236 10.475017 11.043334
118.83428 31.269327 11.049061 11.092
118.97855 30.519621 14.464522 12.094
119.00062 30.547762 23.014847 13.232444
119.29596 51.565491 -1.2473739 7
119.47811 51.071365 7.9687195 10.0995
119.42194 51.226212 7.7197447 10.098
119.22109 30.057316 10.486311 11
119.57573 30.178293 19.297268 14.0375
119.24563 30.80793 21.82156 14.0915
119.23069 30.671785 22.059725 15.0925
119.2524 30.303438 22.630873 13.0715
119.38811 30.693419 23.069111 13
119.34983 31.715984 23.141228 15.092
119.65816 51.182228 6.8225937 10.0725
119.88801 30.399878 13.136931 12.047
119.87446 30.079136 13.363255 12
119.77019 31.537422 13.943105 12.092
119.84676 31.600502 14.130294 12.092
119.89334 30.528742 15.90437 13.047
119.8821 30.1189 16.185545 13
119.74296 32.078598 16.423964 12
119.70303 31.603939 17.107862 13.092
119.76022 31.666664 17.326214 13.092
119.8493 30.644192 18.700132 14.047
119.8797 30.242277 18.995661 13.820682
119.93428 30.431221 18.969513 14
119.78741 30.11731 19.247442 14
119.80075 31.679188 20.35063 14.092
119.63542 30.256413 20.441671 13.0245
119.88408 30.765236 21.560881 15.047
119.8935 30.254475 21.868876 15
119.89704 30.478724 21.812296 15
119.91822 30.207031 22.158649 15.0075
119.75316 30.557631 22.31576 14.391
119.97682 31.005362 22.329231 15.0375
119.78776 30.275721 22.401909 15.0365
119.91611 30.937529 22.45529 15.0365
119.93061 30.447716 23.029167 13.0275
119.76567 30.860409 23.065834 13.113889
